-632.4596125731379 104.93068079004385 167.46856491643962 74 204 254 
-633.5851052226576 106.85569994721726 172.68043472763569 74 205 254 
-634.0018904690173 105.46130847348363 169.35600417279508 75 205 254 
-632.2088812156297 107.31105550318344 172.5732790975086 74 205 254 
-632.2867804061385 103.91103815118032 165.7126486849264 75 205 254 
-632.5124993453062 106.94977520694148 173.17449489354598 75 205 254 
-631.2639419988539 105.55143710041396 170.02710163680936 75 204 254 
-632.1282841354563 104.74563423209476 169.1924357301711 75 205 254 
-631.2231638468057 105.6390294538071 167.9415559577182 74 205 254 
-630.8571018882215 106.21757200915746 169.91308397812784 75 205 254 
-631.8060992008529 107.05748381335971 170.83584889748434 74 205 254 
-634.6288702551358 106.19357715196404 171.0443633409051 74 205 254 
-633.5031089488157 106.89546744039376 173.69185889925782 75 205 254 
-631.3873002830921 104.70752771377471 166.5164273766412 75 205 254 
-634.4365554619308 105.72409384673152 171.0812603761619 74 204 254 
-631.2792063289545 106.79086857425196 169.0957307341295 75 205 254 
-633.7961180140525 104.73771502620112 167.01083774192762 74 205 254 
-632.0778218436327 105.5597878071189 168.33238360199374 74 205 254 
-633.8590599160099 104.02364836759715 165.7967070079003 75 204 254 
-632.5833083486459 105.42856006868575 167.4999413945842 74 205 254 
-631.055971090407 106.2505267630999 169.93233016533424 74 205 254 
-631.2507007505916 106.5755151014653 168.70325077292551 75 205 254 
-633.9268031403604 105.60137674720428 170.57113866009166 74 205 254 
-632.1159411689574 106.90434501005821 171.7588250183125 75 205 254 
-633.859398451878 105.37829861890118 170.12154835571678 74 204 254 
-631.1445956223508 106.33067330153953 169.12897672353543 74 204 254 
-634.2939598091389 105.0065043606008 169.7287212579318 74 204 254 
-632.6313902452245 105.91164211420066 169.26726290808364 75 205 254 
-631.7529812850279 106.66269939005824 169.17125730744544 75 205 254 
-631.8992648533224 106.17338555040052 171.3997752039656 74 204 254 
-631.017403180381 106.72182910444052 170.75959939572707 74 204 254 
-632.101499518383 105.8218410924825 167.8628672278098 74 204 254 
-632.2819381207037 106.6854175611082 172.57586474785597 74 205 254 
-632.4089099561259 105.36990116573709 167.3129506427625 74 205 254 
-632.5936162330877 105.6592198726946 168.79927195915158 74 205 254 
-633.0766355386617 106.81967582181815 172.32650312415896 75 205 254 
-633.4399013677763 105.75998856186827 170.56560975449946 74 205 254 
-632.9695954086275 105.06515128350443 168.03381174197781 75 205 254 
-634.4694014742644 105.93726088975323 171.49878705682843 75 205 254 
-635.0964874483957 105.70314130154752 169.43305442847299 75 205 254 
-634.5462558027165 106.40292542097399 172.4097693082772 75 205 254 
-632.1818593088531 103.57731852155865 165.13206690096985 74 204 254 
-632.384499831409 105.34921244729968 169.15097289028952 74 204 254 
-630.8897539850668 106.12232046549538 170.86468462960457 75 204 254 
-635.7053580585331 105.6800868123367 169.64837323498114 75 205 254 
-633.0181977233503 105.30725389595312 167.53124686044956 74 204 254 
-632.9670715754108 106.80102121364492 173.22124867466724 75 205 254 
-633.1010648247169 103.5579404503489 164.649014702291 74 205 254 
-630.9098419011358 106.37708996671633 171.30980132322154 75 204 254 
-632.0093953855436 107.08198668501258 173.1098709681145 74 205 254 
-632.8863035197782 104.30375822947308 165.73646728190982 75 204 254 
-631.4299531308114 106.51808777211932 171.75517564478872 74 204 254 
-632.5565014923857 106.51999473480414 171.34427566428212 75 205 254 
-634.0201588597378 105.27058119345973 168.07249570854165 74 204 254 
-632.6986863318558 106.61679580186527 170.57299391103004 75 205 254 
-630.3664136615856 107.35013129152675 170.7263087465821 74 205 254 
-631.8963324426093 105.68382646936713 169.45221796102047 75 205 254 
-633.927737510475 106.50582780950039 173.2708828100241 75 205 254 
-630.9279733649439 105.78190616227533 168.2026320694845 75 205 254 
-632.5130104070386 105.19992839691082 167.95203961345277 75 205 254 
-633.2786736989751 104.51921690836882 169.4703452248566 75 204 254 
-634.8034945427864 105.83241282249983 172.49891345368718 74 205 254 
-631.2515876750313 106.77601930440399 169.99894001413438 75 205 254 
-633.6315815456833 106.07806270323073 170.24974131418753 75 205 254 
-634.9960622453079 105.20702608903414 169.4354227989788 74 204 254 
-631.7858006309966 104.06129679600615 165.6649568699016 75 205 254 
-634.5099551654957 106.6035036540696 172.7667201479712 74 205 254 
-634.4140942127865 104.61175853780887 168.05792656323572 74 204 254 
-632.6547075733245 104.87562257689162 169.70288465814446 75 205 254 
-633.8774666112366 106.28326528182988 172.8345838322653 75 205 254 
-632.3822436343676 104.16295605014162 165.23074668746733 75 204 254 
-632.7042653405389 105.11082297902395 170.1176212769363 75 204 254 
-634.7850873652551 106.22012816075659 171.16346947971417 75 205 254 
-631.8210597168788 105.24674757729343 168.65385017147003 75 204 254 
-631.7325545113944 105.2045983910745 169.70922139151784 74 204 254 
-633.4237529768055 106.68028489551035 173.25708958198672 75 205 254 
-631.5447803074434 107.02116883739933 172.667774197202 75 205 254 
-631.18532352797 105.23784176764802 169.5267070975949 75 204 254 
-635.5546514495489 103.77155076339761 166.63268473635 75 205 254 
-633.2701557269781 104.81168749406122 168.80070345781016 75 204 254 
-633.7531477083471 104.66252148588813 168.8260200759387 75 204 254 
-634.9543286471309 104.80457536955934 167.685110610702 75 205 254 
-631.1411887761711 105.85630652171433 168.28174722711083 74 205 254 
-631.8764968776097 102.80411779033716 163.85436157768325 75 205 254 
-632.9784034084762 106.1250983514991 170.96052832507175 74 205 254 
-632.5983125366104 105.43068751571735 168.39830775649293 74 205 254 
-631.344188816023 105.38767264016523 168.60680089853173 75 204 254 
-632.594807561555 104.76965953378415 169.4958559555191 75 205 254 
-631.1848654202969 108.0072324931388 174.2462379167011 74 205 254 
-633.3498086623672 105.29808845099154 169.68236139261273 74 204 254 
-633.9821518889444 105.01740360628433 167.59287994995674 74 205 254 
-631.3742770783651 106.28584543892931 171.3168598406009 75 204 254 
-631.1988993475375 106.05992418562731 167.7995376934488 75 205 254 
-633.4188705561122 106.42725720444383 172.80485281664028 74 205 254 
-632.9344979223392 105.91054969833264 170.53136901879708 74 204 254 
-632.7006920516203 104.44503228543599 167.86107698263163 75 205 254 
-634.893974268874 106.25070864694196 173.33691970006342 74 205 254 
-632.0404373680656 103.26264996536736 164.5812076258573 75 205 254 
-634.5650629183485 105.53828613089958 169.83095926940007 75 205 254 
-634.042952388836 106.54891871581864 172.3789288867078 75 205 254 
-630.2600659382659 106.96499755431698 169.9676275560152 75 205 254 
-633.5935646548354 105.6113532134963 168.42952232685855 74 205 254 
-632.7470919160257 104.69418528516256 168.2984667845769 75 204 254 
-634.3204942446254 104.8104878494866 169.3920917279649 75 205 254 
-633.0303825473671 106.3473030449716 171.40795839710623 75 205 254 
-632.0384342272907 106.45433642786297 170.88255574966212 74 205 254 
-633.2282597756088 104.55517773549467 168.34530043726218 75 204 254 
-632.1681025443768 104.91385980940076 169.48699631238983 74 205 254 
-632.9987653810821 105.24944951835172 168.3765755022739 74 204 254 
-633.323953049701 104.14304374148105 166.67895516354943 75 204 254 
-632.3204295356392 106.02844646040363 171.42368441536786 74 204 254 
-632.2417209746877 106.75307576368792 170.54394053432904 74 205 254 
-631.5477980178342 104.37579382398876 168.3311539017028 74 205 254 
-631.4213687348991 105.84263522350534 169.42906425685152 74 204 254 
-630.7567026040352 106.88163490350072 170.01383140593055 74 205 254 
-634.4481509630912 104.42144145550867 167.7171269951 75 205 254 
-633.0716002247464 105.73481519511472 169.2873320073345 75 205 254 
-630.7944192811457 107.31235305157635 170.77631221363987 74 205 254 
-635.0325583870599 105.48732628926146 168.9865719362963 75 205 254 
-633.3913155690026 104.49591710657766 169.48351931919308 74 205 254 
-631.5519694313538 104.016972150079 164.51866662537697 74 205 254 
-635.5395699838257 105.36088498843681 168.98852867451993 75 205 254 
-634.044340758026 106.7251465237864 172.7099748400525 74 205 254 
-631.0367880192824 105.29595660622762 167.38609210307376 74 204 253 
-632.0759014088654 104.48688238050715 168.76392395315054 75 205 254 
-633.7723893791139 104.88042341395901 169.20263400374913 74 205 254 
-634.3998302029696 105.47021669697024 170.60387815376492 74 204 254 
-631.9697162557504 106.88436526958313 172.7180308318517 75 205 254 
-634.5964168925442 105.56724732651449 168.92935975877015 75 205 254 
-633.6096401372159 105.8333054640191 169.79277454611477 75 205 254 
-631.3152118366836 105.87442435620432 167.5086190421341 75 204 254 
-633.3255529379461 105.96880209650318 171.9366878392809 74 204 254 
-632.2700350447107 103.68249740787532 165.34260830457748 75 205 254 
-634.6058528218258 105.81129173091642 169.40887576249713 75 205 254 
-633.795600463295 103.81138653072044 166.34513759559425 75 204 254 
-631.5558593520917 104.63617537115562 168.7154135918446 74 205 254 
-633.4900098270491 106.22609043945732 171.44192827134972 75 205 254 
-630.931206831003 106.62246242766142 171.73099739605956 75 204 254 
-632.4094631492892 104.46513866791688 165.728058829311 74 204 254 
-634.8589467639314 106.0490165043675 172.92832435683502 74 205 254 
-632.9849185236818 103.31856927462543 165.1757771473775 74 205 254 
-635.0400676838215 106.08671747390146 171.1337790572379 74 205 254 
-634.3236995463086 104.38339967558198 166.64501173680043 75 205 254 
-632.4235445508865 105.11215962910296 167.75621795122402 74 205 254 
-633.8157138843299 105.16145731162301 169.7044846283299 74 204 254 
-633.4713715984858 105.9893349162175 170.99892655852838 75 205 254 
-635.5131480423718 105.77449457902293 169.77479223671864 74 205 254 
-633.3958173589676 104.424630019858 166.22491190163558 75 204 254 
-634.4736349668326 104.89224224771023 167.61769545719167 75 205 254 
-635.7093659663285 105.73154396073245 169.755626396902 74 205 254 
-633.1357096429128 106.20837062585778 170.17241899621024 75 205 254 
-633.7426534319078 106.01152935941104 172.27909357522338 75 205 254 
-632.5736033926971 107.43244655384859 174.09239673963265 75 205 254 
-631.5773434320329 106.57747191449617 170.81754936847 74 205 254 
-632.2662446340773 103.62183437850553 164.28717895071793 75 204 254 
-632.3965229000454 103.56888560729303 166.34025826472086 75 205 254 
-633.5271175763112 105.36443289054444 168.895469693564 74 204 254 
-630.9709612817743 107.1386569525298 172.6161890318326 74 204 254 
-631.9255337347604 106.62794646407788 172.22572113358515 74 205 254 
-631.2942185606887 104.85434199948781 167.7476118069203 75 205 254 
-630.7990344749887 107.10822673104714 170.42819668735774 75 205 254 
-634.503521530515 106.1643823937367 171.94034141710347 75 205 254 
-634.8819205189671 105.79717532650496 171.5288218350688 75 205 254 
-634.4415362430675 106.63431427369534 173.75812276486494 75 205 254 
-632.0977607583293 105.5865752625065 167.4384105158937 74 205 254 
-630.9965693677808 106.5041422210229 170.36352462106223 74 204 254 
-632.0716958652862 106.68021949786662 171.3170254645242 74 205 254 
-634.6258201554056 104.24425077381647 166.47572295383128 75 205 254 
-634.5289643961328 105.37604235679935 168.52352815127492 74 205 254 
-632.3407101339724 103.93535883388334 164.8395476930026 75 205 254 
-633.4091894374029 105.48855991251092 170.06506751418848 74 204 254 
-631.9120161485856 104.59703349781597 165.65894993910055 75 204 254 
-635.5797897035078 105.5846508350305 169.4227775228823 75 205 254 
-633.6676520369241 106.09582825124345 169.35305087272263 75 205 254 
-634.9750531697874 105.24446844098256 168.5141987033991 75 205 254 
-630.7534850441377 107.67267156358491 173.49435225709283 74 205 254 
-631.8670736989955 104.31606166135981 166.1219634061202 75 204 254 
-630.6413308337517 106.17781403293948 168.76953948601926 75 205 254 
-631.9522221520142 104.82612327840815 167.00267205851648 75 204 254 
-631.5505393796747 107.24210227679316 173.06529324851644 75 205 254 
-632.9654881202612 106.44981189463692 172.61404839258884 75 205 254 
-631.6087267569892 107.46703380327294 173.52386954498368 75 205 254 
-632.040101842133 107.32176942697853 173.56500625209324 75 205 254 
-632.107619215975 106.0412892270708 169.20352033344662 75 205 254 
-633.8561162889775 104.99663256108916 169.44086380053858 74 205 254 
-633.6194894832936 105.85159066713828 168.88026946266717 75 205 254 
-634.4997587479979 105.33187704927204 169.40941777330448 75 205 254 
-634.0475536083284 105.69788409216278 169.80713880817493 75 205 254 
-634.2955560369172 105.67017435622674 171.94835995540907 74 205 254 
-631.5492708907592 104.16739731826988 166.7867292261051 75 204 254 
-630.9695551993816 105.71433871551315 169.03246919897592 75 204 254 
-630.7772302579491 107.52825748672869 173.2249200838583 75 204 254 
-632.3244627187992 103.77618423304475 164.67630294853168 75 205 254 
-633.3837502852239 106.14206080659453 172.27871546942222 75 205 254 
-632.5441629221442 107.16911626360266 173.59354102758294 75 205 254 
-632.115931768274 103.54495561669656 164.08310076158742 74 204 254 
-633.9682607019735 104.78382276063056 167.17085995449645 74 205 254 
-631.5352008846853 105.66985826361908 167.27904976171732 75 205 254 
-631.3700699598613 104.44242376770542 166.09890290922704 75 205 254 
-632.6755207266185 103.61673005471523 164.51011305983303 74 204 254 
-633.0369500032305 104.47876525505885 169.28190103949117 75 205 254 
-633.0593114280487 107.25401106615558 174.11431994630686 75 205 254 
-632.340441169789 105.53797763842763 169.4760549697441 74 205 254 
-631.6259027649122 105.76216106024712 167.48545332573113 75 205 254 
-631.7581561648542 103.85620591417904 165.31506551308414 75 205 254 
-631.6456260965863 104.89031303261369 169.16113079639626 75 205 254 
-631.4741024966452 106.77046292417968 172.20136759830459 75 205 254 
-632.7197672962176 106.35787392486645 170.12309265391977 75 205 254 
-632.3866401649391 104.43035169183358 166.6038737505101 75 204 254 
-632.8527489040958 106.08279844828091 171.8591748063646 74 204 254 
-634.4844889876862 106.85885157582004 174.20486388893377 75 205 254 
-631.0988901792269 106.08693552057686 168.68403026193266 74 204 254 
-631.4840440864426 104.97911160850988 166.05129680869226 75 204 254 
-632.4986296651814 106.29712485323424 170.8932326089148 74 205 254 
-631.587083439099 105.95754714132117 168.71869851821532 74 204 254 
-632.101773484694 105.42526467056564 167.12250317332868 75 204 254 
-631.7795359966136 103.22556410981886 165.5314134044509 75 204 254 
-632.2528726623239 106.47808660708517 170.04369020701586 75 205 254 
-631.9011793304802 104.3249174737677 165.20769705400286 75 204 254 
-632.1760904170585 103.42027690294336 164.8876649783221 75 205 254 
-632.1912506199453 106.27574251261252 168.76330113580002 75 205 254 
-631.2323997666066 106.54282800243193 169.55792220713516 75 205 254 
-630.4571017282165 106.96623433317052 172.18010460974546 74 204 254 
-632.0828111533122 103.88212489359002 166.61617150378166 75 204 254 
-634.5165886694892 105.14108847503775 168.08138039249152 75 205 254 
-633.5164948448376 106.47551656927321 171.91572284882406 75 205 254 
-635.0223862456666 105.01449941873454 168.09726853259673 74 204 254 
-633.6490568644799 106.47439796613011 170.98248633537418 74 205 254 
-631.7334970779272 105.3979710765635 170.02341556405707 75 204 254 
-631.7554696999056 106.88716538134597 170.50137574712156 75 205 254 
-634.0834772348634 105.69253428368548 168.88915205426937 75 205 254 
-631.5770108916498 103.98162467851655 166.51577348339458 74 204 253 
-631.8548293788724 103.9024479988567 164.50298674697908 74 204 254 
-631.6687595376741 107.28861029005945 172.18379730693584 75 205 254 
-632.9914075506811 105.00299258153808 166.99047806957302 75 205 254 
-631.9685471373649 105.77022209307293 169.63907523609774 75 205 254 
-631.6451804175688 105.95013521716206 167.830497670048 74 205 254 
-634.2370614271547 104.72427135347726 169.19802012943492 75 205 254 
-631.6670732661573 105.09261300835975 169.49849227832092 74 204 254 
-633.5108981790703 107.12628410140888 174.12551789599414 75 205 254 
-634.1057828534196 106.15516376972126 170.6909911993608 75 205 254 
-631.2622348647898 105.80448151589682 170.4415015584195 75 205 254 
-635.0130063588009 106.24224057449945 172.4127802819894 75 205 254 
-632.5023023570407 105.17386741219582 167.00492796793372 74 204 254 
-633.154456737558 105.24795368566805 169.4791333664134 74 205 254 
-632.4189979744903 106.4812672664962 172.28237999618807 74 205 254 
-631.7844915638439 103.78333996029339 164.28087108908773 75 205 254 
-634.1827538547695 106.32759707123607 171.0596276450799 74 205 254 
-632.0702949853172 103.99024883140449 166.77921639998445 75 205 254 
-631.6384494729616 106.17990867909398 169.15358335742425 75 205 254 
-633.9465425540567 105.83219243243025 171.0088491789542 75 205 254 
-633.1497314187102 106.23560355611085 169.2844183862118 75 205 254 
-631.0762697666191 105.48589579076838 169.92944798147374 74 205 254 
-631.7578578164474 104.74894632072909 167.79305392366476 75 205 254 
-631.8494471423222 104.07828452682665 164.78216677310772 75 205 254 
-632.981344180055 105.133092439635 167.20052262140973 74 205 254 
-632.7280763565167 106.36675973543237 169.2241812412321 75 205 254 
-631.9457612255882 104.85302576226042 166.1032183715573 75 204 254 
-631.7217268575276 106.42053775927113 168.7142770641918 75 205 254 
-633.5668906562478 105.40485161925692 168.02799472758912 74 204 254 
-635.0871135457829 105.88187863273573 170.75469195304447 75 205 254 
-632.1770729928121 106.29893490447718 169.67866626475256 75 205 254 
-633.1759106328858 104.29824061666073 167.89703703681545 75 205 254 
-631.4505618809247 106.94578134380694 172.48805244787502 74 205 254 
-634.9798477312905 106.7363280094387 174.2676443623389 75 205 254 
-633.7974982123595 105.81532496695317 171.94259647928465 74 205 254 
-630.7430843946844 106.37142499959322 169.12246263196965 74 205 254 
-635.1217747953766 105.8777822368493 169.78299647563315 74 205 254 
-631.3355712893308 106.05949730144968 170.9040424530656 75 204 254 
-633.0494536019933 105.53468388769375 167.96204087444863 74 204 254 
-631.8452018965321 105.89432037811007 170.90074272833172 74 204 254 
-634.4228530025748 106.36775671101786 173.2611132198576 75 205 254 
-632.2586882675944 106.93264430215793 170.87492137259045 74 205 254 
-632.5606498930237 106.75765962017493 171.77791269296267 75 205 254 
-631.418174077732 103.99375305647156 165.42159471844437 75 205 254 
-632.961521459083 104.79540397941346 166.6137165243838 74 204 254 
-632.0252919933081 105.0874877698279 166.54143703421678 75 204 254 
-631.1127911298316 107.60950193416376 173.50508750020927 75 205 254 
-632.1029217700949 106.05762080175458 168.29520352633014 74 205 254 
-635.0111340656714 106.43447143048473 172.75197992989595 74 205 254 
-632.1391326806106 107.14894779073377 172.22673061898777 75 205 254 
-633.070506292857 103.4576538184154 165.42948027696724 75 204 254 
-632.0303194943972 106.75790567994392 172.53278471151438 74 205 254 
-632.0902944401265 105.78510909368362 168.7378851544934 74 205 254 
-633.0896327770079 106.43910167782916 174.57415923886288 74 204 254 
-631.3912950798107 105.81399297905273 172.53903971107349 74 205 254 
-633.5886537995791 106.52808342170906 175.0056277452669 75 205 254 
-631.632374875892 106.64396675289909 174.04047687450455 74 204 254 
-633.7873147983776 107.48700285409868 176.8490899228167 75 205 254 
-634.1285033147885 106.64616661356652 175.54286020774168 75 205 254 
-631.4591294979595 108.45877964953064 177.10557316039188 75 205 254 
-633.2417282349112 107.15513502545413 175.9438017959857 75 205 254 
-632.189616431624 106.99452872436983 174.949772132693 74 204 254 
-632.711280570047 107.1241695338531 175.51912569437252 75 205 254 
-632.0968722005065 106.52749722312667 174.09295486456267 74 204 254 
-633.7945568640647 107.73570693166917 177.3043077597758 75 205 254 
-632.172964790287 104.98302982054783 171.6765783941476 74 205 254 
-632.0000430673746 105.59861181156485 172.52372408151635 74 205 254 
-631.5647278184034 106.40799268520007 173.60350201324522 75 204 254 
-632.8393880336127 105.3152727471537 172.53757820774922 74 205 254 
-631.1751735745722 107.02378582586911 174.41866128722913 75 204 254 
-633.7206986625893 107.27978752658694 176.43152284424116 75 205 254 
-630.9698170597361 108.61704986138764 177.0835592638245 75 205 254 
-631.72465534739 105.70097981859752 172.55142108561287 75 205 254 
-631.9099189875433 108.3233780754509 177.15301290611518 75 205 254 
-633.0519639015477 106.21063422938285 174.15628908544605 74 204 254 
-633.5396634569634 106.08613649982514 174.20738010742014 75 204 254 
-631.1929907972549 107.67112068814808 175.53638786726927 75 205 254 
-632.8837050453276 107.98708806881669 177.21063016703738 75 205 254 
-634.134817219184 106.88402105217585 175.96666159704728 74 205 254 
-632.0467426869271 106.26087193218834 173.62546900375537 74 204 254 
-632.3114719914876 107.69670978522277 176.2849579517489 75 205 254 
-631.3183221901498 107.76050908040555 175.78308225349926 75 205 254 
-632.4052777534831 105.322353742036 172.3266414638415 75 204 254 
-633.5797809502293 106.31170780720171 174.62805878603137 74 204 254 
-633.3177692190148 107.63197124431105 176.84283482959165 75 205 254 
-632.5496210329713 106.36074559689938 174.10522675220477 74 204 254 
-633.317313577111 106.7754750568153 175.27470349128208 75 205 254 
-632.4008544469802 105.46144961067287 172.53354825318408 75 205 254 
-631.783925782679 107.59451844896523 175.79238432742764 74 205 254 
-631.3908576058002 108.21849070836774 176.63528029660716 75 205 254 
-631.8955621840364 105.50128109998857 172.3195583089119 75 205 254 
-633.512912630038 105.83262665217289 173.74989520700203 75 204 254 
-632.994541331592 105.96711800803064 173.70871021922545 75 204 254 
-631.8656403553653 105.22520402199991 171.87008214640096 75 205 254 
-632.7422400035073 107.3292135099139 175.92107810119666 74 204 254 
-631.8697499417967 108.0838879192584 176.7014846599579 75 205 254 
-632.6804339666855 106.82522098000855 174.9890773536579 74 204 254 
-633.1315998259674 106.68483780367225 175.03297946316414 74 204 254 
-631.755211333384 105.06469386630096 171.562428358133 75 205 254 
-632.6289759555389 107.00495452440174 175.21487357006586 75 205 254 
-631.518309210383 106.1772727448576 173.19229584696316 75 204 254 
-631.8002641593315 107.44595414703751 175.53028895456663 74 205 254 
-632.3094769593754 107.14205935501558 175.31351562359174 74 205 254 
-632.24477706619 107.27443794141232 175.4632219318454 75 205 254 
-631.4935592428805 105.90917653294068 172.7452008016751 75 204 254 
-632.349894577843 107.94372672014798 176.74773640677742 75 205 254 
-632.3813444057652 108.17609295305475 177.18566482945005 75 205 254 
-633.6483028761905 106.79709682174423 175.5079099453864 74 204 254 
-632.1652712281978 106.74644744539742 174.51887612740842 74 204 254 
-632.1775951419968 107.15135922855423 175.12896368920107 75 205 254 
-633.154456737558 105.24795368566805 169.4791333664134 74 205 254 
-633.4477226412844 105.62921121080208 173.34832245362858 75 205 254 
-632.4320795639261 105.60763371406959 172.7947238477069 75 205 254 
-632.4189979744903 106.4812672664962 172.28237999618807 74 205 254 
-631.7844915638439 103.78333996029339 164.28087108908773 75 205 254 
-634.1827538547695 106.32759707123607 171.0596276450799 74 205 254 
-631.8281970137623 107.84579094189274 176.2615619125252 75 205 254 
-632.5067755790217 105.86124850623791 173.2556703579015 75 204 254 
-632.0702949853172 103.99024883140449 166.77921639998445 75 205 254 
-631.6384494729616 106.17990867909398 169.15358335742425 75 205 254 
-633.3170865328069 107.87501373532068 177.27409032009163 75 205 254 
-633.9465425540567 105.83219243243025 171.0088491789542 75 205 254 
-633.1497314187102 106.23560355611085 169.2844183862118 75 205 254 
-631.0762697666191 105.48589579076838 169.92944798147374 74 205 254 
-631.7406867033787 107.12132921197872 174.92802904836688 74 205 254 
-631.7578578164474 104.74894632072909 167.79305392366476 75 205 254 
-631.8494471423222 104.07828452682665 164.78216677310772 75 205 254 
-632.981344180055 105.133092439635 167.20052262140973 74 205 254 
-632.5545807396604 106.09530169435337 173.67459788738776 75 204 254 
-632.7280763565167 106.36675973543237 169.2241812412321 75 205 254 
-631.7217268575276 106.42053775927113 168.7142770641918 75 205 254 
-631.9457612255882 104.85302576226042 166.1032183715573 75 204 254 
-632.2748228676053 107.46793049698209 175.85119919058383 75 205 254 
-633.2211103582832 105.47222564777584 172.9689453648 74 205 254 
-633.5668906562478 105.40485161925692 168.02799472758912 74 204 254 
-632.0064160911274 106.00648288203993 173.19558615643444 74 204 254 
-635.0871135457829 105.88187863273573 170.75469195304447 75 205 254 
-633.2480261818323 107.38145987517682 176.3581967560215 75 205 254 
-632.1770729928121 106.29893490447718 169.67866626475256 75 205 254 
-632.3432271655319 105.10821292261795 171.95792753877586 75 205 254 
-631.1835125400187 107.2964198118977 174.89380025739163 74 205 254 
-633.1759106328858 104.29824061666073 167.89703703681545 75 205 254 
-633.0868369924061 106.88924832627787 175.38645351778774 74 205 254 
-631.2680947270796 107.51492797032522 175.32059074199347 75 205 254 
-633.2197397779223 106.96513556386064 175.57926617130067 75 205 254 
-631.4505618809247 106.94578134380694 172.48805244787502 74 205 254 
-634.9798477312905 106.7363280094387 174.2676443623389 75 205 254 
-632.605126521566 106.60890957113038 174.5616856769711 74 204 254 
-633.7974982123595 105.81532496695317 171.94259647928465 74 205 254 
-630.7430843946844 106.37142499959322 169.12246263196965 74 205 254 
-635.1217747953766 105.8777822368493 169.78299647563315 74 205 254 
-633.7219407835978 107.02544887943942 175.96624246414856 74 204 254 
-631.3355712893308 106.05949730144968 170.9040424530656 75 204 254 
-633.0494536019933 105.53468388769375 167.96204087444863 74 204 254 
-631.8452018965321 105.89432037811007 170.90074272833172 74 204 254 
-634.4228530025748 106.36775671101786 173.2611132198576 75 205 254 
-632.9176627338945 105.47239865628326 172.83781832687805 75 205 254 
-631.9690499497517 105.74790666531085 172.75295091152725 75 204 254 
-632.7780631552943 107.77773333026917 176.7631412076053 75 205 254 
-632.2586882675944 106.93264430215793 170.87492137259045 74 205 254 
-634.2488974218954 107.34898847694033 176.86020676775368 75 205 254 
-632.6945776496492 105.22374349174198 172.32785864937213 75 205 254 
-632.5606498930237 106.75765962017493 171.77791269296267 75 205 254 
-631.418174077732 103.99375305647156 165.42159471844437 75 205 254 
-632.961521459083 104.79540397941346 166.6137165243838 74 204 254 
-632.636740427312 105.11547093673775 172.12416086328446 74 205 254 
-632.9823776462939 105.71419727873965 173.2759152554854 75 204 254 
-634.2298934186545 107.11243207569753 176.43003791443098 75 205 254 
-632.0252919933081 105.0874877698279 166.54143703421678 75 204 254 
-631.6786354027793 106.90197846600938 174.50630625861487 74 204 254 
-632.7658332059485 107.53449246802046 176.3150006757749 75 205 254 
-631.7519979278026 107.34820487235095 175.33491490417003 75 205 254 
-631.1127911298316 107.60950193416376 173.50508750020927 75 205 254 
-631.3237227022285 107.99121764680677 176.19783830998318 75 205 254 
-633.6641713954809 106.65089644803038 175.2546863439526 75 204 254 
-632.6912961996888 107.01449093186359 175.34296287162948 75 205 254 
-632.1029217700949 106.05762080175458 168.29520352633014 74 205 254 
-635.0111340656714 106.43447143048473 172.75197992989595 74 205 254 
-632.1391326806106 107.14894779073377 172.22673061898777 75 205 254 
-633.070506292857 103.4576538184154 165.42948027696724 75 204 254 
-634.3018593447711 107.58802344556901 177.33145592000466 75 205 254 
-632.0303194943972 106.75790567994392 172.53278471151438 74 205 254 
-632.0902944401265 105.78510909368362 168.7378851544934 74 205 254 
-631.3266582067581 107.94124023594865 176.91125074349137 74 204 254 
-631.2572115535802 107.43579196934257 176.00902638799565 74 204 254 
-633.3414108860685 108.04699350572713 178.3930518187298 75 205 254 
-631.8295964366812 108.0173914352208 177.38869658928022 74 204 254 
-631.4091044092314 108.39549883002366 177.78922402416913 75 205 254 
-631.2890312161053 107.69727543004444 176.46754191671812 74 205 254 
-632.7415577735992 107.4715566104237 177.00495450760934 74 204 254 
-634.1809052077822 107.0587271881966 177.10727181499763 74 204 254 
-630.9610695471974 108.80627035192417 178.19179701038186 75 205 254 
-633.2420296583247 107.56403724009442 177.46195819184436 74 205 254 
-631.357590516977 108.15759548663743 177.32950432194272 74 204 254 
-633.6750667148838 106.71381565418437 176.20398173362975 75 204 254 
-632.5988562846909 106.77349409740141 175.71118904600954 75 204 254 
-632.3901688307117 106.10614712924682 174.49369584338692 75 205 254 
-633.9222924298083 108.27608816198729 179.19987652570984 74 205 254 
-632.9390590372337 108.57133189125157 179.13960557151276 74 205 254 
-633.464946793247 106.69000716589487 176.07130770111874 75 205 254 
-634.2044537247577 107.29626839105671 177.5481069715344 74 204 254 
-630.6892137095736 107.76664789467185 176.1889878474455 75 205 254 
-631.798039956976 106.05880789648124 174.0956908906175 75 204 254 
-631.4467042910612 108.62445471612102 178.22243221083568 75 205 254 
-631.5953276151445 107.46733996075297 176.28909876363758 75 205 254 
-631.9291161117826 108.69997890382841 178.70141048054583 75 205 254 
-632.8972689348088 108.40212894201771 178.79489649557806 75 205 254 
-633.7605633196581 106.5391392355767 175.89649213846485 75 205 254 
-631.5690396379302 106.54463760521506 174.73170448202242 75 205 254 
-631.7638117621678 107.54232927399367 176.5057692503136 74 204 254 
-634.3599018079397 108.1202795966769 179.2124567239571 74 205 254 
-632.7366590613547 107.06420903217084 176.28739993457364 74 205 254 
-631.266106460814 107.57016465323902 176.2307268400441 75 205 254 
-633.0488148945851 106.36331155191203 175.27591389699018 75 205 254 
-631.0065381750755 109.03154094204623 178.6315300276069 75 205 254 
-633.7454039565494 107.40867566277937 177.51696666350557 74 205 254 
-633.6917481800745 107.19871617115835 177.10153353425497 74 204 254 
-632.7011144709637 107.23988662620424 176.5735572335821 74 204 254 
-632.375620242493 108.08867020326053 177.8562714985462 74 204 254 
-634.1093223090402 106.60474838079392 176.21787971915114 75 205 254 
-632.8412704012114 107.93636820115218 177.9035575139331 75 205 254 
-630.9516249426412 108.55448713978438 177.73827679824575 75 205 254 
-631.2143218207852 107.60315335091494 176.27070111821615 75 205 254 
-633.238100831341 107.3472205354085 177.0702043213805 74 204 254 
-633.3251392302609 107.8339432636514 177.99108661417537 74 204 254 
-631.0444807838193 109.17785528558134 178.9437722584829 74 205 254 
-631.0911373087687 106.9553732457049 175.10194808099862 75 204 254 
-633.1340217652355 106.79770631455229 176.07656875560806 74 204 254 
-632.515346008459 106.26261853004993 174.80832114279238 75 205 254 
-633.3729030042527 108.26741897590598 178.81915939525493 75 205 254 
-632.5800839666938 106.4957710089064 175.23441718496966 75 204 254 
-632.2706938371101 107.63818180328595 176.97985534328723 74 204 254 
-631.9713584433092 106.18123263751025 174.37929467107966 75 204 254 
-632.7604223206885 107.71901691242829 177.46560777032494 74 204 254 
-632.172817683871 107.12208301438638 176.03455107868066 74 204 254 
-632.4458438588005 108.56287448958655 178.75797327871533 75 205 254 
-634.0775308442207 106.45843695586198 175.94435482814222 75 205 254 
-631.6852697949786 107.27851327330143 176.01426598708798 74 204 254 
-633.8516416392533 108.12376750798724 178.87051296827224 75 205 254 
-632.3771320804029 108.36042061551369 178.343334484797 75 205 254 
-634.1542479352996 106.81200167797226 176.64685649169843 75 204 254 
-632.8801833278944 106.18574773132605 174.89384446793554 74 204 254 
-634.3407984461784 107.98080517498067 178.92888502139468 75 205 254 
-632.1061872699032 106.65812431448379 175.22447550277002 75 204 254 
-631.5048759093223 106.2975966038446 174.29512383793704 75 205 254 
-630.8909627138494 108.30801760543956 177.28314172573894 74 204 254 
-632.2350408434872 107.38404609652073 176.51968791256516 74 204 254 
-634.2671489854457 107.52469403797349 178.00510470896538 75 205 254 
-632.2891011505012 107.8836599163062 177.42967099973103 74 204 254 
-633.7691265033103 107.6770281291838 178.00544656954392 75 205 254 
-631.177180792874 107.21573545228773 175.5899568435189 75 204 254 
-632.847687683359 108.17953293781167 178.3530307188462 75 205 254 
-632.2525595040706 107.22969508679493 176.25930229316137 74 205 254 
-632.0418177248691 106.39419855197764 174.76081866118727 75 204 254 
-632.1164713118834 106.90775776930718 175.64328275098214 75 204 254 
-631.6862057174726 107.43237666799796 176.25381317765147 75 205 254 
-631.9222177294122 108.4774990452391 178.28842871450058 74 205 254 
-631.2680947270796 107.51492797032522 175.32059074199347 75 205 254 
-633.1837898953721 107.08397203959849 176.58900529145058 74 204 254 
-631.7992732591503 107.77859650624322 176.93830733030603 74 204 254 
-633.2197397779223 106.96513556386064 175.57926617130067 75 205 254 
-631.4505618809247 106.94578134380694 172.48805244787502 74 205 254 
-634.9798477312905 106.7363280094387 174.2676443623389 75 205 254 
-633.0996278309003 106.6108711638391 175.73152997132306 75 204 254 
-634.2990925773588 107.74588790507538 178.4469194951193 74 205 254 
-631.4938293005747 106.11590576492351 174.0100643497024 75 205 254 
-633.3847437581082 106.36909448243308 175.43255503381747 75 205 254 
-632.605126521566 106.60890957113038 174.5616856769711 74 204 254 
-633.7974982123595 105.81532496695317 171.94259647928465 74 205 254 
-630.7430843946844 106.37142499959322 169.12246263196965 74 205 254 
-635.1217747953766 105.8777822368493 169.78299647563315 74 205 254 
-633.7219407835978 107.02544887943942 175.96624246414856 74 204 254 
-631.3355712893308 106.05949730144968 170.9040424530656 75 204 254 
-633.0494536019933 105.53468388769375 167.96204087444863 74 204 254 
-631.8452018965321 105.89432037811007 170.90074272833172 74 204 254 
-634.4228530025748 106.36775671101786 173.2611132198576 75 205 254 
-632.9176627338945 105.47239865628326 172.83781832687805 75 205 254 
-632.7780631552943 107.77773333026917 176.7631412076053 75 205 254 
-631.9690499497517 105.74790666531085 172.75295091152725 75 204 254 
-632.2586882675944 106.93264430215793 170.87492137259045 74 205 254 
-631.6295513555756 106.80541752666645 175.1889817633687 75 204 254 
-634.2488974218954 107.34898847694033 176.86020676775368 75 205 254 
-632.6945776496492 105.22374349174198 172.32785864937213 75 205 254 
-631.9986134477552 108.87011864321782 179.05588883847693 74 205 254 
-632.5606498930237 106.75765962017493 171.77791269296267 75 205 254 
-631.418174077732 103.99375305647156 165.42159471844437 75 205 254 
-632.961521459083 104.79540397941346 166.6137165243838 74 204 254 
-632.636740427312 105.11547093673775 172.12416086328446 74 205 254 
-631.4673396233445 108.85990393716713 178.67012589745912 75 205 254 
-632.9823776462939 105.71419727873965 173.2759152554854 75 204 254 
-634.2298934186545 107.11243207569753 176.43003791443098 75 205 254 
-632.0252919933081 105.0874877698279 166.54143703421678 75 204 254 
-631.6786354027793 106.90197846600938 174.50630625861487 74 204 254 
-632.7658332059485 107.53449246802046 176.3150006757749 75 205 254 
-632.6239077764169 106.98009043739411 176.08660370231408 74 204 254 
-631.7519979278026 107.34820487235095 175.33491490417003 75 205 254 
-631.86925133255 108.23747777758601 177.817248284599 75 205 254 
-631.1127911298316 107.60950193416376 173.50508750020927 75 205 254 
-631.3237227022285 107.99121764680677 176.19783830998318 75 205 254 
-633.5033178560624 106.51169930970198 175.74718852064618 75 204 254 
-633.6641713954809 106.65089644803038 175.2546863439526 75 204 254 
-632.6912961996888 107.01449093186359 175.34296287162948 75 205 254 
-633.8179033496251 107.86155264006128 178.37392708827295 75 205 254 
-632.1029217700949 106.05762080175458 168.29520352633014 74 205 254 
-635.0111340656714 106.43447143048473 172.75197992989595 74 205 254 
-633.6652864164323 106.95050673262178 176.63888742821936 74 204 254 
-632.1391326806106 107.14894779073377 172.22673061898777 75 205 254 
-633.070506292857 103.4576538184154 165.42948027696724 75 204 254 
-633.1121665577559 106.93596769019149 176.29436760716067 75 205 254 
-634.3018593447711 107.58802344556901 177.33145592000466 75 205 254 
-632.0303194943972 106.75790567994392 172.53278471151438 74 205 254 
-631.6631677235453 107.03640230508321 175.59753002672295 75 204 254 
-632.0902944401265 105.78510909368362 168.7378851544934 74 205 254 
-633.1974465927319 107.99324494640594 179.42421721786295 75 205 254 
-632.499521835311 106.94898337904553 177.20482273053565 74 204 254 
-632.5779172685614 107.43935598253395 178.0906089216411 74 204 254 
-632.049786659999 107.330360757667 177.56874933775657 74 204 254 
-632.9304564445008 106.5462634492288 176.7689015625122 75 204 254 
-630.8362078333785 108.98727328222192 179.68571908924642 75 205 254 
-634.2332614245636 108.17040286793724 180.36159435409908 75 205 254 
-631.8519041537984 106.29575053062968 175.757663823439 75 204 254 
-633.7155084167811 108.0909884154044 179.90584942077436 74 205 254 
-632.228495823323 107.95673526688776 178.76309415768523 74 205 254 
-633.284928917897 108.47631042741403 180.33993602931207 75 205 254 
-631.7899568282738 105.82166415675745 174.97846383439628 75 205 254 
-632.2735009277858 108.52298012796611 179.79091062764235 75 205 254 
-631.9401307814165 106.39892873330307 175.97123912565138 74 205 254 
-631.5165910982491 106.98706535436509 176.6649648162486 75 204 254 
-633.7732900455135 108.3080952215744 180.33838543498197 75 205 254 
-632.9003997883726 107.71603171976079 178.77514358992056 75 205 254 
-633.0177936221061 107.04908869398811 177.65854284651783 74 204 254 
-631.9522119711119 106.58902808084301 176.28529506282473 75 204 254 
-632.2814934660277 108.74763099318471 180.20262505418518 75 205 254 
-632.9030034994018 106.29849389896727 176.34738483396325 75 204 254 
-633.5636746172623 107.32799700826827 178.4462486424475 75 205 254 
-631.9726872884239 106.83531202690571 176.70048215585743 75 204 254 
-631.7392196151546 108.46033604160253 179.34252792083893 75 205 254 
-631.7394796886514 108.13063974640544 178.76065381950855 75 205 254 
-632.6851453382558 107.92522896852479 179.01466608398593 75 205 254 
-633.1468814559215 107.7774314242842 179.0083316095833 75 205 254 
-631.535934948427 107.24860878031983 177.10598749182708 75 204 254 
-631.3081777400198 108.40570858322897 178.94270553656432 75 205 254 
-631.8062212102518 108.90223575454358 180.20026121960888 75 205 254 
-632.6879783137517 108.14304251720186 179.3913538534627 75 205 254 
-631.6088591211144 107.47824916322962 177.54002840867386 74 204 254 
-634.9556756070923 106.51340583356634 179.62836284723826 75 205 254 
-632.4014466489352 106.44091303561875 176.3098466163833 75 204 254 
-633.6507999607898 107.63357272998495 179.03648158896763 74 204 254 
-631.709985682429 107.97594077639513 178.46366026109408 75 205 254 
-633.6627576217766 107.8698019711552 179.4716863428156 75 205 254 
-631.2954841123569 108.60534957020597 179.28751921430722 75 205 254 
-633.0747584715962 107.51868860800141 178.50351768899392 74 205 254 
-635.7063133011874 107.0288980171814 181.11297057923213 75 205 254 
-632.3045189682031 105.93312285246722 175.44495860560258 75 205 254 
-632.3942242396358 106.23814881698142 175.97836307928006 74 204 254 
-633.3729030042527 108.26741897590598 178.81915939525493 75 205 254 
-632.5800839666938 106.4957710089064 175.23441718496966 75 204 254 
-632.3479023329521 106.12646624218863 175.77530985270695 74 204 254 
-632.2706938371101 107.63818180328595 176.97985534328723 74 204 254 
-631.9713584433092 106.18123263751025 174.37929467107966 75 204 254 
-632.7604223206885 107.71901691242829 177.46560777032494 74 204 254 
-633.5549504126112 107.14896928270946 178.13526012864787 74 204 254 
-632.1963168613233 108.05895302994944 178.92032867504264 74 205 254 
-632.4460283738299 106.68593955511005 176.7376871309221 75 204 254 
-632.172817683871 107.12208301438638 176.03455107868066 74 204 254 
-630.9032497368252 109.19854199274745 180.10339323998303 75 205 254 
-631.394406279029 106.58448696584085 175.93798642706733 75 205 254 
-632.4458438588005 108.56287448958655 178.75797327871533 75 205 254 
-634.0775308442207 106.45843695586198 175.94435482814222 75 205 254 
-631.6852697949786 107.27851327330143 176.01426598708798 74 204 254 
-633.8516416392533 108.12376750798724 178.87051296827224 75 205 254 
-632.3771320804029 108.36042061551369 178.343334484797 75 205 254 
-634.1542479352996 106.81200167797226 176.64685649169843 75 204 254 
-632.8801833278944 106.18574773132605 174.89384446793554 74 204 254 
-634.3407984461784 107.98080517498067 178.92888502139468 75 205 254 
-630.8199299483139 108.56054756311374 178.919349322892 75 205 254 
-632.1061872699032 106.65812431448379 175.22447550277002 75 204 254 
-631.5048759093223 106.2975966038446 174.29512383793704 75 205 254 
-632.1106529249748 107.56919422774449 178.0182302627161 74 204 254 
-630.8909627138494 108.30801760543956 177.28314172573894 74 204 254 
-632.2350408434872 107.38404609652073 176.51968791256516 74 204 254 
-634.2671489854457 107.52469403797349 178.00510470896538 75 205 254 
-632.2891011505012 107.8836599163062 177.42967099973103 74 204 254 
-633.7691265033103 107.6770281291838 178.00544656954392 75 205 254 
-631.177180792874 107.21573545228773 175.5899568435189 75 204 254 
-633.0804998246136 107.2759128570705 178.08428522453937 74 205 254 
-631.1669898833366 107.86929708276621 177.9372157567823 74 204 254 
-631.8075906325818 108.69387085816267 179.80845948568373 75 205 254 
-632.847687683359 108.17953293781167 178.3530307188462 75 205 254 
-632.2525595040706 107.22969508679493 176.25930229316137 74 205 254 
-632.1614901144967 107.82244230018833 178.48383474938214 74 205 254 
-635.2938695130559 107.59935882172815 181.061244184677 75 205 254 
-632.0418177248691 106.39419855197764 174.76081866118727 75 204 254 
-631.3511074057152 108.84693916700292 179.74124911305023 75 205 254 
-632.1164713118834 106.90775776930718 175.64328275098214 75 204 254 
-631.6862057174726 107.43237666799796 176.25381317765147 75 205 254 
-631.9222177294122 108.4774990452391 178.28842871450058 74 205 254 
-633.2145350825107 107.58923306925152 178.70990968029048 74 205 254 
-632.5509734444345 107.18566995803494 177.6359486536253 74 204 254 
-632.0610529430263 105.54306026546709 174.7160465998136 75 205 254 
-632.0483593331377 107.08215628987716 177.15114507761203 75 204 254 
-631.2680947270796 107.51492797032522 175.32059074199347 75 205 254 
-633.1837898953721 107.08397203959849 176.58900529145058 74 204 254 
-632.9826600802797 106.79394782690993 177.20840759815172 74 204 254 
-632.7216298402085 107.78283555678256 178.79116107958512 74 205 254 
-633.604781278891 107.44431843911077 178.66846531848867 75 205 254 
-631.7992732591503 107.77859650624322 176.93830733030603 74 204 254 
-633.2197397779223 106.96513556386064 175.57926617130067 75 205 254 
-631.4505618809247 106.94578134380694 172.48805244787502 74 205 254 
-631.6998880908707 105.62997821420076 174.6422140344281 75 204 254 
-634.9798477312905 106.7363280094387 174.2676443623389 75 205 254 
-633.0996278309003 106.6108711638391 175.73152997132306 75 204 254 
-634.2990925773588 107.74588790507538 178.4469194951193 74 205 254 
-631.4938293005747 106.11590576492351 174.0100643497024 75 205 254 
-633.2619421781903 108.22864891407517 179.87823938515567 75 205 254 
-633.3847437581082 106.36909448243308 175.43255503381747 75 205 254 
-631.4549110482102 106.73262402602707 176.2153489529952 75 204 254 
-632.605126521566 106.60890957113038 174.5616856769711 74 204 254 
-633.7974982123595 105.81532496695317 171.94259647928465 74 205 254 
-630.7430843946844 106.37142499959322 169.12246263196965 74 205 254 
-635.1217747953766 105.8777822368493 169.78299647563315 74 205 254 
-631.1882136544347 108.14023500307373 178.4202063033464 74 204 254 
-633.7219407835978 107.02544887943942 175.96624246414856 74 204 254 
-631.3355712893308 106.05949730144968 170.9040424530656 75 204 254 
-633.0494536019933 105.53468388769375 167.96204087444863 74 204 254 
-631.8452018965321 105.89432037811007 170.90074272833172 74 204 254 
-634.4228530025748 106.36775671101786 173.2611132198576 75 205 254 
-631.126215922586 107.64408881293762 177.51884741978327 75 204 254 
-632.9176627338945 105.47239865628326 172.83781832687805 75 205 254 
-632.2497258836578 108.28960692045176 179.36433219644488 75 205 254 
-632.7780631552943 107.77773333026917 176.7631412076053 75 205 254 
-631.9690499497517 105.74790666531085 172.75295091152725 75 204 254 
-632.2586882675944 106.93264430215793 170.87492137259045 74 205 254 
-631.6295513555756 106.80541752666645 175.1889817633687 75 204 254 
-631.4047580908766 106.44014333920407 175.7157774201269 75 204 254 
-634.2488974218954 107.34898847694033 176.86020676775368 75 205 254 
-632.6945776496492 105.22374349174198 172.32785864937213 75 205 254 
-631.6330819559655 107.74391163881823 178.0080113432891 74 204 254 
-631.9986134477552 108.87011864321782 179.05588883847693 74 205 254 
-632.5606498930237 106.75765962017493 171.77791269296267 75 205 254 
-631.418174077732 103.99375305647156 165.42159471844437 75 205 254 
-632.961521459083 104.79540397941346 166.6137165243838 74 204 254 
-632.636740427312 105.11547093673775 172.12416086328446 74 205 254 
-631.4673396233445 108.85990393716713 178.67012589745912 75 205 254 
-632.9823776462939 105.71419727873965 173.2759152554854 75 204 254 
-632.625394548912 107.66825469776383 178.52502127559933 74 205 254 
-632.7998526497001 108.60540271933125 180.28515086689472 75 205 254 
-634.2298934186545 107.11243207569753 176.43003791443098 75 205 254 
-632.0252919933081 105.0874877698279 166.54143703421678 75 204 254 
-631.6786354027793 106.90197846600938 174.50630625861487 74 204 254 
-632.7658332059485 107.53449246802046 176.3150006757749 75 205 254 
-632.6239077764169 106.98009043739411 176.08660370231408 74 204 254 
-631.7519979278026 107.34820487235095 175.33491490417003 75 205 254 
-631.86925133255 108.23747777758601 177.817248284599 75 205 254 
-631.1127911298316 107.60950193416376 173.50508750020927 75 205 254 
-631.4042707040123 109.05820193349825 180.17237811582885 75 205 254 
-632.2118436978308 105.69098268541457 175.0202808483173 75 205 254 
-631.8553241247303 106.06628647870869 175.39661897811663 75 205 254 
-631.3237227022285 107.99121764680677 176.19783830998318 75 205 254 
-633.5033178560624 106.51169930970198 175.74718852064618 75 204 254 
-633.6641713954809 106.65089644803038 175.2546863439526 75 204 254 
-632.6912961996888 107.01449093186359 175.34296287162948 75 205 254 
-633.8179033496251 107.86155264006128 178.37392708827295 75 205 254 
-632.1029217700949 106.05762080175458 168.29520352633014 74 205 254 
-635.0111340656714 106.43447143048473 172.75197992989595 74 205 254 
-633.6652864164323 106.95050673262178 176.63888742821936 74 204 254 
-632.1391326806106 107.14894779073377 172.22673061898777 75 205 254 
-632.762866727354 108.37229042884834 179.8467058916452 75 205 254 
-633.070506292857 103.4576538184154 165.42948027696724 75 204 254 
-633.1121665577559 106.93596769019149 176.29436760716067 75 205 254 
