-5.69343125581619 -2.320234223267959 33.917148171515294 102 103 97 
-6.726469039047727 -3.2272663084035598 33.59019362089886 194 179 174 
-3.0159329968536426 -3.809047200303615 33.85317230876014 121 109 109 
-6.63513733569064 -3.4155953182066208 33.563755493063866 159 145 142 
-2.3149438270563216 -3.2718595380742483 35.580845244191856 173 176 154 
-8.132128547970426 -3.297623710687242 34.20738390566968 109 108 116 
-6.673303765653877 -3.2588899620706693 33.57907752002177 162 147 142 
-7.432660374982335 -2.0196952371469554 33.35405211783033 123 123 122 
-6.488147088130194 -2.734979618154691 33.606526890035205 143 123 114 
-6.617708562257832 -2.9170287380388986 33.59310069884211 160 145 137 
-8.00088496868598 -3.130324414431244 34.256847539541496 188 176 178 
-7.668633537374898 -2.576444578311884 33.990700031696626 211 201 190 
-7.673107104481538 -2.5793793580591178 34.01685881486478 211 201 190 
-7.842490954572964 -2.131219073696481 33.522789757533616 113 112 113 
-7.12977266126004 -3.0835948540516442 33.66224548576914 190 179 175 
-6.342991580653354 -3.5791305193485172 33.59931173631952 144 130 127 
-7.477274164251419 -2.6528371625926637 33.893410334182704 206 195 191 
-6.541651386830178 -2.4486308253314677 33.61817298304981 152 135 125 
-6.612730412972262 -2.3099822717966303 33.635295912211824 141 120 111 
-7.733791797275535 -2.103836837073273 33.50109570218498 91 89 90 
-7.727138679792532 -2.1022597841664274 33.47674648277132 91 89 90 
-7.4386613691931025 -2.847584090423606 33.82385400706644 202 191 187 
-2.309559281662235 -2.9842144196750944 35.609984464644754 184 178 166 
-5.649919824437982 -2.634785171051311 34.013641339510215 81 82 76 
-4.865143507549487 -3.4031061020744824 34.25448525373329 227 218 227 
-2.5720558426611753 -2.563078256224112 35.284410386680236 231 227 218 
-5.041352879775182 -1.9898268631606801 34.318609104765045 109 93 90 
-6.7700773285905775 -2.2607238007381785 33.64976033680298 163 146 136 
-6.396688426802996 -2.9463075555048146 33.60547532494701 138 123 115 
-6.00931581979594 -2.2107674498442247 33.759499857943524 105 85 78 
-6.205912025299018 -2.096939769093574 33.62871419755081 120 100 89 
-6.041130360670621 -2.0084783750771766 33.74608978659708 135 113 100 
-5.662105916581485 -2.4580942593372592 34.00487912372412 87 88 82 
-3.0355187698425503 -3.4495712882699117 33.87449342497059 135 120 120 
-6.342222662512281 -2.069869004378445 33.63741468349179 125 105 94 
-5.976025254539646 -2.2656358200729825 33.79507178184473 111 91 84 
-2.987688463259829 -3.2114760304055823 33.861786554081064 136 121 116 
-4.206104387114774 -3.8551270005333267 34.655044054700674 202 200 203 
-7.039732857704294 -2.066042442450613 33.699137149663706 165 148 139 
-2.3737629724982128 -3.426318068093453 35.68345413214724 221 217 206 
-0.84935117579953 -3.496062953044933 35.45792103726147 92 93 98 
-6.69043872105938 -3.2455464267224166 33.57936525761852 186 171 166 
-6.674725059386624 -2.916650091358653 33.57005231864896 189 174 167 
-7.50027528834352 -2.584761021878789 33.96096912842751 206 193 192 
-7.0217903602269764 -3.1415003262047074 33.62227363490905 181 170 166 
-8.096280048113172 -3.029852296555447 34.14991602952727 191 181 182 
-6.853071006538462 -2.900348350639966 33.61564423854435 184 169 162 
-6.853220745126668 -2.90107308807153 33.61606424080595 184 169 162 
-7.045110953694952 -1.2358987923109295 31.83624331795758 216 216 216 
-5.907754886787259 -2.182126249599748 33.84404515223397 118 95 87 
-6.999382252201205 -2.7245988059327377 33.65772030820625 200 186 177 
-7.565699974264033 -1.470165723803853 33.125657677213276 230 229 234 
-8.113943764829617 -3.290677791778254 34.19658826651647 158 158 166 
-6.345255601018437 -2.9183153616461937 33.62785965255523 160 139 132 
-7.040938196802051 -3.0121393513028076 33.64579062663776 187 173 170 
-7.465418867676092 -2.8375860700805706 33.883185835689176 180 169 165 
-7.473556867970956 -2.006267607272255 33.48085227033747 157 157 154 
-7.100112490002211 -3.309729772682349 33.63714299513041 206 195 191 
-7.100112490002211 -3.309729772682349 33.63714299513041 206 195 191 
-6.815630900685809 -2.8620262739835294 33.60534334723418 167 152 145 
-6.835269355035134 -1.9539320976244947 33.66348160907205 176 155 147 
-3.099972854315297 -3.6598777943827177 33.8739805919071 138 128 126 
-7.4749630032032375 -2.356882305452886 33.95632989720036 142 136 136 
-3.0077752012490215 -3.2421023840599323 33.897412962058894 157 143 141 
-7.076221493342185 -2.777457357394452 33.67201898513312 174 163 159 
-6.889011460694174 -2.6905779930276736 33.63581578977434 196 179 171 
-7.865105732190624 -2.984070480409387 34.034571377580974 203 191 190 
-3.5828781388222737 -3.8279525013209375 35.014985298707686 170 169 181 
-6.746507434274106 -2.2745840254163197 33.62931422998787 187 170 160 
-7.124499613759067 -1.5716255316703456 33.067493835684296 57 60 69 
-2.1948411359119007 -2.884813845445989 35.71065583000899 127 121 110 
-6.359048505755734 -2.679543033500731 33.63884252252227 139 116 108 
-8.018255348168495 -3.313082724576546 34.10942485916101 122 122 124 
-8.002989980554533 -3.3204608747923174 34.11085144172148 133 133 135 
-8.002193129615064 -3.3195660268271663 34.10861276293907 133 133 135 
-2.9695642516319936 -3.706256314838212 33.8184017467139 141 129 131 
-7.416552960435393 -1.488868196669599 33.02677311192432 104 103 110 
-7.140008302794076 -1.5690053452044825 33.0380959684682 54 57 66 
-7.145914332696115 -1.1942966913342339 31.639748217997592 221 221 221 
-0.986601401170148 -3.371297148945523 35.19642545757573 134 133 136 
-8.213039466184245 -3.388580508275627 34.21848177279522 197 200 207 
-7.790769347442806 -2.1003754257222162 33.50231031270843 137 130 131 
-6.8106945829878995 -2.4814221602791875 33.600313289354524 159 142 134 
-7.439841445651222 -2.5138641885945274 33.90653144884181 159 153 152 
-7.524189505284873 -1.5327066970775882 33.055968531017456 200 199 204 
-7.524189505284873 -1.5327066970775882 33.055968531017456 200 199 204 
-2.2405754719680075 -2.7503428536557433 35.75487575856657 145 141 130 
-6.889894896856859 -3.3566625703118955 33.6096387139969 194 182 179 
-7.561496666246224 -1.5587785531262526 33.072427674784805 87 87 87 
-7.4910535490333885 -2.444640575951799 33.95107793760026 209 203 198 
-7.485335433335852 -2.4396138603452373 33.91205121814385 209 203 198 
-7.487410035154657 -1.5949298144338155 33.04079734337405 228 228 230 
-7.483570265261466 -1.504690314056902 33.04601999180548 105 104 109 
-6.86436508997685 -2.907649583578519 33.6103880538034 166 151 144 
-6.648261489832468 -2.4440412487634218 33.588947256901484 178 161 153 
-5.752999393414154 -1.5478981191609082 32.412627939574946 183 182 180 
-5.761493159200121 -1.5428090050707746 32.38989067970205 164 163 161 
-2.9119180494379187 -2.6105533732950654 35.41077211394368 172 161 158 
-7.019888058661529 -2.246935758923841 33.67227477097908 173 156 148 
-7.021853336438802 -2.248063871779178 33.694418212853535 173 156 148 
-7.000929080560663 -3.2311965416727046 33.621619129053435 174 163 159 
-8.497624522030778 -1.471335840705657 33.56136952697986 92 94 106 
-5.489612534288483 -1.8602502933888179 34.11761590828735 110 92 96 
-6.5754718001746735 -2.343825823475391 33.63152334954438 138 119 110 
-6.953255236182388 -1.564726577508372 33.223172405828976 64 63 71 
-7.551978718823861 -1.4386799742108907 33.08537401605425 146 146 148 
-6.979734074257909 -1.6952081861784176 33.15041856040048 55 55 57 
-2.2707588763229083 -2.7799070620050346 35.760021608004465 150 146 138 
-6.630888686647266 -3.176163229157525 33.60291187915058 162 148 139 
-6.004002087097632 -1.35161812753365 31.27835276460364 200 200 200 
-3.14315426217323 -3.824914708378725 33.93751562621618 124 121 122 
-7.152528740236491 -1.5562728703328848 33.008202187718496 70 73 82 
-6.186552869951239 -3.1772137257827877 33.674983992951724 155 135 130 
-6.544170817946812 -3.5624706786883706 33.58027382594918 169 155 152 
-5.402315051289129 -1.932340487073927 34.09886681527058 117 99 94 
-7.0899846244752425 -3.3056015763024824 33.64795596701378 189 178 174 
-6.588267309403385 -2.8310591152254903 33.58457049768917 167 153 144 
-7.481971708644201 -2.477323883548056 33.96589706089652 136 130 127 
-6.751800584592058 -1.8651746861958411 33.66149777870966 173 154 145 
-5.898210801521522 -1.5044913667438387 32.378919327574664 127 125 125 
-6.1723580824269675 -3.452680205554911 33.69086409143531 160 145 140 
-5.123678663783316 -3.6294262327585596 34.295455553715165 96 81 94 
-6.712939871321906 -3.2640920508447033 33.60039015017817 162 148 139 
-5.695337080697923 -3.140758538295339 33.96517994528605 141 124 117 
-3.2080696168634155 -4.195666454428375 33.872458065453436 146 142 143 
-8.00524574985071 -2.0522223188977757 33.46009099376405 205 206 210 
-6.030374301518876 -3.511069864622846 33.75372710544356 153 138 134 
-6.9661907583927345 -1.549803815954606 33.19115246819102 42 45 54 
-5.702195863795149 -3.3562686372698565 33.962948018672975 111 106 108 
-6.271148980619472 -2.7128289144449598 33.64301416332387 113 95 83 
-6.995844935611958 -3.301474144654213 33.61380125346925 197 184 178 
-7.451596217194094 -2.0051059858062037 33.493848633805605 152 150 151 
-7.022433792709698 -2.8330080301947262 33.64480111986167 167 154 145 
-7.508544024880139 -2.3094599820716706 33.982772661450966 158 159 155 
-6.220054734788189 -2.0932549477645033 33.66814351182416 123 97 84 
-6.970967543393533 -3.2051210559665044 33.61363722697748 199 186 180 
-6.971356820028898 -3.2035802610422657 33.60676979017915 199 186 180 
-6.254498880968127 -3.3045089485557018 33.63823416302724 134 117 110 
-6.90177260002822 -1.8292548300614833 33.69884532090856 122 104 92 
-7.072395212421883 -2.9074741207917105 33.6617746606484 178 165 159 
-7.742962912608794 -1.9027744356054295 33.148097243056675 120 123 128 
-6.052396590498919 -3.2594073547942637 33.796456066840506 133 113 106 
-7.715680865905647 -1.5665276224104945 33.177114786891714 211 212 216 
-6.771735035364131 -2.854151187257905 33.634451339897936 162 145 137 
-6.859225953562223 -2.4540197914171067 33.65684264058672 145 127 117 
-6.795966905459997 -2.778540604793144 33.66162203960931 156 139 130 
-6.85580422587725 -2.879416296666389 33.591335736226206 157 140 132 
-4.066285239903259 -4.531947193316131 34.87873316146544 198 198 209 
-3.207635378255599 -3.8300178722277627 33.95268726344159 124 117 120 
-6.294046636085543 -1.7234335263896963 33.6556610779792 115 91 79 
-6.208916137437516 -2.3754487190874833 33.67835694154733 119 97 84 
-6.838780310991904 -2.1203173148596446 33.677146770744194 154 135 121 
-6.732451098961999 -2.267613574023148 33.62876339896952 149 131 119 
-6.950253282662306 -2.5349688313254264 33.61961070946865 158 141 131 
-6.4730158977261425 -3.115530823880033 33.5849672492555 161 142 135 
-6.006253328639792 -2.8381517846609707 33.812887424997925 144 124 115 
-4.743482336764032 -4.1319051954954 34.47697305997717 151 145 149 
-5.737716980148004 -3.6614560014067035 34.04363366642261 156 155 160 
-5.78045195530958 -3.215263273457224 33.9607624907169 141 124 117 
-6.9398060045740415 -2.3352532148764613 33.642940221098314 161 143 131 
-6.576872587820549 -2.524144876427032 33.63035118642081 147 127 116 
-5.8579949420131445 -2.017626863529084 33.943162720127695 109 89 78 
-4.592941075847044 -3.8068030742476306 34.62307983112244 88 90 105 
-6.405606053682728 -3.6093717597231354 33.61848006029146 166 153 147 
-6.146008841893238 -2.6092122316811848 33.708008402825364 132 104 93 
-6.2768398943733885 -2.263661005712585 33.68435195742018 130 105 92 
-6.5018807009200685 -2.6308284417526178 33.61073553485167 149 131 119 
-6.501450321455797 -2.631204130670562 33.61066132761951 149 131 119 
-5.662539388574512 -3.6455333545175703 34.06451100834968 153 152 160 
-5.938116594220023 -2.5656489040400867 33.79283304114622 136 116 105 
-6.578130479566017 -2.8239637859881395 33.59358700384781 138 119 111 
-6.0935529370986 -3.253932669434737 33.75985460341458 130 110 103 
-7.3003270355531455 -2.258891437858086 33.821152452933305 166 152 142 
-4.932547775230649 -3.862146246268959 34.208442528647474 220 218 226 
-5.521536231941525 -2.0531498353314195 34.11572797154011 102 82 73 
-6.872772301832715 -2.090515649965083 33.68694323205477 155 136 122 
-6.900341845493941 -2.7821164859781096 33.6402741558571 165 148 138 
-6.530369610639983 -1.6331504959468184 33.65309561352835 124 98 90 
-6.2764022489529125 -3.6554718734925054 33.65330987165784 164 150 147 
-6.760925365585244 -2.6215256190158573 33.61313445699847 161 144 134 
-6.760887024210641 -2.621279246883476 33.613104128901234 161 144 134 
-6.226570908977486 -2.471346527182659 33.65900126351698 125 102 89 
-6.0581289956595015 -3.6102832797356026 33.78025014012864 137 123 120 
-4.199649832867593 -3.7695911490637073 34.647193087019645 86 79 94 
-7.97736127760297 -2.1197281362366214 33.39686680787574 217 218 220 
-5.454370839914173 -3.9969384336800537 34.29008531233792 126 128 141 
-5.7293107539965895 -2.171605490539924 34.043257457650746 110 90 81 
-3.852395681165632 -3.521103739572917 34.95661427650748 107 107 116 
-7.376245777316829 -2.4593375613585824 33.925224811443535 179 168 160 
-6.292352219102549 -3.6299992726711157 33.64731225184876 172 159 153 
-8.915769094512854 -1.4460114787583125 34.619987039854614 180 172 166 
-4.045472106489328 -4.518296827805949 34.880376814240506 197 197 209 
-5.774026837921166 -1.797970933718851 33.880911518854546 91 78 69 
-7.644761261605931 -2.079995555181691 33.35270710087754 214 214 214 
-6.859587804382157 -3.488032022370879 33.56504456720232 192 178 175 
-6.300210157926459 -3.038779422393482 33.60757895943366 149 129 122 
-6.440183979831797 -3.550775394834435 33.60113646160646 140 125 118 
-7.975587883118273 -2.0688545680216586 33.35424460464054 183 184 188 
-6.272471837488396 -3.3631251167558007 33.6517552364796 152 135 128 
-6.160461516285517 -3.250954640448324 33.73491408813121 124 105 99 
-5.346697945342804 -3.2132567573051984 34.23184580062858 126 109 102 
-5.5900326997509815 -2.9704996970363533 34.09893129934777 119 102 92 
-5.589113551495597 -2.9703726769230254 34.099209269463756 119 102 92 
-7.176123235232662 -2.4193917667225886 33.73480310277775 198 181 170 
-7.176123235232662 -2.4193917667225886 33.73480310277775 198 181 170 
-6.869887010673498 -2.5669996736402556 33.648471618713415 187 170 160 
-4.660641044777911 -3.606526480035848 34.54452557719679 84 84 96 
-4.662381683062705 -3.6070794316761807 34.54397841910904 84 84 96 
-6.2631386448571895 -3.2123623029482387 33.654101791345155 135 116 110 
-7.158466098089132 -2.744425052078123 33.662581819110365 200 189 183 
-7.158466098089132 -2.744425052078123 33.662581819110365 200 189 183 
-3.2191891201334144 -4.182995382059349 33.89061753330386 176 172 173 
-7.700083501865567 -1.4951842207221282 33.16220743394828 89 89 101 
-5.101785119612959 -3.2070244771268355 34.28056290406836 108 94 90 
-5.0882309406838715 -3.217031328588157 34.316013459992284 108 94 90 
-5.650354221653604 -1.7408204411353196 33.95086756850304 133 131 134 
-6.185191462228552 -3.2402579737407997 33.72177933140604 148 129 123 
-5.067378195271292 -3.256917501548503 34.303535144270754 90 76 79 
-5.7209204748578095 -2.07744077499778 33.94242958918306 108 88 79 
-5.7209204748578095 -2.07744077499778 33.94242958918306 108 88 79 
-7.492597631488758 -3.444215795511263 33.77798422958189 206 197 192 
-7.812117488097513 -2.1206078600052716 33.49036041374394 139 138 136 
-6.773271461458544 -2.8781892093740904 33.594050195623204 184 167 159 
-5.5917513165763495 -1.8877753944156637 34.040620806864325 113 93 86 
-6.307707450304321 -3.32045007808754 33.6477472797606 154 137 130 
-4.618573694365757 -4.000803422297497 34.584324810422245 138 136 139 
-5.7182528614075565 -2.293020034280114 33.957411991190725 65 64 59 
-3.2344136082267667 -4.214409215315308 33.87866555339539 168 164 165 
-6.386137882844203 -2.6328215132477046 33.603483439524325 138 120 108 
-5.658383031111978 -2.3060849216871064 34.01252999430805 61 62 56 
-7.75410327298291 -2.140065424277014 33.510948810846486 186 185 186 
-6.3885398328080765 -2.688651420823561 33.641093129200996 163 145 133 
-2.7602543323689908 -3.3264298807875434 35.54658884428049 191 191 183 
-6.808689402236599 -2.71084951282283 33.584792751957025 162 145 135 
-7.534899336705546 -1.427644968426213 33.086234631279716 225 225 227 
-6.771372690772129 -2.8599454980997328 33.59936565116883 193 176 168 
-5.926485175889962 -2.5720104975173657 33.8115666578848 141 121 114 
-6.44575319334357 -2.309496713603263 33.62749098864639 139 122 114 
-6.410059694606451 -2.314863353753811 33.626564077158825 139 119 112 
-5.745895517662817 -2.2265670089128635 33.89015708139204 234 223 228 
-6.56828997040148 -1.957176897348007 33.644485930555746 149 129 119 
-6.5694386015785575 -1.9564591888766878 33.65258211089496 149 129 119 
-6.596108266684755 -2.1051501007423123 33.639365571640695 163 146 138 
-6.651814855877362 -2.303526624672573 33.6342145016618 149 132 124 
-6.163659573447868 -1.6875432875235976 33.69541841455712 138 116 110 
-5.094178999245457 -1.8862682568202547 34.04186490676076 135 126 138 
-6.7466312782141795 -2.8538989631161726 33.612795891729505 171 158 152 
-6.616690285829826 -2.1009169193044728 33.64504730290609 167 150 142 
-6.808728373998315 -2.8509820932684065 33.60892971336649 194 181 175 
-7.5827560124877955 -1.4546867671835453 33.134167907912456 178 178 180 
-6.175348686726505 -1.8963516960680113 33.68993556998484 124 101 93 
-6.4635848161880745 -1.9076782278561613 33.660829039689716 152 132 125 
-4.553935659054883 -3.665400057582926 34.627483738388165 82 82 94 
-6.563679824093311 -2.0748653349274915 33.64208996805442 191 171 164 
-5.388696210271764 -3.514027827967902 34.199005706133946 101 99 108 
-6.266471249641178 -2.069707143945936 33.65489090182433 146 126 119 
-6.171889595518426 -1.7046317525671548 33.70220006489106 139 116 110 
-6.0853124550429385 -1.8141131633678693 33.69842695214162 122 102 95 
-7.523389339457411 -2.293176324855475 33.96738216466854 171 171 170 
-6.456531931025673 -2.6083644924941476 33.607896894833075 165 145 138 
-6.828261226854673 -3.4102020865713705 33.57128414977479 200 186 183 
-6.685100184535379 -3.0424060065645326 33.56999889255421 155 142 136 
-8.313675950531346 -2.1855050353127066 34.00002644908454 68 69 73 
-6.73124577965168 -2.7049628787377475 33.605750369722955 156 142 134 
-0.2632161238651065 -2.7414609198410975 36.38754700268013 58 58 70 
-6.36500083045785 -2.2707329624047006 33.64071607645886 136 110 97 
-5.350927868214029 -1.9187941664183752 34.1457608286822 91 76 76 
-3.2235080378413556 -3.308149552149069 35.14163111333134 195 198 210 
-6.5650962343735255 -1.905712547820193 33.6588761422422 139 119 112 
-6.327977582938262 -2.727856538050532 33.617056745566856 125 108 101 
-6.64399263534807 -3.101966420953463 33.555910778691626 177 163 154 
-6.665684346834215 -2.8130103150053785 33.60403920869221 157 143 138 
-6.813629405660709 -2.769297757292648 33.63661969659826 162 145 137 
-6.884442665282474 -2.086997824766984 33.67855106139469 167 150 141 
-6.722642839950705 -2.062699544273709 33.65786428999602 143 124 117 
-7.8057316192230815 -2.677587838390874 34.09082937918288 184 173 169 
-7.167557522407186 -2.0237773716590084 33.75431370642151 174 158 145 
-7.3919201484979205 -2.379116869254096 33.854883939009284 191 178 179 
-7.364422834673238 -2.6622994435845255 33.76504413371966 219 209 205 
-6.413366335529274 -1.646474656533436 33.66715216828507 134 113 104 
-6.148932694843747 -1.68712224891319 33.678003365286 132 112 111 
-7.565223992261782 -1.462242354901015 33.10566553955209 116 115 122 
-6.813171616251061 -2.6134365933070667 33.628203617730875 171 154 146 
-6.3147160286033195 -3.0181849693966445 33.62544893630918 158 141 134 
-7.096327606753444 -1.7591966582106462 33.09726146398887 82 78 80 
-6.489942689848757 -2.237401260408708 33.621496842776786 181 161 154 
-3.379040363366439 -2.2211911829436097 34.33716265756422 156 155 155 
-6.079339631896369 -2.207057202388751 33.716540691076545 136 116 109 
-7.012699412541853 -2.4056808028522694 33.64901925627751 174 160 151 
-7.061313554601913 -1.9070010694332153 33.25641191853319 158 143 134 
-6.747525496127189 -2.9227036346998423 33.5818808659648 161 146 139 
-7.463550854359996 -2.66798454077015 33.89167659969196 181 170 166 
-6.467999568118795 -2.023626215586687 33.652625555060084 136 114 103 
-8.452641966589239 -1.5378368158867355 33.54182324053247 194 195 199 
-7.306814965263456 -2.131342813321055 33.84717371152932 150 137 129 
-7.323867961920961 -1.7350628206303256 33.02048706371566 243 242 242 
-6.365064163442373 -2.1939350507507855 33.63553200460879 135 115 104 
-6.725722026295273 -1.7514738478522514 33.692696479642784 131 109 101 
-6.446397991499049 -2.9742112761002533 33.605900005728856 166 152 143 
-4.90323313621165 -2.2558080663896316 34.35488413087933 86 71 78 
-6.9002393875716095 -2.3709601898941592 33.66730865464574 161 144 134 
-7.77089711518153 -2.6551385740911897 34.05598452499366 191 180 176 
-6.818065087437208 -2.4727596076062293 33.632623390720724 192 175 167 
-7.305601271655501 -3.0943261632253742 33.711648233512946 198 187 185 
-5.497402502235127 -2.2981070436915054 34.13780181668558 116 116 118 
-5.719539284998151 -1.9926909212757868 33.918450525742955 124 104 95 
-7.467431596207826 -2.282989508120548 33.95607513138256 189 180 175 
-6.769964144462904 -2.6328616215096226 33.61625282217464 196 179 171 
-6.534915220013833 -2.9193915209675865 33.591155150155686 165 151 140 
-7.633458891862137 -2.8863033864213348 33.97121169783615 193 182 178 
-7.627982573936915 -2.879694680301222 33.94568717635335 193 182 178 
-7.411491609636823 -2.6311244782114684 33.88278035692892 185 174 170 
-7.173808307205384 -2.7353525698748085 33.70782307750009 186 175 171 
-6.525757474286735 -2.9348499731642024 33.603370700107746 143 129 118 
-6.465594218559042 -2.4742459150412017 33.61638176606449 165 145 136 
-6.465429375183962 -2.475506594212348 33.62245580185966 165 145 136 
-6.438926977067425 -3.094756496361139 33.59226100298512 169 154 147 
-7.049349186704802 -2.075996289242244 33.71671981305503 184 167 157 
-2.40100793989431 -2.7053285295970397 35.746397729416536 129 125 117 
-7.028107543874544 -2.2322527745545893 33.712743581882535 196 179 171 
-7.3746479072380495 -2.0853525327145817 33.915345075033045 181 167 160 
-6.383263921525664 -1.8209305538679597 33.651055350158074 143 120 114 
-6.991255833647568 -2.442746464423572 33.67445710512434 184 170 161 
-6.737317328148212 -2.8067451247678736 33.61342301958109 173 158 151 
-7.319475112710487 -1.5621258961144378 33.0406143304088 187 188 196 
-6.375297939652157 -2.938086304456535 33.61445004048444 162 148 139 
-6.641933481407566 -3.3459372970680983 33.5759275786132 171 158 152 
-7.226601149075215 -1.4631632524967655 33.14799765864928 41 43 56 
-6.6428216125638535 -2.6628207718630668 33.60414266819697 159 144 137 
-5.5578082268255535 -2.4909834561084 34.05488311338318 96 94 95 
-5.686640244002877 -2.38721195460721 33.97123191857728 68 67 62 
-7.659243853339827 -1.8032619769021898 33.0951288385819 142 143 148 
-7.736914011945721 -2.1617036501968876 33.34888646216919 108 109 113 
-8.01668512409981 -2.0966899256449882 33.36966501615146 116 117 121 
-5.835491689364726 -3.781950724415939 33.96657067592078 93 93 103 
-2.30875434968733 -5.034420990364285 35.68842914696194 237 237 237 
-4.847434877398044 -2.0724857173412046 34.39327261368473 82 65 73 
-3.6524731896089797 -2.14994038998229 33.38530714071784 63 63 73 
-6.573530462297025 -1.778063027553443 33.65872610002566 135 115 108 
-7.957054288545351 -1.7524510481743647 33.256984713261915 232 233 237 
-6.163377026361957 -2.0520290041965286 33.70083214231168 138 117 106 
-7.0693445619480695 -2.9803502534123254 33.65121180327455 173 160 154 
-7.508843777322397 -2.398713389904227 33.9554676971154 207 202 202 
-7.575829441061408 -1.4405150847943866 33.09818982878596 60 59 66 
-7.765831041893119 -2.13774591090034 33.49935940615304 119 117 118 
-7.576325480938948 -2.2480256567292516 33.9824775462626 128 128 128 
-7.535627533568604 -2.2339562349022746 33.9661564946268 136 138 139 
-7.533252718902707 -2.235270781882357 33.951458912401016 136 138 139 
-5.5283692497072145 -1.8374359229223156 34.05185933445648 81 65 73 
-5.531699714188743 -1.836413091971556 34.02946841567964 81 65 73 
-5.265067093542267 -1.9077221230737655 34.158738625389404 71 60 58 
-7.651631616016836 -2.102559475680791 33.42491419664286 105 106 105 
-6.7275890719326075 -1.943104596695687 33.67453472026196 175 158 150 
-6.534269335437163 -2.4007227006743808 33.62391437975431 139 122 114 
-6.842446867972429 -2.5028188270057816 33.63905107719545 153 136 126 
-5.874370923434743 -3.609940170344105 33.949245430443725 94 93 100 
-7.189311918428649 -1.709417450827984 33.02382302683931 46 45 51 
-6.950354904487796 -2.9516779324422338 33.62984980574828 174 159 153 
-6.949602780368739 -2.9507414325072343 33.628641879122405 174 159 153 
-6.49698073544679 -2.9748201911034533 33.585074538986575 147 127 118 
-7.4528189146287005 -1.4827373280070315 33.05386412051809 92 91 96 
-7.508400794589768 -2.4591705287479657 33.94459004239984 197 191 193 
-3.694397263191302 -2.313507131041815 33.295515313487336 89 90 84 
-4.954310604325556 -3.83293999839941 34.20194831330117 212 205 215 
-6.953543157979903 -2.841771758425608 33.62015774587945 162 147 142 
-6.905821914318704 -2.4473018802527022 33.67180660227607 147 130 122 
-7.06604772122293 -2.524527413737453 33.69675720551918 171 157 148 
-6.365059603254968 -2.1939360063355586 33.63558585818654 135 115 104 
-7.367947756251077 -2.569298162743012 33.812935248394744 167 156 152 
-7.168681454803359 -2.7623092613696283 33.69900929806844 184 173 169 
-7.592858661472707 -1.505707727009911 33.11887343867727 159 160 164 
-6.84596449875761 -2.937478932228828 33.61800541849952 160 145 138 
-6.81578896139839 -2.765421598406082 33.62457302821467 164 149 142 
-7.5172339821239476 -1.3793468309350967 33.147705704642824 203 202 207 
-7.511125318688897 -1.8629044302106745 33.20964747340902 128 127 132 
-7.46716601832688 -2.185003479696837 33.96059971654763 140 131 132 
-6.6268485599242375 -2.944835200540738 33.59922530243428 150 135 128 
-6.947308653719089 -2.0207724142333725 33.73573808638393 175 156 146 
-7.206674271909115 -1.4230402091467962 33.35955755653846 38 40 53 
-7.648323787515363 -1.8321338107838172 33.0928075628246 246 245 243 
-3.7265806924024645 -3.0127842689817603 34.979601660560775 197 187 194 
-7.178373893705894 -1.6507177177556387 33.019706261422186 146 147 151 
-5.9684521553509775 -3.0433079794259275 33.79458244360821 127 110 103 
-7.295704785206421 -1.5663887334960709 32.98042226505251 188 191 200 
-7.187937722977235 -2.6819818131965896 33.70919003893017 178 167 163 
-6.418777151183267 -2.8332535607891636 33.62638087543644 167 147 140 
-2.923641320271212 -2.787454511246951 33.96159148466258 156 145 142 
-7.791901763918755 -2.101006675946702 33.51156614769012 137 130 131 
-7.319058102001964 -2.599492948940906 33.73091355123351 172 159 151 
-6.547164113320825 -2.762727609354908 33.60521076121415 166 149 141 
-6.270900043515429 -3.4998861589824894 33.64683172942472 142 129 123 
-7.7745580256870195 -2.122776965483237 33.505650132058875 120 119 120 
-2.008459493827271 -3.887873611910705 35.727741248007845 145 142 143 
-7.660671753111259 -1.6742820937546994 33.11504159336951 154 154 154 
-2.26385306157319 -2.781573869148337 35.770628376850794 150 146 138 
-6.618236874125252 -3.0285432850698024 33.5882055370571 177 163 155 
-7.678752393091347 -2.4175640739458775 34.02920024947943 86 86 86 
-7.227245118197782 -2.1091307424330936 33.80663711734906 184 170 161 
-5.859736348567877 -2.1684150498389974 33.83606349775296 119 96 88 
-6.186621486836632 -3.1785144748732197 33.67451075691051 155 135 130 
-4.832777260411714 -2.6332299738976017 34.209606543268514 122 107 114 
-2.2188002629034855 -2.721983497535465 35.712801297088234 107 103 92 
-6.665512507347497 -1.7714620364292086 33.668166134956266 160 140 131 
-6.665512507347497 -1.7714620364292086 33.668166134956266 160 140 131 
-3.0318616291020533 -3.5997571057540956 33.88295617020127 135 119 120 
-6.072751546445566 -2.0080329949804496 33.72180669811055 121 101 90 
-7.634995538423707 -1.6014184127672522 33.15297063484678 193 194 198 
-7.335438235007121 -1.6114544418558596 33.0161305261488 111 111 120 
-7.55876579980036 -1.4877363055951225 33.100745811877275 196 195 202 
-7.2268288224352055 -1.4623059301365338 33.13751749196275 39 41 53 
-7.748120778784296 -1.4118822640159232 33.158213926935474 40 40 53 
-7.748120778784296 -1.4118822640159232 33.158213926935474 40 40 53 
-6.774784783118186 -2.883184899705876 33.60469393798495 187 174 168 
-4.429060293894089 -4.0521764945394025 34.59460053776268 107 95 114 
-7.611179086407203 -1.5705908044784964 33.095436253273256 50 49 62 
-6.490924766145252 -3.2172368611307167 33.590140188204366 172 159 153 
-7.61614151439942 -2.4468105006705843 33.97165274989118 85 83 86 
-3.0042519731007644 -4.08503719691503 33.93886472067996 150 138 142 
-7.903702213672535 -1.7595521691103126 33.23719653232436 235 238 244 
-7.868641091148884 -2.3834617246139223 33.85569403270231 231 234 235 
-7.767168413148145 -1.7896480754960429 33.168003725145624 70 74 86 
-7.382561467838528 -1.690981418760674 32.96678434934096 237 237 237 
-4.2747277976353 -4.300934687197538 34.63675604363027 122 119 125 
-4.283140570291387 -4.289453890974203 34.62386762947312 122 119 125 
-6.928418513265889 -2.543905510584004 33.66064881529968 157 140 132 
-7.128999015704128 -2.9011847616045534 33.67808902986696 178 165 159 
-7.018429474017346 -2.2984822228104225 33.699375869379224 152 132 123 
-7.943411934211596 -2.098441275170794 33.34284798437288 109 108 111 
-2.9225222283739996 -5.058310116860667 36.17292025155676 220 220 222 
-6.507829511633041 -3.401047010775801 33.56461787225714 144 127 120 
-6.682643025636041 -3.1976701419215807 33.58236088451796 185 171 162 
-6.683994044367397 -2.79887164685294 33.61550245467079 177 160 152 
-7.156696975015564 -2.71260070452474 33.705502684251414 178 163 156 
-2.9559100932217675 -3.3469934818883456 33.86054329623922 114 99 99 
-7.618035973447384 -1.3864569735752044 33.13878220326015 101 99 109 
-3.6900456572626794 -2.176952098363153 33.39355401948875 146 145 153 
-2.964955381500303 -3.2889979362619775 33.878986145256576 147 129 124 
-5.907320158586753 -3.5788800112539825 33.9153115564624 126 125 130 
-4.567564159557303 -2.6625529003355926 34.51104231234964 81 81 83 
-6.168645908356988 -2.226971956972112 33.661829226129655 114 90 78 
-6.386967038819179 -3.2711756085594716 33.587063757636905 163 146 139 
-6.5517697549213025 -2.9010729510846573 33.589472249689535 140 122 110 
-7.754605581165446 -1.8904374919970088 33.147535361860854 138 140 150 
-5.8907666065658795 -2.740475034756529 33.82275667734849 147 125 116 
-6.73364616351642 -2.0117998442126086 33.757665953230486 152 130 117 
-6.680522338501996 -1.8364341143048653 33.68891102440772 147 129 117 
-7.371565393840429 -1.939171356211519 33.37828696404421 217 218 213 
-6.340362556941532 -2.071283191585573 33.6419088638842 123 99 85 
-6.451725976213584 -1.92155715862244 33.645364666534114 133 113 103 
-6.736858861296579 -2.8602497477420314 33.597989469821584 189 172 164 
-5.863919900676397 -2.554294765848894 33.822157152217315 138 118 108 
-7.681569773592985 -2.5602126666865033 34.03753228504942 183 172 166 
-6.529112417908532 -2.8938447123351327 33.60135028078956 171 153 141 
-7.464416005251312 -2.8400970985723166 33.88833333612931 176 165 161 
-5.8488071156852826 -3.705772606027619 33.9732382913425 166 165 170 
-6.794395502866648 -2.841143670144797 33.60461161632374 155 138 130 
-6.95514761195812 -2.7456060946090393 33.652017460943924 163 149 140 
-6.986494439223698 -2.872389234972328 33.665787704220776 170 155 147 
-7.442219401125364 -2.6057197564070886 33.850843013491016 199 186 177 
-7.381686246091853 -2.3149138120165933 33.832251094764985 162 152 144 
-3.6343870881350675 -2.2031787235894287 33.15819690746527 218 218 228 
-7.5369070443517145 -3.353750652226439 33.86416228688594 185 176 171 
-3.359546050801349 -2.251498893244346 33.900340202277974 155 154 153 
-7.360522423047126 -2.3133138379028217 33.86768477749304 179 167 158 
-6.448252050759537 -1.77201177601376 33.65217443845156 129 105 93 
-6.653897959921734 -3.1170724798594085 33.58211693320695 167 153 144 
-5.438635868306886 -3.5120005602118365 34.1579577844297 133 133 135 
-6.71272523964404 -2.0108674062215495 33.6576322549319 150 128 115 
-6.338039262906843 -2.3904387148982664 33.65323888198633 153 127 114 
-6.338039262906843 -2.3904387148982664 33.65323888198633 153 127 114 
-7.266930585075956 -3.310268188387063 33.685349944833895 203 194 189 
-7.575224725972063 -2.537271639636601 33.98757064245696 242 236 235 
-7.116005690364382 -2.3742444685245454 33.72272162550598 198 180 168 
-2.9976752987681436 -2.834495811040626 33.97633749901124 163 157 159 
-3.481599547803878 -2.317087967364352 33.290816806343095 67 66 71 
-7.261470224612447 -2.0417366399610404 33.79979390883837 152 138 129 
-6.508841648685806 -2.910859127107491 33.599141618881816 130 112 100 
-6.133226341393133 -1.8335245055142 33.700250037002206 120 94 81 
-3.3304093870012714 -2.211502909853892 33.914473702851666 74 72 76 
-5.980617913196465 -2.11513391896752 33.73823023527301 114 92 79 
-3.6774313170898587 -2.2214517853437785 33.188687852244755 104 104 112 
-5.508954604579227 -3.3765062932384406 33.99840341759559 215 205 213 
-3.7197146817140094 -2.2787487771915718 33.29702819862118 179 180 177 
-7.507791118037202 -1.8879136935994008 33.20744075021127 190 190 191 
-3.028371471022858 -3.0875583455077553 33.960481563072946 90 84 84 
-6.28230914919423 -2.841341149568766 33.63636872687727 126 109 102 
-7.469018618113671 -3.415448157687054 33.754255010474125 197 188 183 
-6.002700304714107 -2.9893176252587246 33.77168832983137 117 97 88 
-7.7939096607550375 -1.9523008310916086 33.19672354176424 162 163 167 
-3.1010778491629303 -3.499077547898727 33.93809747890834 121 110 112 
-7.6671266560932185 -1.8299473525997767 33.134044610899224 133 135 139 
-7.360777464584238 -2.449022691588315 33.83079662179917 181 168 160 
-3.002315147407497 -3.2555716994545794 33.8913229001087 134 119 114 
-7.2331620639712 -1.615544404646914 33.012638175407645 42 41 55 
-7.166909584640969 -1.6839490414850413 32.99185627193182 60 59 72 
-7.557064550972417 -1.3714825796301802 33.11061949506768 126 126 128 
-5.826770999706547 -3.771464526442667 33.9733898929064 107 107 117 
-6.5982509367945 -2.0452261415524924 33.653019707760606 172 152 145 
-7.371235454504292 -1.9254224678630711 33.34231108564755 143 143 140 
-6.14890765751816 -2.2718736640395916 33.70695363193088 142 118 106 
-7.841151815683411 -1.7203798272352304 33.20956675191305 150 146 173 
-7.3421127271487165 -2.4537971309004796 33.831359302560685 177 164 155 
-7.06170497142589 -1.581111712991612 33.04385416722241 138 150 154 
-7.06170497142589 -1.581111712991612 33.04385416722241 138 150 154 
-6.213879915368953 -2.7267478355864334 33.655507066985734 147 127 116 
-7.324760871446497 -1.8975934543557926 33.18206283669162 119 117 129 
-7.645131061365445 -1.5201681627066188 32.27622476201047 40 39 55 
-7.529571753672453 -1.5207130192525513 33.07814323237196 55 55 57 
-7.666775663508847 -1.3737923694020724 33.18594194623045 40 42 55 
-7.067830675074839 -2.9182961432424337 33.65002106821924 194 181 175 
-5.7707487889704705 -1.796927082784313 33.894408893554434 94 81 72 
-6.3324389273249935 -2.815695339042426 33.620070957272084 158 138 129 
-6.498182324918268 -2.922646231994414 33.597463816121525 172 155 147 
-7.4150445765064745 -1.7305702165095234 32.99330367543468 231 231 231 
-6.960174584390867 -2.7768920847049117 33.62683723586696 182 168 159 
-3.3428624290313103 -2.222865035221111 33.92450298390086 141 140 145 
-6.027271233280636 -1.4804763807173948 32.40960016110341 132 130 131 
-3.3933193522050047 -2.4559495945295815 33.36415938012096 216 212 216 
-7.309312599299922 -1.8982507315150365 33.26851522027957 107 106 110 
-7.255390220211838 -2.834942414664564 33.717969327728035 205 195 187 
-6.588292279010355 -2.287979544299314 33.63659262621347 158 131 120 
-7.707516716357375 -2.366601228961362 34.046563491530215 199 199 201 
-6.0025840215168 -2.30013766762169 33.75448477442285 115 93 80 
-8.027750611992271 -2.5510908662370326 34.21252945718929 184 173 169 
-6.3138397541443965 -2.51215370579418 33.62160346433009 130 104 91 
-7.315064570880104 -1.57953321929714 32.957897008910294 121 122 129 
-7.514656320622091 -1.3957097741240316 33.092692842762794 83 83 85 
-7.772209666246937 -2.1890641981669727 33.55193979488422 87 88 92 
-7.59023851665288 -2.3004829778415274 34.0068504156702 108 108 110 
-7.928754603939357 -2.158357450917303 33.438091888937095 66 67 71 
-7.443093771464616 -2.0220163822135824 33.411165465679474 126 124 127 
-8.046353727328267 -2.1705064887617933 33.489043947408405 59 60 64 
-8.024126425025631 -2.131236008511713 33.45248875867762 211 212 216 
-7.17006092306903 -2.955665044430556 33.682163377267734 204 191 183 
-8.299345046777933 -2.02921255457049 33.52365693301364 132 132 128 
-2.913944615742146 -2.943936135052943 33.880264918230395 153 136 128 
-6.891300866404734 -1.9337367893343016 33.70718441589012 135 119 106 
-7.760986071004535 -2.1078566430630903 33.551811836020434 107 105 105 
-6.749123649897655 -2.2900133026260807 33.65149968434473 152 134 122 
-6.698946352308731 -1.6018979679399674 33.69746037410977 111 90 83 
-6.750770128504172 -2.0325247547399354 33.669939986526515 150 128 115 
-7.017029546681499 -1.5028380979804004 33.299965727735085 126 126 131 
-6.273633512670319 -2.5873428142430805 33.64637245596952 124 99 88 
-6.728627921345991 -2.447373088130549 33.62532793684933 158 138 129 
-2.8915619767047396 -2.740923261772652 33.92268812929562 150 137 131 
-6.982383352990389 -2.8928569931634547 33.641202225362875 174 157 150 
-7.562894256862226 -1.4746295014201207 33.1012499564669 235 235 236 
-5.911188291091861 -3.414161109257181 33.75800368620585 147 142 145 
-7.5881500364433965 -2.567264077007227 33.966489328010326 216 206 199 
-7.478796303720566 -2.1379694654049435 33.95740670644361 143 140 135 
-6.717197312621279 -2.2437807350516614 33.652144914491984 152 134 122 
-6.717197312621279 -2.2437807350516614 33.652144914491984 152 134 122 
-7.154466221524821 -1.5952145442490515 33.00126034881328 172 171 176 
-7.2311951700681885 -1.4748035171452862 32.976973934716554 71 73 85 
-7.525011405050343 -2.5762919158271096 33.950479177613545 197 187 179 
-7.223603088219711 -1.634809421132938 33.00383685529137 61 60 72 
-5.944029274926784 -1.4985422263185928 32.46586320648477 203 201 201 
-6.872844361292415 -2.088585087704586 33.6537404737683 155 136 122 
-6.366606640611419 -3.4582862333198907 33.60374305766637 136 122 119 
-2.0822398369434367 -3.1540245814459746 35.67763746553318 180 172 158 
-3.637512299761525 -2.7199064032422413 35.063936365392166 100 99 102 
-2.879120534530472 -2.9360710542961685 35.49392670677678 61 59 60 
-2.7926024051222527 -3.1309424349898487 35.40291201038194 60 68 63 
-3.189553443408691 -2.3931820413706877 34.95090327331161 121 120 116 
-2.8329922574859374 -2.612427484448303 35.47016897103312 92 84 72 
-2.4409947279398594 -3.3646398056142894 35.694256096541295 101 109 93 
-2.9003511636390478 -2.393974037733714 34.55150374747252 115 114 111 
-2.472243641340551 -3.3644121618825045 35.68706955232811 84 92 75 
-6.45989736296017 -2.9346919245021095 33.59207272833271 143 126 118 
-7.402504010451555 -2.365889471646086 33.88556706130325 164 153 149 
-6.550827090132042 -1.8062463471002435 33.66176395970184 132 112 105 
-6.764075159729362 -2.234237299493566 33.64935644949735 155 138 130 
-6.443038907090772 -3.410797540792199 33.58468956634494 140 126 123 
-6.650879196347255 -2.4836335415801782 33.62213245391095 145 129 119 
-4.2422004777874704 -2.5394426626855777 34.72823810821441 81 79 88 
-6.459261924370864 -2.051495911339994 33.64302437889424 138 118 111 
-6.3777200110450565 -2.2949034694887027 33.641470072679084 139 119 109 
-6.57868337280078 -2.3552273572608406 33.62562653700158 175 158 150 
-6.784809623123586 -2.454154727799218 33.6278670332026 192 175 167 
-6.833698713338798 -2.3589363268447014 33.63413950047347 185 168 160 
-6.832617046898015 -2.3597684196642037 33.6337026532082 185 168 160 
-6.795847195280281 -2.46067517796401 33.62590999060188 174 157 149 
-6.698279274268788 -1.9735997657929731 33.65300452457087 171 152 145 
-6.553015646997615 -1.6118877060657093 33.682945542395295 146 127 122 
-6.3550737513821485 -3.134285521966855 33.61317394239073 148 133 128 
-5.323544657919605 -2.417382778974128 34.53667185745834 110 109 111 
-6.867434653441016 -2.8689918924197473 33.61773663726131 169 156 150 
-6.342038912429642 -1.6177477510919882 33.6808126668697 97 87 85 
-6.281815598315713 -2.8409092737056145 33.63080894487334 126 109 102 
-7.71993993284552 -2.322788206525095 34.211004477702346 84 84 84 
-6.478045372752778 -3.43122187991342 33.56872688680942 144 130 127 
-8.278362196110994 -3.260157350377238 34.26488933000088 70 68 71 
-6.456431590671571 -3.105413870038067 33.59656085832028 146 128 124 
-6.821378310772873 -2.5847159105870725 33.6321226564705 155 138 130 
-6.453564997149286 -3.0262442731155197 33.59853916618921 165 148 141 
-5.503040706568012 -1.8578448296622083 34.0501301709442 108 92 93 
-6.190487148907195 -1.9200055197701404 33.678556482466945 119 96 88 
-7.103398330369988 -3.30345994871157 33.606659135870764 207 194 188 
-7.100760278558422 -2.1052903190288235 33.71886216939474 178 161 153 
-6.0003593841923895 -2.3051650289717847 33.739314733000924 117 95 82 
-6.754178748746877 -1.7206299000475411 33.686417047104705 134 117 109 
-6.34564795590833 -2.299612968210017 33.64658822133623 136 116 109 
-7.544640813876676 -2.362694991074018 33.957826374449056 85 85 85 
-6.773426834816977 -2.2864595875828346 33.65260753245437 159 142 134 
-7.123589074822572 -2.106161835291675 33.77033974439803 173 156 146 
-6.710194293592213 -2.424219650720249 33.63541105791507 156 139 131 
-6.716002317605465 -2.104448298359865 33.65910767003979 179 162 154 
-7.856580082616333 -3.371782501901677 34.025749081210144 201 200 204 
-6.714906557742193 -2.398344292949381 33.63357778599024 150 133 125 
-6.714874493879758 -2.3981386800028 33.63354859340433 150 133 125 
-6.718653313463406 -2.123618738137841 33.655648838669514 180 163 155 
-3.3596694716701663 -3.0602744997428717 35.22606254435593 139 137 142 
-6.958909640105876 -2.334252051553255 33.677633609032256 164 147 137 
-6.752260016964787 -2.0932580516733355 33.660827119129706 185 168 160 
-6.418546033541123 -2.8304916231364414 33.611015432020096 164 147 139 
-7.401211415006788 -1.7745707761912817 32.982036449315515 223 216 206 
-6.174636392262114 -2.3297201387553503 33.687060872297465 121 101 94 
-6.484982825921552 -2.099199848296477 33.643717615933014 144 124 117 
-6.547047040777652 -1.9473264658426452 33.647385184256194 182 159 151 
-6.779090298347326 -2.244687828648132 33.65208978153839 194 177 169 
-6.274236841764367 -2.8861216305226867 33.64638422354792 129 112 105 
-8.000525695217657 -2.1102224000795724 33.35852274640481 135 137 137 
-6.514244180003043 -2.8949553455609536 33.59732899035525 163 146 138 
-6.154112150193605 -2.790688379369736 33.69020217916394 145 128 121 
-6.374240870296674 -2.888922142429344 33.61577193809846 162 145 138 
-6.375299167497342 -2.8882367572295493 33.60864615998602 162 145 138 
-6.267302024866174 -2.6884343055104374 33.640093060526624 131 107 105 
-6.297554539882864 -2.6202686599026457 33.63106755204526 156 134 129 
-6.866773574989647 -2.8685537804695196 33.6234259060316 170 157 151 
-6.732196601012658 -2.7052109829732345 33.605221644574684 156 142 134 
-7.366966822449228 -1.7161284387898537 32.93871185777435 202 203 198 
-7.0534902585691235 -3.2547850800753437 33.62125576856309 206 193 187 
-6.477325666665635 -3.430860431875832 33.57218939644393 143 129 126 
-7.8519370210332635 -3.3298471631712747 34.01964300307773 163 163 164 
-6.3694367787317425 -2.1755700743955746 33.64510453168427 162 140 127 
-6.744151119036161 -2.5478130570115 33.64076689279416 165 148 140 
-6.813195807687654 -2.675032739745152 33.631407939729215 192 175 167 
-7.346023310999806 -2.706991058834146 33.76421686239303 192 181 175 
-6.805838491295807 -2.4853344543876226 33.64020601160223 163 146 138 
-6.275245280371667 -2.209727116751835 33.65518485927831 117 97 90 
-6.417381447575513 -1.7859130916306873 33.657309165115 146 124 118 
-6.538090030262762 -1.8338406147945534 33.663024533491296 137 115 103 
-6.815742356512509 -2.1233508403057373 33.66373090713287 158 141 133 
-6.724820740525299 -2.5847818931011464 33.621565836250845 189 172 164 
-5.941091999997983 -1.7781112252164921 33.7554551877117 88 75 66 
-6.403968224289223 -1.7774108124800039 33.65463654352582 124 104 97 
-6.642482154613337 -2.09754919708224 33.64076396517446 166 146 139 
-6.765652142612447 -2.3398176142813867 33.65415259754677 155 138 128 
-6.905218420170852 -2.582793430067807 33.63891073429484 188 171 163 
-6.713513000840678 -2.53585358976314 33.619828158530794 191 174 166 
-6.036420126788082 -1.7879775242510885 33.72032431112546 128 107 103 
-7.102913063808435 -2.301679265402541 33.725423888572905 196 179 171 
-5.417348305142971 -3.3393668776389243 33.979507967044995 82 72 76 
-6.750157616434464 -2.3053382445778414 33.64191596005645 183 166 158 
-3.165287808133634 -2.547664209292482 35.279227076101975 99 97 101 
-7.209406954152918 -2.7360426406372325 33.695638740424386 206 193 187 
-7.515991946233244 -2.3819488432097344 33.92578239967662 183 181 182 
-6.25459727121827 -2.615915163980363 33.648653961487774 133 109 107 
-7.104593426879752 -1.6017862481702343 33.05821083685613 147 155 158 
-6.687733379007955 -3.019879665915166 33.5768571314799 180 167 161 
-5.749015432450264 -2.239996662644308 33.85661630436898 89 83 88 
-6.4024114840957935 -2.903844327850048 33.61110995049903 164 147 140 
-6.903134823254685 -2.5302726466854706 33.64361224148087 181 164 156 
-6.961303322464627 -2.9298011010698337 33.62225678110327 197 184 178 
-6.248535717678429 -2.6922618269477585 33.64690479449416 127 103 101 
-7.066906797415225 -3.225423697385489 33.625320378681195 211 198 192 
-6.5940379224616965 -3.2762073845544606 33.57794973521217 185 172 166 
-6.662634715808412 -2.001396888334905 33.896748149177284 160 140 133 
-7.049764974303349 -3.2334175846322593 33.622848428940046 207 194 188 
-6.729285285774335 -1.7114073350563315 33.7015362131377 166 146 135 
-6.939456992390859 -2.885054386583752 33.628472060270404 197 184 178 
-6.951692903601348 -2.050636037864584 33.699270901268605 161 145 131 
-7.085932751804734 -2.3017155833098313 33.71368219642744 193 176 168 
-6.779508258761808 -2.686617589793965 33.619283324421005 194 177 170 
-5.909582992702571 -1.7848778612294574 33.77483956674206 104 89 86 
-6.562358807807623 -1.8159588236862798 33.67004404978782 168 148 142 
-6.16776196837565 -2.3659930757715424 33.680701425592815 155 135 128 
-2.902735372514755 -2.7099606034396286 34.383839185457546 140 134 126 
-6.208543341834197 -2.4332988684955437 33.668811475349166 150 130 123 
-7.458423003704953 -3.401044700871748 33.7536360123574 209 203 200 
-8.632387467482854 -2.27647251836256 34.56776870832946 79 80 84 
-6.9040987665031786 -3.3118215173511736 33.58209320829586 176 165 161 
-6.5040402041204395 -1.6946294953408665 33.67166387617258 151 131 124 
-7.70836684479675 -3.2454252400932395 33.94644340328432 211 211 214 
-6.001946491467802 -2.9898589212153723 33.77290775738216 124 106 100 
-7.299551621987092 -3.337371130814052 33.69379196833901 215 205 204 
-5.431107435114548 -3.8977945742435995 34.15280707603339 76 78 91 
-6.494946938147869 -2.3873476017046036 33.619500619766484 142 120 108 
-7.523341738700282 -3.0798360357806693 33.85868138852649 216 205 201 
-8.502988336285085 -2.0742809806694615 34.30009829961294 125 126 130 
-6.381678226537703 -2.599791051561775 33.638419050129514 133 110 102 
