122.72055235899288 0.48326960922066853 -46.89775898939686 128 129 150 
123.16478695788138 -5.8709791393358834 -40.14300110973035 151 145 155 
121.57946976741302 -3.3901749691574725 -37.094395698962856 117 123 148 
123.3168432710799 -3.776606822808872 -39.131778902414 166 171 183 
124.0848676312223 -2.3132174095869287 -40.384027796032 226 224 229 
123.44728693176064 -2.118279588833948 -39.00199552094384 195 194 194 
126.16592386837195 -4.2223233062801295 -42.73311698350997 194 198 207 
123.80206346196299 -3.1548395496528383 -39.856081838150004 122 109 119 
130.1410400362881 -4.752476823299725 -47.225353830129364 211 213 225 
122.7439832282809 -5.8552564240630565 -39.34250572465997 170 162 167 
124.41516522626033 -0.14497879504822597 -45.23472582877588 119 120 140 
125.02833954404596 -2.212599290487479 -40.29886853632536 174 173 178 
125.66959641103719 -0.5877113865068093 -50.56441456146629 99 48 77 
123.74007256881478 -3.7465611569683377 -39.93249526753974 116 107 121 
127.14354305750024 -4.089885030119668 -44.25324912248274 128 116 118 
124.83595347885375 -4.769586607141419 -41.165488593940026 234 237 245 
126.35948084505954 -5.349944252029834 -42.762965626189896 115 112 127 
126.74449815170489 -2.191058406713707 -43.37611153167988 83 82 80 
127.14196201732663 -3.092920576698482 -44.13259846755474 107 88 92 
120.82099287730944 -6.562419222455356 -37.05760726951795 92 98 121 
126.76913636588458 -4.139875393901485 -43.401948374099774 214 213 223 
124.79852587000714 -3.3518668252433743 -41.00533019272885 142 124 126 
123.89748608060505 -0.7534662067240336 -55.94141688786199 57 54 71 
123.74105865912308 -0.33773138661924573 -55.726738075209695 240 246 252 
123.75839675717691 -0.36869399426491056 -55.328370612156164 212 216 228 
123.84601776093763 -0.39822835391206124 -55.34284682132301 184 186 200 
123.75086633695224 -0.45245070995469416 -55.44857577197172 201 154 169 
127.26504437457996 -2.733094715589381 -44.28459521065241 159 143 144 
129.74869235057102 -3.2693381909774217 -46.5380968956458 139 119 126 
126.54839235598845 -2.213495451868357 -40.52657315222406 147 147 155 
129.61480214959343 -4.508264412772536 -46.7337833542636 164 152 167 
126.45870987242067 -6.0602649811115405 -38.96192439877491 114 113 127 
124.72741760841923 0.08916421929350937 -47.341858090877544 138 140 153 
130.5559300435115 -5.709781934533572 -48.27142496941019 112 111 124 
125.23354066370467 0.10573853378940123 -47.10950714220546 156 153 170 
130.6013474153358 -4.029651988948945 -48.228335694982974 47 34 42 
126.106058932394 -0.43553979272006993 -50.67252454069782 18 25 40 
126.37762268393463 -0.05678858736208836 -50.70445813322074 187 185 206 
125.71937531317448 -0.5654686807732137 -50.4145162592809 150 119 140 
125.64759889889885 -3.2579558159582267 -42.14035574882618 81 64 71 
125.69190326791747 -2.0496867439588318 -42.1375703547133 105 102 111 
122.21032408179025 -0.07516391813485535 -44.30402414064835 234 236 241 
126.51027787167347 -5.205463782672727 -43.08197162624346 199 198 212 
125.875526083298 -6.543879699180411 -43.1936889830709 229 227 232 
123.42769975915151 -0.7506516767050802 -45.70817577185619 172 168 184 
125.76360139803565 -1.270860297008146 -42.50672595971439 80 83 90 
123.59854844923144 0.09892742306955071 -45.85531237288576 53 53 77 
123.52703849373955 -0.12861254309567371 -45.86684741476519 101 61 86 
125.73101975123926 -0.643769401894593 -46.269901203494 158 162 174 
124.19916384308117 0.17940809642953948 -47.32770820660747 105 106 127 
127.2908328986729 -0.11731542326528688 -46.143100304898525 75 73 84 
130.23626249684213 -4.936634766200498 -47.580513968593145 249 248 250 
124.57264223909853 -0.15549780178224948 -47.33835923683871 175 176 194 
125.49908787745723 -0.6971269626980217 -46.581644264278545 176 178 191 
124.77767242515219 -0.14434819126835907 -47.13536948587596 81 83 99 
123.47637869269123 -1.009259388459708 -39.51292226786839 172 175 184 
124.00992158848807 -1.3618067138840346 -40.10631234629279 142 134 141 
123.23328480404864 -3.590204385160533 -39.120376654149354 90 94 106 
126.50750974674787 -5.196621107841516 -43.10205072232905 202 203 215 
125.28503328739747 -2.632673323721628 -41.400480693944075 143 127 136 
125.13643832831279 -3.2466089494550894 -41.387493932572866 167 147 144 
124.63618145165886 -3.752211253780848 -40.696732485827035 90 86 98 
124.80534715774887 -4.951883929557736 -41.19072810249084 204 204 216 
124.61750381185527 -2.035623494703459 -40.9354336755352 46 44 52 
126.08950017916567 -2.3806498520981134 -43.72323456862915 202 197 193 
128.3999549790899 -1.706920510312083 -32.80861157395436 145 148 155 
126.36626607580871 -4.597698015742698 -42.89809049133639 236 237 242 
123.37431040997129 -0.681361028178946 -45.64760958219283 230 231 249 
126.47739160095313 -0.9008411304799286 -43.14832929955753 150 149 157 
126.08732004803849 -6.802741686482861 -43.21281963089322 94 91 100 
124.37495986365985 -5.055014003779606 -40.31216876134832 106 103 119 
127.05695327280391 -1.5803442538391241 -43.46295350537026 209 210 205 
126.01799071475753 -6.158742424055655 -43.05194564666264 122 113 126 
126.29375102241333 -3.3510702664844993 -42.93901663788526 147 127 125 
123.21988078926253 -0.4014803568299363 -45.705895554847224 187 192 222 
123.21213030441302 -0.4005888726379536 -45.717684389302306 187 192 222 
123.1517455916321 -0.3909910132490819 -45.64619180906671 195 200 229 
126.07601648758315 -6.751634217055646 -43.263618143503614 97 94 103 
127.19050419808413 -3.237905482223903 -44.186833347868344 156 145 147 
122.8846496296832 -0.5264448067156291 -45.01292921526061 65 67 80 
126.77388933370982 -1.4823599604763031 -43.33525815804859 67 67 67 
126.57690083166527 -4.018648804349226 -43.13159719181447 100 91 100 
129.3424411520472 -1.2476942862796228 -46.23133910921575 88 76 85 
129.4948370799519 -2.7760786130832646 -46.74942081680605 216 216 218 
129.202066161327 -1.761588678063073 -46.266948702597894 213 214 218 
127.68260889779562 -1.274935008030335 -44.28509995752114 98 91 91 
123.5183603952298 -4.494791670811927 -39.937354695280064 174 164 164 
129.192182679478 -4.458742191366455 -46.14327525377398 111 107 110 
124.55114877999289 -2.205108776518708 -40.833381740553165 162 160 165 
127.50587099675714 -1.5900955498380591 -44.32580709799936 134 118 119 
123.20535458432397 -5.531267973412948 -40.35818419572399 138 132 145 
123.43226345776885 -6.168760586310281 -40.597535726593335 225 230 241 
123.74513084283035 -5.8991380695290125 -40.46150728077575 77 76 80 
123.67710473005484 -5.861515816039927 -40.586540723964234 174 173 178 
123.65542631152678 -6.142024646523916 -40.48905429347111 196 199 204 
126.84643293936865 -1.4468672873855069 -42.78393778233209 110 109 110 
125.40590904986203 -6.848609959414171 -42.16342599056529 203 206 221 
127.38373530249282 -2.341458058791767 -44.29388006029339 156 140 140 
127.09593527684324 -1.5922079486061218 -42.89627446991096 206 206 204 
125.8559949439944 -6.689021826397562 -42.87408096529457 201 203 216 
125.76233962851771 -6.640656927622095 -42.80936067027862 195 199 211 
125.34769644988933 -3.525680978809305 -42.23949190203958 190 191 196 
125.75867682309021 -3.5773442114383394 -42.20962436470805 136 123 129 
125.35761269586504 -3.3606583611823995 -42.06845064255751 198 194 199 
126.21100305743737 -2.3217363063825887 -42.64577622551745 213 208 211 
122.64060544851522 0.4250472747032097 -44.34284707982228 43 44 66 
122.64198539866818 0.4262571496619554 -44.33643665277554 43 44 66 
122.9935133176055 -2.612048381429007 -38.86505762486783 167 145 147 
126.05068335241822 -6.757688562499965 -43.182938350405855 157 160 169 
130.3210190780018 -4.882636964937493 -47.4097332572906 161 158 152 
128.7065829551359 -2.9012503481324656 -45.71022560766235 202 208 204 
128.96137684554967 -5.272848948693531 -46.105740578455 205 209 227 
129.44526003697368 -4.882841975828355 -46.361530390300544 136 138 140 
129.73620196910636 -3.7778046550864843 -46.930343741863965 148 134 134 
126.16355295817591 -0.07042588291266627 -46.09911649597025 97 101 113 
129.60270743532922 -1.9309821624204755 -46.97823004485228 220 223 228 
123.9602124450943 0.09831715130155905 -46.49888264341264 24 24 47 
130.5419136826524 -3.861270436815565 -47.578762110356365 108 85 92 
129.07520172752584 -1.8588342027284466 -46.28392372382989 226 229 232 
129.3956481271581 -4.808408744081188 -46.52142641716528 240 240 247 
128.8655786267102 -1.8384032874233238 -45.93490265963088 215 219 222 
128.54897091145122 -1.4797697982680433 -46.21463197038332 145 145 156 
129.27127266737435 -4.771766323149585 -46.49229951869289 231 233 236 
129.5033512485993 -3.2048034510888908 -46.41239138404518 128 110 109 
128.71468509888905 -2.7112110217097065 -45.7915096533828 206 206 208 
125.58878138968201 -0.7290827227528018 -46.351209276223756 43 50 65 
129.9391845756263 -4.378847565374277 -47.33400130241139 100 90 88 
126.49535744825681 -1.031904755404254 -50.16119212595921 49 43 49 
126.67931167694401 -2.1663650609710805 -43.693339014416345 84 84 86 
122.9172113766054 -5.494158406096057 -39.22549266926702 166 154 164 
123.26270915169903 -4.299515398875681 -39.608931892516445 78 77 84 
123.45223222971859 -2.1020491385586686 -39.47824740530015 195 193 198 
122.79501868591248 -0.35394312314923604 -43.83100354726507 37 32 54 
122.41279655469026 -0.252096784297116 -43.998776066345926 109 114 142 
122.2704913615169 -0.4563384807098372 -43.81184898830038 204 200 213 
122.12512190533661 0.03534150663195357 -44.31178227771481 222 221 229 
122.32645949264817 -0.07094230293014281 -44.3296003161131 250 249 252 
122.43952240514064 -0.18550070463783164 -44.26033850176264 210 204 221 
122.42452004297374 -0.22787550511205557 -44.25905527261809 145 146 165 
124.21996386440047 0.12826466348297094 -46.86918103335974 33 35 51 
122.88833221661974 -0.13312121227866092 -46.27763191605898 224 222 234 
123.47367957718642 -0.1360837906383705 -45.97830483841711 117 47 75 
126.79888864191048 -2.59092846253893 -43.16924795175484 190 180 171 
142.5609457836838 -4.041964660814873 -2.9551417519235486 190 189 196 
127.22889580672427 -1.731349282437297 -42.040164121216606 153 154 149 
126.72716620851247 -2.2006373001172594 -43.26555554664705 124 124 127 
127.09756243729666 -2.5869198486503793 -43.79944869119445 155 153 154 
127.47881506153146 -1.8579068703299968 -44.33675812351713 145 129 138 
127.27984698840669 -3.3050986771404287 -44.260245539388976 115 104 113 
127.37695302297719 -1.7404928628245888 -44.30067769683166 130 117 110 
127.54704238420102 -2.670670545514664 -44.49173200489493 189 188 187 
127.43015917594715 -3.182316410472666 -44.36106498806586 100 87 88 
127.33271844684143 -1.888830095494733 -44.47589845125067 172 151 149 
124.1570012683451 -0.9957185973458813 -48.41670927601584 232 231 235 
124.4229272852485 -5.462573845340366 -41.29016160914203 170 158 162 
125.86654933834248 -4.822253452018451 -42.40587803800021 228 229 238 
127.50507222719952 -2.9879747108387553 -44.22792961331585 104 87 93 
127.5629431020581 -4.795824368417826 -44.2090027398896 169 171 183 
127.02541850016476 -5.239527530368335 -44.128567799630574 158 147 155 
126.39974988608324 -2.2384892732472323 -42.920077068235344 202 202 204 
128.19059919929214 -3.34436723021516 -44.910959231949384 157 142 145 
126.74908856622699 -2.1821724564213048 -43.63715866011444 84 84 86 
126.63879177015842 -3.1008480458567456 -43.27087495505026 153 134 130 
125.06814885574012 -5.418322290963386 -41.81596694900612 168 155 160 
126.68886138406015 -5.34819809891913 -43.42919088247817 110 108 121 
130.08268972318706 -1.6003411284036693 -42.936550897983324 119 109 115 
132.97999393918482 -10.228953631436745 -27.437332732480996 185 188 193 
124.01509917873618 -1.1603506559972652 -40.0653884238948 180 168 177 
126.15806731634787 -4.282677148253509 -42.56079686756766 191 191 203 
126.48157176571719 -4.108853062765801 -43.089724111169446 202 205 212 
126.36782805467058 -5.151379046341303 -43.05334643725347 214 213 227 
127.98391530235585 -5.415584700846008 -44.78943511365674 209 205 220 
127.07821468515435 -3.2424097448636005 -43.62154538060695 122 102 98 
123.13123995389833 -4.3089133571339175 -39.012893994528625 96 103 111 
120.94971911752194 -5.907188909428229 -37.061920221985325 123 122 152 
121.70891960861329 -3.923416286109502 -37.417238158888196 63 65 90 
124.45375380671463 -4.703231177910347 -40.5556695460751 138 136 149 
127.59640291813095 -3.1111285009011986 -44.292314554697896 143 126 135 
124.83297080422525 -1.376890451507313 -41.49241891386475 220 217 226 
127.74009256435964 -5.642273431615087 -45.11805206764832 151 137 143 
125.09047750657322 -1.3263623195794967 -41.55230563856601 190 187 196 
127.73506926884092 -2.364882263793694 -44.33654188358608 185 183 184 
127.02347359972863 -2.6042979835431534 -43.509408500353594 216 212 210 
123.84113962224252 -0.2850405574924022 -45.586458169126985 143 145 160 
126.7348225959427 -2.29474138070612 -43.32729347815004 188 187 185 
126.9464631875015 -5.235989109281406 -43.69946986689736 142 137 141 
126.96970743987559 -1.1681105206554017 -43.39514320638925 157 140 147 
126.1526390543874 -2.9925092773456794 -42.66759489989633 163 145 143 
123.91845607711906 -0.7207599091699222 -40.00217642027729 161 150 149 
124.55923633830199 -0.8761013475269708 -41.30638419234775 148 145 156 
125.16439544921751 -1.4866080039201888 -42.02729465911807 107 101 111 
124.88550650128171 -5.065303931175669 -41.373627386917185 127 125 139 
125.48058869662891 -3.856007563422089 -41.847425480626896 91 85 88 
127.63223630145355 -4.0003610336967 -44.37914519175865 156 141 138 
123.6192485391445 -3.4766045066899895 -40.023429488823936 158 149 158 
124.04971374022425 -1.1580681964043804 -40.36718038172424 161 160 165 
123.6822274853373 -0.7851502595154207 -39.607206704364664 133 120 133 
126.63744308156181 -1.3802111432476554 -44.30938899403977 93 93 95 
124.88714308878474 -3.6678593835245845 -41.22279735834344 118 113 114 
124.09594937716606 -4.343706279425667 -40.24486495458903 138 137 142 
123.46635708482805 -2.3880482251368216 -39.49894528481636 137 120 135 
124.43652247171062 -2.5953622241661423 -40.85447528088501 167 165 170 
127.47763463788712 -1.769305758238827 -44.26021427941242 156 140 141 
129.52193741092387 -1.943209738143557 -43.95718631057319 227 229 228 
125.45678195215687 -2.881997910113262 -41.72389577132357 139 118 120 
134.75658742299362 -5.984285512924011 -6.8923330453986225 71 67 76 
125.49879206871643 -2.4280018547117956 -39.08261984098774 113 111 116 
125.3348619727536 -5.077645704862166 -42.51073820290037 141 142 147 
124.70298786814604 -3.527199366736434 -40.973180527304564 149 134 137 
121.46221898104365 -0.0783461950516735 -42.79746365267782 230 215 240 
125.92454865418287 -3.548222942892468 -42.44330498528728 138 119 119 
123.14236079483294 -0.1604146010253582 -45.728888783389124 211 214 223 
124.19891602521477 -2.0224764181429604 -42.61358176819554 154 152 157 
123.91126367531872 -1.986873447058276 -40.01830495255775 189 177 190 
126.35803492099146 -1.3925601841657484 -42.96670326872318 153 153 161 
129.13816293323106 -2.8504745230641757 -42.81964674577668 175 174 171 
129.13816293323106 -2.8504745230641757 -42.81964674577668 175 174 171 
126.45498790835335 -3.8673824403558394 -43.151853992967865 104 95 103 
123.32796764248963 -3.7112101228460457 -39.29337758904488 173 176 187 
124.12271120882605 -4.605485916820244 -40.48284093470761 142 143 148 
124.10642576930685 -2.0845324531819545 -39.86150696997606 172 169 178 
122.28133615160809 -4.3846686581073975 -38.21469459025326 65 68 93 
121.81790696531326 -6.671694564868934 -38.124953396682315 194 203 215 
123.477848739316 -3.4260249224110946 -39.76812621355337 165 153 156 
120.29361109548742 -6.081859609970207 -36.41332398861315 231 220 233 
124.82497164933517 -2.708044096567613 -40.97984400519638 141 121 121 
122.23348293988333 -3.1657394981081346 -37.93143033722512 164 149 154 
124.30928471412241 -3.4093408932139 -40.60130746836596 143 128 132 
126.07062352270879 -3.1294079174986162 -42.49815927075386 169 145 145 
127.83555357469415 -3.902780926834163 -44.58816698899797 155 131 137 
127.09077228556023 -5.534582138684137 -44.346431084136015 128 115 125 
126.49384965783426 -2.974369628655785 -41.56099914211745 168 147 144 
124.26506703946949 -2.086885941150109 -42.5213190686355 158 156 159 
124.77455769439541 -1.1198090622683459 -41.35052330375558 94 94 104 
127.21315643916374 -1.6624585848041453 -43.86637155854802 65 63 64 
124.6541895265746 -2.224525808115088 -40.50929316145689 176 175 183 
129.56268114750256 -3.2755876463441163 -28.35509100124026 79 76 85 
127.18373335983088 -3.7499118413613908 -44.180397538942906 165 149 149 
124.057346929342 -2.3863062258888568 -40.4236261605885 103 101 105 
126.28306856007507 -2.1017529871624907 -42.86354421463255 94 93 98 
122.45190620734594 -0.15916117410398511 -44.370021056234954 87 77 91 
123.41013633857216 -1.555261213393758 -39.40539614092768 104 113 119 
123.82742631679673 -0.4019158362237514 -45.584652666371866 165 167 182 
127.44062611411996 -2.1672336189032997 -44.28494101543088 166 150 151 
125.16454514667085 -1.4489830301264148 -41.84197581551555 206 205 213 
127.26144723855056 -2.9107558857963873 -44.274448375307685 162 148 141 
142.80335490695808 -6.29162232553904 -12.166753774583384 72 66 66 
128.4265676733445 -1.381183528440809 -44.92297677746413 154 144 147 
128.0537707437724 -3.0945498566032015 -44.701776428689925 132 114 116 
123.69676152043502 -1.7783731024629859 -39.639120495110205 165 150 155 
123.29748706162255 -1.7081585526766294 -39.244149420574935 64 69 73 
124.80782061804585 -0.5912390122893518 -44.811770975312875 145 144 157 
123.74701269921489 -0.8596847894702031 -39.90458493691895 161 144 138 
123.95963805938253 -1.7424530144190744 -40.132223202767285 129 123 131 
122.83391454817996 -4.714026366234301 -38.83084477225671 52 48 67 
123.56260040108779 -3.3092034946135254 -40.0941584800933 162 149 151 
127.05013658681966 -3.7435489330136322 -43.742163357324664 142 126 123 
121.73820986279578 -0.7372814413640898 -37.82415761048019 101 99 113 
121.37965681703649 -4.665883885311452 -37.74071323243338 148 142 146 
120.88230029268831 -6.77107826961962 -36.912265775698216 182 191 215 
122.96922146679054 -0.15246942484408033 -45.59481772484607 223 226 231 
123.58212546501154 0.2111037038321708 -45.93547889162642 84 85 105 
122.12989713735486 0.03446231473232264 -44.287520005728524 222 221 229 
126.26457413544239 -2.2297900966174353 -42.58202919718832 196 194 197 
124.13817403318659 -3.74652777894446 -40.27125245561351 158 160 172 
125.84468289821449 -4.809304450054871 -42.452006274283164 227 231 239 
121.98627577649658 -3.1358169294012788 -37.820376898993445 156 142 151 
125.3491857396222 -3.074580393242962 -41.63682543162666 155 134 129 
127.37980038949968 -4.3102387434038425 -44.19649603364091 71 58 60 
123.77889898231767 -1.9568407662091574 -39.97279926380639 158 146 146 
123.16890228363351 -0.11267581428288409 -45.828936091258925 196 197 207 
123.3012348187139 -1.2435659490791717 -39.6808200270649 200 199 205 
121.5758602936048 0.011402292978900164 -42.85656785480105 84 43 61 
122.15094110198935 -6.65935123155597 -38.535553024676986 132 140 159 
122.07533778606057 -3.5106537173454493 -37.66217175965025 109 112 131 
123.28106697702329 -3.0307776488087432 -39.212390149576464 129 110 114 
124.74702280047207 -5.655374246291291 -41.512651382967846 121 108 118 
123.6521782201464 -1.073099545769455 -39.69771015308385 41 39 49 
122.30393340920594 -3.4035628324114913 -38.03890222616991 87 83 102 
121.1674022947557 -5.9620841424126265 -37.28552165168 149 156 180 
123.98334642936116 -0.19712527427080118 -45.58624610663719 127 129 144 
122.04368328200852 -3.0791565834662316 -37.8281146409536 128 109 113 
121.5252323755005 -2.3648651969120795 -37.1394391495312 128 111 120 
122.98559479460492 -0.6181773762368228 -45.02325752572966 183 180 195 
122.32666461101672 -0.13359613745508825 -44.29723769253711 204 204 219 
121.45253103516436 -3.3523179535554477 -36.957089394091696 131 136 162 
122.3099380046733 -0.31159810724686365 -43.05996391740492 115 112 141 
126.77365604572053 -2.2827459109982 -43.2504993087197 173 167 167 
129.47320319297864 -1.9380242820322917 -44.03957922663504 215 219 223 
123.66195245078123 -3.8431835557320086 -39.91983040606458 116 110 113 
122.34151533288487 -2.831176935501256 -38.095089944603366 130 111 117 
121.54108278557177 -2.3037369538496595 -37.16599231571507 154 134 139 
123.96147763931276 -3.4704818273014597 -40.10710526198861 151 136 143 
126.13752829210893 -3.6859912775725796 -42.63159663895118 130 114 117 
127.41669507078693 -2.3477768309656852 -44.27068126374127 152 139 132 
124.08691945974043 -1.007314604259693 -39.995155949163475 107 100 106 
124.74584922868121 -1.1259926172229455 -40.87301924018645 79 82 89 
123.4351255161501 -2.424025920517697 -39.4143748224595 133 110 118 
123.46534418883697 -0.10367202058042202 -45.99488514590585 204 170 192 
127.47829894112188 -4.942835459985687 -44.16944221470396 139 139 147 
120.84139313307664 0.47773961021539524 -42.30245067391428 219 211 231 
124.75548889965945 -5.684192322154235 -41.608898581363 165 152 163 
127.61432850871917 -3.976694030559301 -44.44003706746402 149 135 129 
123.13739526059162 -0.19292790693833917 -45.71965236789381 203 204 214 
122.46568318610457 -0.10554070884408473 -44.38428404733894 204 203 216 
123.42782831943667 -6.084217144231541 -40.6915141266721 193 197 207 
123.45980188415439 -6.131811233190713 -40.545265744844116 193 197 207 
125.32057863680042 -2.438041766337755 -39.262632847229156 63 62 67 
126.60278461763501 -1.1462442893424745 -43.33658649790294 210 209 214 
124.74224582663982 -4.693793094369315 -41.211074809455894 127 127 137 
125.20223768935068 -3.655469287107029 -41.896164610297674 220 219 225 
122.26649615225091 0.03982113369860141 -44.352444458729266 211 210 217 
127.87674567272332 -3.2022227183464356 -44.62794698534999 146 128 126 
122.33724319193362 -0.34155855046867134 -44.24665335879631 98 105 130 
122.97265355453429 -2.603854427049941 -38.92579822999123 157 138 143 
128.22780138243854 -1.733591443768453 -44.98913200095849 210 211 216 
121.41396326517267 0.34913388451905236 -42.88910163842927 129 119 127 
125.32803859971573 -2.7343942350817465 -41.7074391521698 156 135 133 
128.31029512244493 -3.4664744285921563 -45.178973782002124 147 129 129 
123.95265257998285 -2.906275414200825 -40.63987141096542 151 150 155 
121.20924199073015 -3.4877453626475674 -36.76983186717056 75 76 106 
121.10679474507383 -1.8886226882929005 -36.62493099285648 232 230 236 
122.8330484120797 -1.5487980553861571 -38.80384143552185 99 101 114 
123.30990623293347 -1.6414965259957468 -39.376194459552316 92 94 106 
120.66902121163241 -4.364090451142992 -36.29484279911914 61 57 91 
123.2235650903277 -5.660447750310746 -39.865095677756 158 145 160 
124.93496498403707 -3.506706782941113 -41.10294446564707 162 143 146 
123.06714035695258 -1.9243997857359818 -38.75677890113401 127 136 148 
120.75254478137474 -6.09680049959314 -37.04859267225863 218 226 233 
114.76646734658684 -0.3892218067985863 -41.55168746809632 150 152 167 
121.1598286029009 -1.718326980981368 -36.461621503711335 208 207 222 
128.0075999407243 -4.541807969275346 -44.44055792010374 209 212 222 
117.88543779327645 -0.0010337971076381791 -31.214075052399814 82 79 96 
121.1877437175316 -0.5194315184796043 -36.43320463783214 227 223 237 
121.19213289126925 -0.6516555768710677 -36.36213168431573 96 93 107 
122.03998841096187 0.1396555179168406 -43.823534291643945 199 195 209 
121.2676423073593 -2.8612407460098908 -36.91445054355353 124 107 120 
120.48897355020974 -4.444221216798345 -36.5263691793413 218 216 228 
121.12184428619764 -2.0284750530128126 -36.60091849331853 142 127 134 
122.2130680454084 -2.1879774442612474 -37.86449208799579 123 110 119 
120.8502426651552 -4.1161324733821525 -36.271789257527274 180 180 201 
120.20624727431229 -6.538029455151328 -36.31063097958293 156 147 166 
120.1962280714718 -7.077198433428677 -36.23538994250007 225 224 235 
123.02384760643913 -0.9879241122597864 -39.21556234361541 159 162 169 
120.9971239689771 -1.8932159331774265 -36.408562310130264 232 224 233 
125.23626092973392 -2.153466483290516 -45.92240176169042 95 90 88 
120.64537778173678 -3.928694085445336 -36.414569294637104 108 102 124 
126.65437288353087 -2.544332132623768 -43.167607086626994 208 203 198 
120.82801760677143 -3.9899325449242298 -36.275830103835254 80 81 101 
128.03539185099962 -0.869344320468346 -44.60288421453955 125 110 113 
123.18830994561256 -1.351408833982556 -39.581492101220064 203 201 205 
125.12279355972566 -2.1809087413525354 -41.35753223652743 179 178 183 
124.4526799364658 -2.434633732533154 -40.83342190026957 65 64 69 
125.20398603869668 -2.198167870644367 -41.341939253526 177 176 181 
124.09593726101559 -6.060901876292366 -41.100323636821884 138 131 139 
120.36154714952379 -4.815909079370385 -36.47802004737482 126 119 134 
123.35538913974642 -4.118024514985393 -39.861199306295006 171 163 173 
122.75558099692353 -2.5211916003303365 -38.46808106268641 134 115 121 
122.72169237313007 -2.5018414875911867 -38.62590004376795 134 115 121 
127.06439759787229 -3.571317831074759 -44.15115084222833 135 121 120 
121.02736700142468 -0.19660198589159772 -42.201354684120915 197 193 208 
120.95203774613499 -3.31747796957149 -36.280571957909366 150 151 171 
123.97787999876932 -2.9180123308049875 -40.708488200996 156 155 160 
123.29894292575057 -3.3654530862581185 -39.23732075159401 164 142 145 
123.29717151313406 -3.364637140759546 -39.24411632812308 164 142 145 
120.3102628399668 -6.2145237543747065 -36.37660169199084 102 104 123 
127.30109526337617 -1.4590289598013642 -43.991020549188505 108 100 102 
121.40616362398205 -2.901109983583127 -36.92324868740746 159 139 151 
121.0241967383694 -0.1596935059021236 -42.52039686123719 58 53 75 
120.85844836171438 -3.992681776193125 -36.37550170917315 74 76 95 
125.1789448247614 -3.2590885879142757 -41.29012015974372 166 146 141 
122.25153339587825 -6.116621664117439 -38.655943006198584 185 191 213 
122.6914533925778 -3.316805006285917 -38.72514828265449 105 94 104 
126.26333348798396 -3.217291109991665 -42.55097709388181 134 114 113 
123.6189523018663 -4.699327971263286 -39.883040835960465 69 65 77 
125.14288660282634 -2.3446707570350673 -41.272087530987356 182 181 186 
126.27672238855988 -3.007259762017992 -42.792171731842394 136 115 112 
124.2831369921806 -3.5669682629405512 -40.5203468249222 92 83 88 
122.71987165105828 0.019949355899935295 -44.078011898826716 122 116 139 
127.885281734102 -1.3253125639396828 -44.41762527352745 117 107 108 
121.02645798117521 -5.3184573312878385 -37.406334776993134 149 141 154 
122.67486060698384 -0.8219371871820438 -38.57671893236659 84 86 99 
121.57790808223908 0.010556009429242064 -42.85517216735738 90 56 71 
122.58810653057837 -0.15583873473015553 -44.31472922818699 181 177 193 
124.04078155435431 -5.310177604923112 -40.77429828271619 152 139 145 
122.00445289655494 -2.273332733459152 -37.714188331441946 124 105 111 
125.30319824003631 -3.2566307652340862 -41.682433770896196 153 134 138 
127.26035812269355 -1.9668774030684442 -44.126258793685366 113 98 91 
120.3187094889684 -4.750353468663877 -36.349135845250125 146 141 159 
125.47433747016 -3.1402398174808295 -41.79283335073207 145 128 128 
127.37989390717854 -5.310772770379155 -44.0959919368315 79 75 78 
127.09880242647372 -3.3743495038086335 -44.22170575179084 144 132 131 
123.86791473625247 -2.850805096056372 -39.83772268786076 106 94 97 
127.53603651397985 -4.009734171597172 -44.44232200315942 157 143 137 
121.01047220415036 0.41079711429254884 -42.46977267127565 226 220 231 
122.48227405752202 -2.6841057865143227 -38.41501844350419 141 122 128 
123.94995695337987 -2.8873758862517382 -40.540061303986626 164 163 168 
123.23084645906305 -4.510279708187063 -39.78973001375836 120 118 126 
125.05988404421397 -1.475037649742937 -41.812302899637444 95 93 101 
123.65047818680462 -0.675887510920985 -45.56392032103628 60 57 77 
123.61000580646952 -0.8217764847740865 -39.403030379951815 196 195 203 
120.57337678126207 -4.989494008599042 -36.67372799257953 157 149 163 
126.8393477602743 -5.027351978779749 -43.727468754756266 59 53 55 
123.9192569595175 -1.7749422324084156 -40.03183535545322 126 117 125 
124.66636872472795 -5.388416454915795 -41.630429448715354 141 129 133 
125.16525314189325 -1.455801474273935 -41.39278252117703 210 209 217 
121.06565127013936 -3.2941041056444753 -36.445125066685144 107 107 130 
125.03634637203032 -1.2969509020170995 -38.14916052513642 140 143 152 
120.84639091804807 -3.1380401584037947 -36.310297031783335 161 152 169 
126.34066379301444 -3.6903378321528626 -42.86463568364189 137 120 123 
120.10946215771187 -7.055933300703158 -36.210161554724166 159 153 166 
123.40188338050217 -3.852369516057683 -39.91681699706932 137 132 136 
121.68479076183314 0.5223799067758548 -42.88388197747281 119 122 137 
123.87093051353372 -1.6709391175676873 -40.051602032847875 140 129 138 
120.35793240038703 -6.24442705745278 -36.40841845672895 150 156 179 
124.33724527284134 -1.114028291116393 -41.23623600971335 124 127 136 
120.48818149613706 -4.374971444122746 -36.440728622983556 96 90 112 
121.76744290465551 -1.2805764819750252 -43.97177891279475 145 149 161 
123.24784788994758 -4.256889935557883 -39.17211158170252 144 149 160 
123.45698636504765 -3.0497588911078286 -39.914934983502576 109 96 105 
123.42395606741627 -4.140342816384946 -40.04260064814592 162 156 159 
123.85943957233363 -5.670060512092178 -40.69927974395392 141 127 135 
120.20778236720638 0.7582108942474095 -41.63018268070568 61 67 96 
121.71989474119884 -6.424396998565889 -38.31627838176178 178 186 209 
127.1947536828746 -2.0609167926118293 -44.06994864171033 111 96 99 
127.24769595096312 -4.360134090001267 -43.891757739295315 155 143 139 
122.8617901716817 -1.1445766363582197 -38.81403015064857 112 114 127 
120.82320692254811 0.23319510905123764 -42.182389753125946 48 43 73 
125.807160426095 -3.1988293395684795 -42.313763161249156 153 129 129 
125.98879404378724 -2.08920568393492 -42.12043789973337 98 97 103 
121.97175586369664 -2.3178202592621497 -38.82909441202322 160 141 147 
121.80034290674607 -4.371727065213447 -37.514506624723055 61 64 82 
127.87260708235634 -0.19209194449447775 -45.52148573216894 209 208 221 
121.63894106536812 -5.966877783700941 -38.005774841748675 125 122 146 
120.78297404889713 0.04918212803124722 -41.14551247738456 66 68 94 
122.7106632917248 -0.2775471068725579 -44.109462334375294 41 35 50 
123.61902407406687 -0.7630638676146886 -45.43444305424367 58 58 71 
120.05930548978401 0.6879051802570406 -41.878417169723335 150 157 175 
124.75156280009898 -2.678149997586432 -41.19139830140139 139 119 118 
127.07445073704548 -5.121623379830054 -43.755638901370176 145 137 139 
120.43760962810438 0.6090535864875122 -41.69164283434886 152 155 168 
120.85772664422655 0.03938633132333358 -41.340231309379774 165 162 189 
127.92639724912286 -5.151008884787345 -44.68806281304213 215 215 226 
122.99840361350243 -4.172505057575471 -38.85906417773987 161 165 177 
120.51415036659523 0.6715554981019474 -41.64416733505479 52 51 67 
125.05576698404322 -2.2383245386923827 -39.84182897838562 171 170 175 
123.61617116130157 -2.628464258862061 -39.93828324252938 138 124 122 
123.93288775526197 -3.6281490394240823 -40.06674857745851 108 107 117 
127.21701472011698 -2.5214505664832094 -44.245761922228944 119 105 99 
122.1346244081157 -1.636579176710495 -37.984027741353216 140 143 155 
128.18553255115106 -3.171297024890083 -45.07441502236702 150 132 130 
126.35290633772584 -1.350132628204227 -41.69118042499173 88 87 92 
124.44581025492172 -2.6792932658806166 -40.84250053047323 184 179 184 
121.73201587010584 -4.58214266872408 -37.22638499165177 48 44 68 
122.4020055007953 -3.352943049334604 -38.23259107400469 159 152 166 
120.24863862721476 0.7517373799764901 -41.81026265108916 36 39 70 
122.40436188342998 -3.2684100261584224 -38.355717519386985 106 92 102 
127.16453430450633 -1.133615640676844 -43.60456789709214 137 122 127 
122.81850128494486 -6.240735449365008 -39.175268867294434 185 192 205 
127.542974627414 -2.624924187853752 -44.32777632033239 219 214 216 
126.37568555843337 -0.8874186899725014 -43.075489759687265 180 176 182 
133.09089165532217 -6.5172597858446935 -42.390908905615134 212 214 226 
123.00495670969009 0.43172765135321844 -44.936977164531726 40 41 63 
124.11868483777634 -1.02636253049573 -40.73266847524095 95 98 107 
128.11145495175109 -1.0757954958661924 -44.66841597026231 152 142 146 
122.67396416763793 0.11621482844055953 -45.1598711493219 153 151 175 
123.32074608671553 -0.6029725795000644 -45.6196628490715 149 155 184 
125.97976889857462 -3.0044907492102295 -42.58846102767363 141 117 117 
122.81940920002963 0.004345897461764059 -45.501897347603844 179 185 193 
121.10913665224922 0.13824834626923255 -42.53825698658647 115 115 123 
126.50249043071408 -1.3531383402259862 -42.93495266207604 85 84 89 
124.0300244418264 -2.674731076802126 -40.3511125049238 145 143 148 
127.44373544844224 -1.1090825457387006 -44.37182174284213 130 120 119 
123.00866994945082 -0.7608202710501129 -39.301644924182995 161 160 168 
127.62695688078448 -5.687394690670104 -44.79437687741245 121 110 114 
120.81945025642908 0.0652883128277757 -41.23573811656976 58 56 83 
127.07711152643157 -3.3263553916152926 -44.298040472777444 117 105 103 
125.27482344603358 -0.33160663304816884 -46.87249383316673 199 200 220 
127.5370020013804 -2.53282608568567 -44.40680398535791 201 201 203 
127.76691233045155 -4.957498149010504 -44.40328417756241 208 209 221 
123.0552196908313 -1.3995892315070333 -39.40427203585827 157 159 169 
120.04488404425435 0.5748028675966417 -41.619959121324996 126 135 144 
123.51148951878669 -2.8236810659085143 -39.60458383614868 140 127 138 
125.04607849903418 -1.4854587612385626 -41.118471138650584 77 80 89 
126.88718622224346 -5.326099150264349 -43.969834321045056 108 108 107 
121.17129237837979 0.3310756933172616 -42.93285298878912 175 178 185 
125.52757532538345 -3.1658542566555337 -41.682489158914876 137 121 123 
123.38552182426933 -3.9076544314304567 -39.80849062321356 164 159 164 
123.47691207699181 -2.1979814608922084 -39.58929637373954 204 197 205 
126.45396510520771 -1.581220383413829 -42.76826307979316 173 172 177 
121.8115077819913 0.5861862048466437 -42.74822755200208 116 119 138 
122.40002387943863 0.2998668152716384 -44.438546047674016 185 182 191 
125.52541197970183 -3.198147453471557 -41.76120354731681 104 89 93 
123.02318537509761 -1.4857817719672717 -39.041955779864224 199 202 212 
123.24335384160781 -1.5352003770072422 -39.60282915848551 119 117 129 
126.32721852212924 -0.8217775627834865 -42.63053588739581 163 149 156 
123.69975613622229 -4.209206838026823 -39.82286940788476 98 89 99 
126.38510892454737 -3.7364032772914157 -42.87661960867716 152 136 140 
121.90455761108376 -2.500075880379861 -37.95026953688953 156 137 143 
123.11912728957581 -0.1122315360235937 -45.73505987333692 203 201 214 
123.60314264346371 -0.825012213683503 -39.422523592920115 193 192 202 
127.22047755661255 -3.9009782585046984 -44.2702546215445 130 118 117 
127.22047752992569 -3.900978495393125 -44.27025462533767 130 118 117 
125.45630224391202 -2.4021392626425193 -36.533733030095135 54 55 64 
127.25652180042647 -5.12724992578724 -44.14285255018916 100 93 92 
121.39042728112184 -4.754656716348659 -37.67394035338258 154 147 156 
123.3995643049897 -3.7945889282971166 -39.86576484391112 132 128 132 
127.1931865480249 -5.262295794878042 -44.135034447087946 116 108 105 
123.01337011499494 -4.652875122114674 -38.799319094351205 94 97 109 
124.39356318724171 -6.17305706539633 -41.25482719053033 139 140 140 
123.57373729021076 0.24656081643393835 -45.783165321115355 65 66 86 
123.84758224556094 -5.757278835156626 -40.61285670882326 138 126 135 
123.89386159633315 -5.749000534262677 -40.59959976903988 163 151 157 
125.50010338687085 -2.7966498612161725 -41.80314296735132 141 121 120 
124.01731902452956 -6.329390556568207 -40.87262633506899 163 167 183 
126.39378029091819 -1.4025411711929308 -44.69921757174692 149 143 148 
123.88045596283268 -3.434446881342806 -40.19492860091075 152 135 138 
122.07878583679307 -2.5579824753767735 -38.03790349986631 132 113 119 
120.86902085540972 0.6004000282189441 -42.113041466840684 86 86 116 
124.398738948143 -3.6932292211296662 -40.52194392268061 96 88 100 
122.86591111736259 -0.11613792372797604 -45.45936006789771 211 210 221 
124.3819107595847 -2.0455741989370413 -42.27060439625318 80 79 84 
127.98320689858694 -0.9656439153817056 -44.610191458931226 143 132 136 
127.15964205549496 -2.5162003435849405 -43.8941070396003 95 92 96 
127.61490326856207 -1.6910680502866975 -44.33356052267529 184 175 176 
126.94770310187147 -0.32037524158177844 -45.56369840189834 186 183 191 
120.54629050000692 0.7605595827564322 -41.630457975524344 182 184 203 
120.34340461759979 0.6713474755022184 -41.77845612436815 137 144 159 
120.34232463492442 0.6708995819738774 -41.78890819497222 137 144 159 
123.98616202522163 -6.083838384413504 -40.64478398205056 147 134 144 
122.41971565791714 -0.7866751371733283 -38.3454972239997 83 85 98 
123.428708516863 -3.8075856004757775 -39.93033382507508 172 169 173 
123.42048160382039 -3.477583359673266 -39.659785295456174 124 114 120 
124.37226298178325 -3.174457937048744 -40.85491921491726 169 159 165 
120.85564468291537 0.07416547388047023 -41.301615997864914 174 171 198 
127.43842382154342 -2.080704285938456 -43.80462344135128 136 121 121 
123.45634819861354 -4.663918343501864 -39.92092651189725 145 133 141 
126.57725624870969 -0.9181453143003286 -43.39961762382688 220 219 226 
123.45634819861354 -4.663918343501864 -39.92092651189725 145 133 141 
125.73523839531693 -4.92571873997527 -42.35617632140258 222 222 234 
124.93035554537568 -2.013052561591354 -39.337726443988494 70 68 81 
121.56981500716537 -0.11971591688670724 -42.714252626978734 201 205 211 
121.56460925749859 -0.12457997987799074 -42.7385270619679 201 205 211 
121.02343191569646 0.053418970925744436 -42.069047804876575 42 42 67 
122.82353801254737 -0.12614871794620042 -45.36254667464905 225 223 233 
128.14949018358854 -0.5463568440106372 -44.75625495107715 129 112 118 
123.18267565499438 -6.031304118646423 -39.983140417869166 228 227 234 
125.31162790348166 -2.223763317371373 -41.28659529946377 177 176 184 
128.28300640458738 -3.037958309392006 -45.08358456579139 129 109 110 
126.16809468260747 -2.328535013895324 -42.68177513572564 218 218 218 
124.8824413113801 -0.4045380872908053 -46.02457812418791 47 52 72 
123.64336444708898 -3.5926367173232103 -39.798730701286104 135 122 128 
123.44146288305024 -3.1436271140634977 -39.33050501433086 151 128 135 
126.114205308719 -2.829147737277551 -42.82715807473642 163 142 137 
125.16531710444086 -1.3853466481018968 -41.85233117064759 147 146 152 
122.76539463892756 -5.917748359547611 -39.29342942248728 151 149 154 
124.40471009685012 -4.219519406824933 -40.971708488324055 109 111 123 
128.30918399331372 -3.2019424863182584 -45.12238454535574 144 125 127 
123.55017058438298 -4.084619690218997 -39.903324091001345 137 125 128 
127.16303583941823 -2.862845283612293 -43.808147719673194 129 112 110 
126.88340555758539 -3.241426065788631 -43.56955719251084 135 114 109 
127.36456506196943 -3.0833706590738985 -44.256671462728335 92 76 77 
122.7364934784766 -6.117555298198241 -39.20206905434797 130 132 146 
124.07510009200087 0.11176250884851924 -46.48205915858281 174 176 197 
123.24585307013069 -1.4925443750837277 -39.632711001961624 210 210 221 
128.19513026291727 -3.7870598450369233 -44.81012723881007 149 129 129 
125.3675803055586 -2.750678358114951 -41.909586114577685 137 116 114 
125.3675803055586 -2.750678358114951 -41.909586114577685 137 116 114 
125.11174225672346 -3.0527140136386617 -41.29313533939029 164 143 139 
128.32327347567661 -3.137628530457141 -45.05028073631759 117 97 99 
127.01571441720981 -4.766034550892261 -44.15909142131167 132 119 113 
123.4632132662027 -3.5883585231187043 -39.92650498371903 141 128 137 
125.50395438332741 -2.8405733709677596 -41.79686333064005 161 139 136 
121.70969211599262 0.34121719710431053 -42.94888332431617 44 50 64 
125.04271986873307 -1.298131234120567 -41.35375477497994 159 158 164 
126.32611801896694 -2.951699815693715 -43.05306723415616 162 141 138 
126.95753005567298 -2.60803319583232 -43.62869560589837 210 208 211 
123.90094230787027 -2.9841035323059852 -39.70731594789683 108 93 93 
121.45027761236312 0.46348987263530717 -42.96748814937918 46 41 61 
122.82201233208356 0.3073822688550383 -44.190439711004174 49 50 71 
125.1950776573959 -3.25085747097393 -41.385609748211905 161 141 140 
124.30936752662998 -1.0570030428329555 -41.41186905510706 80 82 95 
129.75229292330343 -1.8321949767956363 -42.54301843089931 215 217 222 
122.85715472641782 -5.915541081706073 -39.456542119141474 148 140 151 
123.5410135260431 -4.528142976485588 -39.95969271145289 148 136 139 
124.01909031568044 -2.922466340677806 -40.33063132233588 154 153 157 
123.29028306728465 -3.6872473298866666 -39.1213642547839 183 187 199 
124.17599474231125 -2.6139278664832637 -40.60920624394775 187 187 189 
125.72960164246265 -2.791871786957052 -42.15493771308212 139 118 115 
122.84549958574563 -0.36456723957749326 -45.36731840388006 57 64 97 
123.4953627026685 -6.169416589116292 -40.62660569612427 214 216 224 
123.92663988287791 -2.8770897283805326 -39.657316744337194 96 82 82 
125.70090583131912 -2.9735930618335944 -42.02873029096908 158 137 134 
124.11961781595454 0.15271632287889725 -46.819179349020686 163 166 186 
127.64801580381443 -1.936353066019887 -44.26237239044727 117 106 103 
124.73419168257193 -0.11967728701772895 -47.32928758446943 87 89 104 
127.61785948367891 -1.729277326419144 -44.336023851173 116 109 110 
120.83289581291453 0.3668193059065188 -42.21712200782788 193 185 209 
123.370383388246 -0.36958103344131277 -45.92309805226475 86 63 89 
123.21126162142922 -0.7372440619858982 -44.850655989564785 163 162 170 
126.60110981280059 -1.1462109823283155 -43.33909387925722 203 202 207 
128.1899404236072 -0.5474418044025517 -44.81143665475709 152 135 141 
128.19866835649555 -0.5467153306093435 -44.80401561436837 152 135 141 
122.0930173653643 -0.32529738682081044 -42.22213017105911 68 65 76 
124.413352853198 -0.00586201085114979 -47.248432235501696 235 237 249 
123.83481703182173 -5.695292672741131 -40.37137435715355 150 136 146 
126.34834633673353 -2.071779201143384 -42.89922536040868 120 120 120 
128.17493213929166 -3.2439193157963038 -44.94592151009071 157 138 140 
127.94730202071797 -3.198967455665276 -44.91241172070629 144 125 129 
124.38575680600555 -4.453853346527036 -40.47454531258016 86 89 96 
122.98559479460492 -0.6181773762368228 -45.02325752572966 183 180 195 
121.95950974039907 -0.061095261336808315 -44.04457767303707 95 93 111 
127.2900766737076 -4.206677069043641 -44.279766750348735 82 72 70 
123.53803080782306 -2.2153915534311635 -39.64159533910386 162 157 164 
126.51568699594145 -3.6640428162355594 -43.38645417184688 157 132 133 
123.86650238396969 0.23686175694328426 -45.73746172185808 104 106 121 
128.42002759384536 -1.0029964718102318 -44.98439564673691 119 103 112 
127.33668874015909 -1.8224421734436944 -43.659079347601775 96 97 89 
125.87243242357718 -2.2700450605490032 -42.74979515352412 202 203 205 
122.44531258561086 -0.3159334779425098 -44.30645114907077 184 183 208 
125.68389430229053 -3.5996205026285715 -42.521714918780134 161 144 142 
123.32608624714621 -0.14474661118313792 -45.95785279941362 128 45 68 
127.97768103111632 -0.1990160090876243 -45.42889216676948 206 207 211 
122.97707842940363 -0.2082730970953206 -45.57147171930443 174 174 189 
126.38788098777495 -0.8940975294528435 -43.32708801094594 145 144 152 
125.6538374178871 -4.574474440751506 -42.34233212021782 229 228 234 
121.86928821556651 0.16517673831449065 -43.7827650678561 196 189 198 
120.38785605841203 -4.33230098852641 -36.36811735029967 120 110 134 
123.06202634602383 -0.6650311184639317 -44.59854920610015 144 140 146 
123.3865657017035 -0.6778753744873625 -45.61521802141834 222 224 243 
125.72030352490862 -3.742603999942376 -42.4815880036749 109 93 98 
125.72030352490862 -3.742603999942376 -42.4815880036749 109 93 98 
126.76497483773616 -2.2826048813479405 -43.50325091327193 195 193 195 
125.60816934957025 -3.7125095738093576 -42.5260222600521 97 83 89 
125.60816934957025 -3.7125095738093576 -42.5260222600521 97 83 89 
123.4444349117692 -0.2359751335198248 -45.98220247643356 112 54 66 
126.8337596701584 -0.09113425181871992 -45.7254193003614 63 65 77 
123.13016208671729 -0.39510792540535133 -45.719049090984896 176 187 213 
126.56530106557884 -0.09692421445455768 -45.906338039334884 53 55 68 
126.01951580460768 -2.7963862978430463 -42.94142157457056 166 147 144 
127.39566191155389 -1.3778158057558658 -44.08226873317601 121 109 111 
126.13255102153916 -1.513424813056015 -42.80352741660382 108 109 114 
127.05378895379557 -2.3801397780111473 -43.83238725574603 28 24 28 
127.90945861877641 -0.24103921955088925 -45.42819661915288 170 172 172 
125.66090457740863 -2.715721331611573 -41.87583369301193 174 146 150 
127.21594835991165 -2.86977619928844 -44.131619063360446 157 139 137 
127.29916836179987 -1.4690915518662575 -44.285887677500625 123 108 108 
126.81327381521324 -1.2309821128617837 -43.43892423365042 150 149 152 
125.6017568166253 -3.1864850659842436 -42.28587033712212 113 100 106 
126.21748859940155 -3.154185444567591 -42.62009963005225 158 137 134 
123.44410086458448 -0.18098467755773995 -45.88815310952019 138 39 58 
127.27829908187167 -2.3311197003005186 -44.103516317607955 161 143 139 
127.07980530898733 -2.6355481177668008 -44.221728793657675 153 138 141 
125.64177396665208 -3.0684328866065496 -41.914576052356495 162 141 139 
128.1572777054734 -3.481081148934532 -44.99856951261372 128 109 111 
126.57052090794237 -2.952189818168894 -43.20639488748482 151 130 127 
126.47839722461345 -2.8607299618713267 -43.224700760162904 138 118 118 
127.21695472333435 -3.260282079528267 -44.206046132042445 145 130 133 
125.54088859639546 -3.529551018843266 -42.18657046133325 212 211 222 
125.69168682975322 -2.029522730198247 -42.27758858945988 104 103 108 
122.53713466535667 0.03513389548672796 -44.42794205827015 159 155 170 
126.55015238158028 -3.038279708628881 -43.210049634525646 143 122 119 
125.6692349273419 -3.9352395174666297 -42.351611467139534 206 203 205 
127.96061757540522 -1.2950132397001581 -44.684116107842215 127 109 117 
127.45283072177936 -2.3417789948428043 -44.29288440852376 98 85 85 
124.201765992367 0.13063231277599163 -46.84317947623584 31 35 47 
127.12400502375155 -3.2492777181466286 -44.203403487599495 115 109 109 
124.37594754322738 0.1351194747952782 -47.21695595264369 91 95 107 
127.68199226295178 -2.9907349729546917 -44.52802586432843 137 117 120 
121.8983329952131 0.07515360134475402 -43.984012440989034 212 209 221 
125.06025946112642 -5.503332440676026 -41.82934152906066 173 158 163 
122.67526444485455 0.0614852289872454 -45.09156948195999 145 141 158 
127.63056803574538 -2.904984616342383 -44.48133130856067 164 153 154 
124.67629814738166 -0.08589446427141878 -47.2539737188157 126 128 140 
124.02104799541672 0.05557044780978848 -46.882218380374994 213 216 232 
124.76909783061721 0.11786524570356782 -47.35939601652608 46 48 62 
124.22895487600888 -0.059760017515538166 -47.00499994541554 187 188 209 
124.07582322849481 0.21794871175486952 -46.482145281483724 153 154 175 
124.25101287432204 -0.06341795899537961 -47.044729106759846 178 179 199 
127.48142644786299 -0.12980394067946976 -46.22307789583297 147 149 151 
124.873674913699 -0.08856029102096397 -47.12196443131102 187 188 205 
124.10252377819401 -0.013875189165094337 -46.96823856319314 141 143 163 
124.6066900400566 -2.113124866889673 -40.51293926588156 170 169 177 
125.6395877083962 -2.5870907917607306 -36.71732356142451 86 85 90 
122.74340875146105 -2.227594488657159 -39.51310862661256 134 116 120 
