12.653347539666935 0.018205345750560653 159.79167107828223 41 42 63 
22.966635884922116 -3.650330319235896 152.7443669228959 173 174 187 
22.288835059284402 -6.429109089061242 152.98746598582417 172 159 170 
12.327219714488471 -3.5991815723705134 165.66400224420397 156 153 171 
11.791897084212346 -3.475883597084984 166.31266315396073 93 81 97 
20.947836862376597 -2.3195823374042726 155.43675239117294 157 158 162 
15.439542037868993 -3.4081283307693013 161.84983279449483 89 77 84 
22.6309902932207 -5.318809528583321 153.32629560724195 158 146 159 
13.209679252363575 -0.08190275193758634 158.25386417303318 71 55 81 
20.632136380983233 -6.0443558467511505 155.82720723958585 205 204 214 
22.45142786506886 -2.4690019041281683 153.73968784724562 207 198 201 
20.94278843415176 -3.389471244103835 155.69403099499795 182 182 184 
20.877268964696924 -2.3149394493459194 155.84745151842276 166 166 168 
16.222292551991856 -3.501788376549258 161.11003754817338 144 123 119 
18.213686957055216 -5.453676326413213 158.48766867075184 108 101 99 
14.824505783656718 -1.7681688410340954 162.5686907799685 132 116 118 
19.89043085871318 -2.1061318087063343 156.33613485496357 137 137 142 
20.598449621160526 -4.7681521286571265 155.63384508739364 141 136 144 
14.937489696462396 -3.0235267356878763 162.11849108140075 145 144 149 
20.910726401391802 -4.83363797942968 155.45707871648852 118 110 111 
16.505889934031316 -1.7099607827659704 160.8491170820823 66 67 76 
10.616555073972787 0.27740576632164915 160.9263984476058 199 199 223 
17.864981536791873 -1.877543729396001 159.96554495774552 153 152 157 
14.299366826859497 -4.754500374731038 162.7908219626084 148 138 146 
12.162689346062777 -0.0187306333207391 159.86566008579507 220 219 227 
15.908274890372915 -1.8531261437076696 160.83023820474602 110 110 118 
14.720935373701248 -0.8392174218599782 157.0218694518705 148 150 165 
21.17612305523451 -5.22102942084463 155.2656253521322 211 214 217 
15.954901615231014 -5.8180755344857324 160.724828194991 150 138 142 
24.59845571528208 -3.225301855366828 179.51627283570502 122 125 134 
15.847562989810257 -1.8451032733548556 160.8421259297715 96 96 106 
17.68456515791399 -2.861850595904622 159.43946277629976 98 91 87 
18.236533171176273 -2.3237923364923327 158.3487787452993 162 148 139 
16.78843891827485 -2.766307273654469 163.74114262912798 61 60 65 
20.894326020670164 -5.023848920468517 155.62230111043567 170 174 185 
17.27555074513074 -4.104457357457581 159.6837223383717 154 138 141 
12.379513923640495 -0.0035418635684898447 159.7130084995181 232 224 239 
22.544458485109118 -5.120523930494161 153.0743375955507 171 160 168 
22.865015259760018 -2.8383619674418323 152.3044192083516 164 163 171 
15.398726315498962 -0.4355176816028896 157.41242986791096 124 125 146 
15.976955101325153 -1.5477338737760333 161.13858537542632 134 137 144 
17.11609308324626 -0.7106062633170573 151.89441139305657 81 88 103 
11.678405605472534 -0.1470053309689514 161.1506822666586 44 51 79 
12.064276622965583 -0.2560103049778919 160.1085433747622 126 126 132 
22.657797840081468 -5.950018216610694 152.83057544681688 46 48 70 
20.525258956674286 -5.78148306909719 155.94073188153425 211 213 225 
16.861594406064494 -5.092612135186728 160.15106423656675 145 145 153 
22.207278791417977 -6.249319506323403 151.8936455562509 229 233 243 
22.498642318592193 -5.482002550118779 153.0434517854442 176 157 163 
22.627090560756642 -5.167822430860417 153.43978258557036 126 123 132 
22.641312989229764 -5.231827015098894 153.40690317809492 119 113 120 
22.517280206608724 -5.586768656137686 153.0200937213837 144 117 116 
21.980503788476586 -5.875694285816957 153.75660011475836 105 104 112 
22.775589996555787 -2.3554010037266098 153.42768113020648 169 155 165 
20.679205069938448 -4.6068062279040065 155.63248025952242 145 130 132 
18.07068071656603 -2.7084585710555173 158.8140127162657 174 173 174 
13.407704646356725 -2.689776239907538 164.3231949334257 154 136 137 
18.2603771413903 -3.211382498372945 158.3494058765611 139 128 123 
14.630581178227878 -3.424394547087286 162.6224954801338 158 146 148 
16.244092929279347 -3.645498550304625 160.92803235298783 153 134 138 
11.190476633806753 -6.634480075717645 166.2701792452418 157 153 173 
16.132551301835747 -3.0753252510924964 161.17778275616482 140 120 119 
13.247594038017809 -4.626038974076309 164.39995434356263 85 90 110 
18.10703346380264 -3.235467220268676 158.53734460239394 157 142 142 
12.520791110855418 -2.5331494178742266 165.107837711963 150 130 137 
12.0159531528084 -1.1534087702716531 166.1801838025798 150 142 154 
12.00510563556638 -2.2045490083260972 166.2584137608361 74 73 88 
12.644848023213472 -3.494288788174253 165.2067478101778 154 135 146 
24.173542742230218 -4.126247875728104 153.16716923438338 187 173 191 
22.701150033585595 -5.089057545748421 152.96234477374387 170 157 167 
16.758042768543834 -3.804536089921187 160.43846539812336 97 82 86 
22.235374718030222 -5.940798693868951 153.7576380751313 116 115 123 
22.721849045990417 -3.252842291104492 152.86238775567102 149 138 146 
22.64515154485363 -5.85536205758075 152.8465824353606 134 136 157 
22.054570905489182 -6.398881399012168 151.93456123362444 90 73 83 
22.74186494415102 -5.162430647368685 152.9936634862766 119 108 117 
22.979823121888977 -4.7091191719762975 153.52968756950577 155 143 152 
20.422925991547746 -2.400737978065822 156.38931757632514 180 181 185 
21.892876914185706 -2.3926853552133607 154.08722483076943 151 138 136 
18.500659512061617 -1.7807055313581235 158.395432719222 164 150 148 
22.657152943990887 -4.0633928970066275 153.13297355949535 147 136 146 
20.044185602520944 -4.6719451072882805 156.42552724603738 99 92 92 
21.826190625602244 -3.1279958063367057 154.00932705488987 175 160 165 
22.3188486218234 -6.498382559787061 153.15420633808975 219 209 221 
12.478624095060281 -3.540822648718094 165.41871913609828 104 90 104 
21.40432741211435 -6.1997372340009544 154.4027483945792 70 64 67 
21.58843521834912 -4.347766808881124 154.26444837432172 121 105 111 
21.848701393528728 -2.805757474376626 154.1533393480023 159 146 151 
21.73164693286375 -3.6997536632131216 154.3282351951155 243 238 240 
21.71392542855626 -3.8094572078926108 154.32203869974686 153 138 143 
21.79960027769799 -3.540060771299719 154.35806825792744 240 236 237 
21.964643078807285 -6.40855646269239 151.7831862033356 187 170 182 
12.475574428165235 -3.5349335391812855 165.39068003741096 104 90 104 
22.946778223854732 -2.3612546073771816 152.91742625314103 134 122 126 
21.594470019281665 -6.408464263982923 154.37333507380237 191 185 187 
22.76122805049244 -3.4131587233514304 153.12249682377174 139 129 129 
21.66683418736273 -5.988903988988415 154.63785044031974 129 130 132 
21.479280684571396 -6.398791209686432 154.33237545860283 174 168 170 
22.542256642250138 -4.144777800582482 153.62379835207736 228 228 230 
11.838571771979892 -4.2560557913632735 166.34547308756913 149 151 171 
21.711256063238014 -5.866956835421512 154.41577955114394 159 154 155 
22.007730461744938 -6.375083078225951 153.86405319262317 125 119 121 
22.323856820807382 -5.166913527468454 153.87040202629817 56 54 66 
12.843162372968695 -2.5256190068855626 165.12591788646697 118 103 112 
22.756494901356014 -3.543831541258621 152.88587062624967 206 198 198 
17.696124017198095 -2.6011564109814596 159.39511299111854 124 124 127 
12.674133245260592 -1.2482265338531568 165.5923852736778 135 133 147 
21.837881066843202 -3.1279422546641316 154.01711439597727 175 160 165 
22.921758059283835 -2.322850336999658 153.33643097920262 179 168 176 
21.434125659220726 -6.285719557827971 154.3314236575023 110 104 108 
22.88038560124554 -2.529723967533057 153.32897211624035 226 221 224 
22.899299852487097 -2.3218305876382344 153.405132068628 181 169 178 
22.297319552463435 -5.2182520309660045 151.6482664166697 86 85 99 
11.377912596662947 -5.677834604227048 166.16897563799523 154 145 165 
13.202613799241924 -2.821770041817942 164.57227161174643 166 147 153 
22.214194452205007 -5.883384638665133 151.63621398243345 58 57 71 
20.358452822517282 -5.554342900522803 156.12065666006694 209 213 224 
16.998875431419556 -2.83490127939058 160.02773019389397 201 197 202 
14.770502709925815 -0.8305901356192744 147.26412482280537 100 48 79 
14.849950703531892 -0.8500195623387825 147.1374058481166 217 164 167 
15.396326611798848 -0.657558760699565 146.6874548337875 123 125 140 
13.759255428905298 -2.4072281217855798 164.36087546262917 144 148 156 
14.755364035699493 -0.8001876776333237 147.13568424922454 91 38 59 
22.512386581566417 -5.366302702842461 153.1048174406223 151 139 145 
22.15837446275882 -5.078529806094368 151.0953970231113 186 170 185 
22.624463679645622 -4.846346866291405 153.02085024043924 171 152 156 
22.887918198424856 -2.3548029279961007 153.3618993478516 166 156 167 
22.637492154479478 -3.7314161029753787 152.99349716721923 181 166 175 
21.05201429008867 -6.073956035855402 155.27532535121208 207 208 213 
22.69422966179404 -5.234845346801226 152.92953336671778 93 92 102 
22.59461540687243 -4.76159124555995 153.0181758251652 142 126 133 
21.653360715015175 -4.662615762425173 154.05397165802802 170 160 159 
21.925275572553215 -2.2762534316824636 154.21604249669596 158 145 150 
22.80984748249568 -2.6862934190093286 152.86230378988893 124 112 115 
21.24721373392309 -6.0147126477402715 154.99533400765262 200 200 208 
21.657504818354816 -5.762440956597688 154.5981285384965 222 226 230 
21.045987462454676 -4.866528252820174 154.68105734664633 128 128 136 
21.50184784458215 -5.848871048513059 154.70005183484298 155 157 156 
21.6181730908662 -4.889271172971032 154.3449709988207 108 98 101 
21.26809463332803 -4.905120977852869 154.51738568291435 170 171 177 
22.907661160021036 -2.5122473852994736 153.29364128223966 159 153 155 
20.99566935413009 -3.6675198257513646 154.19958377582077 176 161 166 
21.641505684183038 -4.933559413081306 154.4950853975747 115 111 113 
22.88364525332047 -2.4161360399510685 153.30029352443785 169 166 167 
21.444040110809734 -4.336878092855134 154.73572640786963 111 98 98 
21.195802279550943 -3.2017476259654005 155.13603981919783 178 183 186 
21.043093298086724 -4.584763037939681 154.88677885886813 217 215 213 
21.162471026766863 -4.691058762517859 154.67002753756685 136 139 144 
21.36290075576389 -3.766281638434624 155.03794916506794 139 120 124 
21.40399172363763 -3.215211463288991 155.07538335233204 220 221 225 
22.297972891629737 -4.507933999824323 153.79554624796853 204 198 206 
21.82143612114922 -3.2826963488098793 154.12142594158288 147 137 138 
21.92165013730774 -2.2215330860099742 153.99013376159587 151 135 139 
21.018529764769458 -4.797211203284736 154.8685775111253 122 121 119 
6.226596876486378 0.3640035752765092 162.2389622572318 112 96 106 
13.086523787377526 -6.200638364848923 164.15193483383868 153 145 153 
21.578866455258353 -5.974542013527735 154.66774470282604 158 164 176 
22.27929141498316 -5.227828455802389 151.53767955425133 157 161 178 
20.999177616011064 -4.851006767857877 154.81096632855295 136 136 133 
21.54492123973204 -5.422829707108573 155.0243143810883 213 216 223 
21.44404112915783 -4.336878487457099 154.73572888587623 108 96 97 
21.117343316196777 -3.4801546972914577 154.65390675735094 219 217 220 
21.005599832221968 -5.488406585607649 155.35046441699828 220 224 233 
21.62470341283031 -4.8701707377551315 154.2163016105016 172 160 158 
22.673253697922576 -4.521399240246146 153.1092981293321 167 152 147 
20.931456744987432 -4.800059884020413 155.30956796587583 113 107 107 
21.80757957550042 -3.4711544906651914 154.33829196029222 225 222 223 
21.807831031104275 -3.3070564467071715 154.43588059172595 185 185 187 
21.89819410644443 -2.320495350458304 153.97915963406922 149 137 139 
21.384220370224547 -4.269555931382623 155.02023280820612 139 123 127 
21.30452812955051 -3.2583675075854677 155.05378652472552 172 172 174 
21.00675953564367 -4.533425548952239 154.91233342855043 213 203 203 
17.30480313651278 -6.730150118690661 158.93265466988353 69 65 76 
22.725619142242714 -5.272772887201734 152.42446224508967 93 89 103 
21.710608061676307 -4.060249027520218 154.23244156310287 158 153 153 
8.52285466527011 0.7260070060084551 153.94372034677966 218 221 237 
13.659328064708514 -1.496077766889683 164.27470119055596 105 107 119 
21.412202676285972 -6.3934691445382335 154.31874724889346 228 222 224 
21.412700531149586 -6.393220545355536 154.3188436649061 228 222 224 
21.678938435328853 -3.910894362972039 154.33632745641572 137 121 125 
21.31190423254938 -4.116848762816763 154.58549698709754 151 133 131 
21.349038295665437 -3.4452208874816592 155.17905277250478 189 188 189 
15.319121779867718 -0.6027395234920903 146.71515938587157 18 19 40 
21.436484384006853 -3.763299662879224 154.8788039834573 145 131 136 
22.640196584134387 -4.870276875740615 153.3487824573501 136 134 137 
17.90037380922008 -5.774771531786533 158.56554508307332 168 163 169 
21.27293710956663 -4.907486647493149 154.5216448271369 170 171 177 
22.358542187804503 -5.741528533004799 153.55942965928202 196 195 191 
21.13593546574154 -2.607354420894985 155.7680757648699 179 180 184 
21.025211824217124 -4.909914354724324 154.93837160625162 213 211 211 
20.95601492582183 -4.7637676365979225 154.96827304981403 121 112 113 
21.351423932034283 -5.788303936860734 154.852740114156 94 95 107 
21.643026170099343 -6.213354255246019 153.90968740196516 170 164 166 
21.881136212723685 -2.4018794489813873 154.18758653940614 148 145 148 
22.507313916330176 -6.038943007815172 152.2482996347065 90 89 104 
20.770107939594386 -3.461797493640719 155.77807514202215 215 215 217 
20.876683096326623 -2.5174856270998887 155.72321805567555 217 221 224 
20.830200731308025 -3.0304296952247314 155.74319578156246 218 219 222 
20.779837806879975 -3.3583685414325988 155.73781550542924 228 228 230 
17.91816655291 -5.73778406072269 158.49130461067796 166 155 163 
21.92124513996548 -2.1919990686487076 154.2738496817003 133 121 130 
22.8406515775957 -3.833063756661975 152.94447430541817 169 157 158 
22.456512559450978 -6.171209502075662 153.13642205555823 69 63 73 
20.926362426964374 -2.3199934195633714 155.59199196640802 159 159 161 
22.562168370375403 -4.751501025523968 152.99101357591093 137 122 118 
11.35600888578957 -5.019647381736991 166.26864671712357 126 120 135 
11.241260092592123 -5.205232574932333 166.32745302181243 139 132 146 
20.787145892077547 -3.191868672295853 155.67368628792175 179 179 181 
22.566866707525257 -5.938341438562588 152.8152607384287 88 90 108 
21.643710679405725 -5.977435008423501 154.61432753228968 126 126 139 
21.564084976109793 -6.1379809299437955 154.5485916375871 189 187 198 
22.74026517710221 -4.364932513481806 153.40248318781934 152 140 141 
21.6185112423594 -4.888124325604284 154.3428771015758 96 89 92 
21.14891640449404 -4.6210932530825986 154.73059692507596 124 127 130 
22.488563189240896 -2.3108984607395033 153.7148986313012 129 119 122 
23.00392814368221 -6.4600941513113295 152.9801475484075 155 157 172 
22.494504506141972 -5.627622211194281 153.0734522105555 159 138 142 
13.769933902706146 -2.310477696881044 163.76614413618555 149 158 173 
14.864196813660776 -0.6028309134634033 147.14792374023733 217 216 222 
15.591388067082299 -0.9146697475800041 148.90750766699796 75 33 59 
21.001120112778374 -4.968059861730538 155.44506212643716 158 156 158 
15.817275707445479 -0.5786804871635258 146.56003169930776 159 161 174 
20.81654967915332 -2.5224457428976383 155.8786762844333 181 185 188 
21.691518662361325 -4.146712784228496 154.13362199344908 138 123 124 
14.004856906703214 -0.7963796787814279 157.0487953435837 139 153 181 
20.876545243100185 -2.5213710259482847 155.72316260474037 219 223 226 
17.356213480245177 -1.7663197606432701 160.72502122491886 94 93 98 
15.371972073667182 -0.6292296241953945 146.7005885589738 13 15 36 
20.3318154474409 -4.74068995397201 156.18682170145468 137 120 125 
14.003304471477353 -5.32754876537382 163.01688815874047 151 141 142 
8.77368313943725 -3.0259947112719674 171.90746596654031 98 96 106 
21.73380402801695 -4.469832834583356 154.0845945204189 170 155 158 
18.0685302786579 -4.946279532516616 158.3468779295178 148 133 130 
21.879479895292015 -5.4935848790761295 150.75987160309145 163 166 175 
18.17895695530178 -4.136342147979454 158.32829689339584 109 94 97 
20.53523755351367 -5.963693824443114 156.15222899883966 210 213 220 
22.433939839260848 -3.8748244229590534 153.79709948027866 208 208 210 
21.137658970500254 -4.139699696579867 155.16336782364084 130 115 120 
8.691090589843341 -3.84630531772014 172.10777198375092 195 189 208 
21.37518102754796 -3.479935778839148 155.10523946764985 224 224 226 
21.34913653415381 -4.971862576773797 154.4308756627383 169 172 179 
21.068410419327634 -6.022314953546882 155.38654503013302 206 213 219 
18.4021053078571 -2.233270226165974 158.33218379223567 124 108 118 
18.39183935311102 -2.2311988536969585 158.29854691895156 124 108 118 
18.358136866631487 -3.032866526112552 158.31834951448187 120 105 101 
22.62540274754337 -4.620728479463338 153.01199609760783 146 128 132 
21.34665807671756 -3.4866057415751195 155.1394822393461 193 193 195 
16.564126935244285 -1.182133318548131 156.2990017117129 184 182 199 
12.466338997662298 -2.547262427342877 165.54606457285172 133 113 119 
21.14085409300857 -4.561330156482452 154.58866890307436 231 224 230 
18.264139797764365 -2.9656503555071607 158.3414713545834 129 114 112 
13.959840758390165 -2.0095496205222956 163.8730542745542 114 117 126 
13.030103106232705 0.19379823524279027 159.1208326368358 35 36 57 
19.37624880528348 -5.850140287777461 157.2971125607235 204 210 220 
14.007659640749605 -1.8570016267628322 163.23707370255687 215 215 225 
12.787164941167537 -3.5328148900200134 165.01799296090644 150 135 146 
11.592165379301758 -2.7700672634175945 166.22097837739992 113 100 115 
22.582206019547947 -5.66511133397521 153.52127942739466 166 165 161 
21.522672060824867 -5.760079837004162 154.82409577674895 221 222 228 
21.330729714506795 -4.691082137178527 154.56719790461935 223 221 228 
22.752403008428743 -3.616504309682659 152.93368877954165 142 132 131 
22.885905827142338 -2.5281805365599332 153.33851545409019 226 221 224 
22.541758288504536 -5.065174219889617 153.00300299581366 117 103 108 
21.845297903526514 -3.236118221665288 154.3499607065911 225 224 224 
22.522440728975393 -5.465665900576237 153.50599310627356 164 163 179 
22.284180119486592 -6.318364455371567 151.68460935944944 192 191 205 
21.398789584659347 -3.5210324348645052 155.102895883702 235 236 235 
20.9293965681713 -4.990535538265527 155.5906122313707 177 176 181 
12.423788570578388 -4.070917774700256 165.6121814783399 109 111 137 
12.423152612439418 -4.078684674628372 165.61530673754487 109 111 137 
12.006731263190918 -6.026904304003866 165.30344639114548 140 131 143 
14.30575769042672 -3.13663642913447 163.15824283917212 140 116 120 
12.38993518651321 -0.20987632236223996 159.79310077973113 156 141 152 
21.41999976906169 -5.716725960129266 154.82532529364087 171 169 182 
21.64280763723019 -6.021603691212588 154.5398308133153 193 193 198 
13.76821246619527 -3.6344747627562315 163.91733250930181 130 110 115 
19.44075134623335 -5.588321356200423 157.0583499422082 208 210 224 
22.591005048669537 -5.975606592610674 152.7980346109531 96 96 112 
21.936011749898796 -5.2315047026703745 153.7254143579718 174 167 177 
22.93281553334011 -2.3927449246376775 152.93786010284376 130 110 121 
22.61948869609926 -5.698715156300839 153.4194088128336 141 130 132 
21.93238343609358 -3.0579931082514706 153.86236720287366 82 74 74 
22.584316050912836 -5.0342594916520405 153.57467449600048 193 191 202 
21.822873702922976 -2.3796703032525257 155.6144734763164 218 222 225 
21.067431122156165 -4.751909768739744 154.72010276411444 205 210 213 
24.24673678507276 -4.152927628878841 153.12610216210777 65 66 64 
16.859211972145438 -5.047259424664124 160.11780073716693 144 144 152 
24.056830724552658 -4.106869263821181 153.15220578962712 70 65 77 
22.09219194189547 -5.119054562819788 151.04169133714407 96 99 114 
22.567270856438512 -5.076006780909322 153.02357632998388 132 120 124 
14.889870223277812 -0.8359463244079985 147.7413045202078 75 36 61 
20.708932787349987 -5.828407281774213 155.85440684108661 214 216 229 
22.93942374100208 -2.4112673300788656 152.92051493429545 148 133 138 
14.373289795602258 -4.464025788545117 162.83792378982855 142 134 133 
20.940011654228222 -5.660613885334145 155.4931210322848 208 214 226 
20.44554119241923 -4.038833512453547 156.13182991901132 120 105 108 
20.69419722366245 -4.880694653726361 155.92646117308954 159 159 162 
21.67716245501849 -3.890119483619026 154.08080091090716 158 146 151 
16.473808848828508 -5.225470441808001 160.95390242082436 196 198 197 
14.286903982401842 -4.799548202977457 162.83055054147385 163 155 163 
14.576373183549492 -3.412063712510281 162.6825809345417 144 132 134 
21.458115712813054 -5.864835545277404 154.87753633257392 166 168 170 
14.522306045044392 -2.4704667121132067 162.66875107418724 137 122 127 
11.338432619185085 -4.72238599479052 166.16304902433 120 110 134 
14.790886763706528 -0.7711201995664458 146.89766968402463 90 59 67 
21.996816263205467 -3.5430435629246038 155.4343512345866 195 195 195 
12.58576963962869 -3.703798160175442 165.3379560901703 97 97 116 
15.672353042133885 -0.9417595813885593 148.76254822297687 207 145 165 
18.215977776626207 -3.864376576609211 158.43715271471814 147 131 133 
21.69540256229794 -5.286633030017146 153.9244474242233 99 93 95 
21.433363819870355 -4.7556490113525225 154.82561716446804 218 218 221 
21.701727439102726 -3.9082073919414406 154.15578822768998 172 157 162 
14.733534996913729 -1.311335613721702 162.62588402687862 156 141 142 
15.798932869413134 -1.7541440079112762 161.09497434814878 208 211 220 
13.876161667318037 -1.8634211230679425 163.69370630668675 212 214 226 
20.791041874772567 -4.7547852635040515 149.46286870916862 177 179 192 
14.719535579898416 -1.3076876291077426 162.60031207870108 156 141 142 
21.57142893468048 -5.059212654435294 149.25455059299898 133 130 144 
14.378629281040265 -3.3585392378052035 163.07528744504776 117 104 119 
21.95016462045545 -5.082126703610114 150.51551560348824 112 110 121 
13.174516907355489 -3.5545258018956165 164.54023905581133 154 135 143 
22.675607224525514 -4.916907745590585 152.96713416933414 140 124 121 
14.032828627117105 -4.824095939431514 163.67277903223828 161 164 177 
22.151018413821415 -2.5676858869456467 155.12137119731506 204 208 211 
7.237741634989808 -3.3029466368311926 167.4970277134379 92 93 114 
15.60366899891577 -0.7834502551156417 148.84106641146758 176 183 201 
20.03887908026419 -4.686921135820469 156.5138440840687 99 92 95 
20.564408610974738 -4.56230357690741 155.86214380922527 128 113 115 
22.2646707119608 -6.050640916433636 151.74890702936088 101 101 114 
20.866007712737222 -3.1950146674554176 155.51883214404867 143 143 145 
20.18780191196164 -1.9609342728722665 156.38270252249103 81 74 82 
12.34372455012052 -1.267363352398741 150.0232350126726 170 170 170 
22.459537519644716 -2.3358206456680337 153.7374769049207 188 182 183 
20.187632663389206 -1.8070207305212753 156.35643597169042 78 70 78 
22.566811743198173 -5.169361998673052 153.03835556513053 133 110 114 
21.91683314561803 -2.3153664925701385 154.38978310339746 229 226 232 
20.873963562188926 -3.374305154588482 155.63088730335804 182 180 181 
18.076721898214164 -4.660998235310473 158.4265993521937 158 143 141 
21.511496802936684 -6.1775473778241246 154.2018760021631 137 126 132 
21.660146619146563 -5.938627114176722 154.5598906616906 203 203 211 
21.070417926820365 -4.890366594989181 154.68518716354384 100 103 110 
22.192493220313203 -6.216347587563642 151.72164535601198 104 102 113 
11.896880830495027 -2.309012991491967 166.22427917399943 200 187 193 
20.751415218863205 -2.3505419467335322 155.75053845090642 200 203 210 
21.104511462935136 -4.9534599854845744 154.71920753441185 204 207 214 
20.027735310580802 -5.566987105429891 156.42869336124076 74 76 88 
21.306745689438507 -4.9699363199660525 154.82242253970819 204 206 217 
16.58299129024418 -1.014390457155458 152.3271836977625 36 29 56 
22.279527138735578 -2.5236254118380006 151.0256755008562 118 117 125 
22.321375385397772 -2.525403281160047 151.27424960850607 92 93 102 
16.55602418258444 -0.9227304272746184 152.5158466785922 195 200 209 
16.52204249342158 -0.8801233849237411 152.3070820788235 62 63 88 
17.12106388830657 -0.6562691911528278 151.8255141177964 132 134 155 
21.214939182915835 -5.865190269722758 155.150278248587 194 196 208 
21.99122997661987 -2.7478615829360664 153.78858337901994 162 150 154 
16.827887938833424 -0.5663741527063848 153.07513173724314 24 27 45 
16.745829828326837 -0.6087722750917244 152.85895062927193 130 123 151 
16.54489266127759 -0.8092001332029959 152.21718792958256 26 20 48 
16.997930286109195 -0.6173219145082829 151.85879416912053 123 125 146 
17.39998047614098 -0.949651427953311 152.25971545410292 47 49 80 
16.512657811851525 -0.9549961526780275 152.17463634847795 75 44 67 
17.097498863945347 -0.7377806667829325 151.85956875873353 22 24 45 
17.197323380483052 -0.4507306481576392 151.84264889389289 150 152 173 
17.206731234263064 -0.4886497805466099 151.81866842322933 55 57 78 
15.949738422312535 -3.803229934051375 161.28716385976878 157 138 140 
16.576752681877004 -0.8989293423365405 152.3003124950712 69 65 86 
16.567931117430625 -0.8991057172397674 152.28768570968322 69 65 86 
21.199152148412658 -4.676075978821645 154.68757748578912 111 113 125 
21.186308744957604 -4.877060481203546 154.6926243026548 141 143 155 
17.13034951274885 -0.8279943608486415 151.90038409276673 59 61 82 
21.441403724952856 -5.006131545987936 154.34370201681676 213 216 223 
16.57539275684481 -0.9253314076825343 152.34224000619682 179 170 187 
22.575415745466668 -5.297523252251384 153.37214836613163 94 87 100 
21.542720953227466 -4.84867196136285 154.45338017233223 64 56 67 
17.09260635329365 -0.5359610584320056 151.8440520495722 175 177 198 
21.804551159010586 -3.5987890295996503 154.33344745910847 227 220 220 
21.434240742737472 -5.893810554755249 154.65343418709966 191 194 203 
22.395401262926317 -6.452843075057483 153.06587737384766 168 158 168 
22.896888705605548 -2.900430671937267 153.11171268074068 157 141 144 
20.5873951749505 -5.6664867799907634 155.90287819448412 167 169 181 
17.090315932041268 -0.5609253582169162 151.8471974684062 49 50 71 
22.152705061566806 -3.555238270573557 150.4276439623126 194 186 196 
23.65732993341131 -4.626566813582137 163.17842470794216 233 222 226 
22.09614827550827 -2.562287779540731 155.18673336560062 205 209 212 
15.088511082508639 -0.45152362055129647 146.81965324320925 182 184 196 
15.6949140520506 -0.857230735413623 149.16653091759392 193 195 207 
22.467025567141945 -6.475531576783288 152.98832203457962 100 85 93 
15.571850157271843 -0.4573125963766522 146.63953811558122 235 238 248 
14.744450930150546 -0.15232565428777933 147.64702254274906 147 148 170 
15.013181690804736 -0.17266226064168766 147.75915496557033 82 82 106 
15.839104002228876 -0.749807981544895 149.4382948282635 81 82 102 
15.65336207518715 -0.8124419336441551 148.80839398694874 89 92 115 
21.782043861333342 -3.980729131570566 153.9783900351237 142 137 138 
15.305118453450905 -0.6046925850151148 146.7069923947359 18 19 39 
15.357879279693766 -0.6309113501515424 146.69278798152328 25 26 46 
15.537887073572946 -0.46942312892828464 146.66314408700583 32 34 47 
15.766928826804541 -0.9153656448236076 149.36290998435246 17 18 44 
14.897968349077862 -0.5463999414203053 147.03436467886252 192 192 200 
14.766242830472542 -0.4114356254968987 147.05842808149364 39 41 56 
15.607387530158224 -0.8844664665873978 148.95843270793887 201 198 211 
15.602233862539821 -0.7834732656070971 148.83886791705578 176 183 201 
12.219674356510769 -3.2523661573720375 165.70377313653825 124 107 120 
15.379842085469784 -0.5413307895794097 146.6810543975787 159 160 179 
14.791344953025847 -0.41993520857212663 147.03416656936247 139 141 156 
15.739894181974813 -0.46363196080010827 146.61214264314873 179 181 196 
15.534924797330458 -0.39684181874247404 146.64085840779788 240 243 253 
15.492563622077029 -0.3516836134172239 146.65657020083472 233 235 247 
15.583152307419185 -0.41917484580315945 146.62863379601959 64 66 79 
15.239430406913906 -0.4751524174067463 146.69562510703022 158 159 179 
15.471687362174102 -0.38358734002324524 146.6661966874264 48 51 58 
15.307089067462538 -0.39074552251863226 146.710024060726 36 37 57 
15.794045642754988 -0.5638429543881562 146.55843424842413 189 191 206 
15.376264224673166 -0.492130562467997 146.70053446922276 182 183 204 
15.46989173536188 -0.44216579900461905 146.68877942777314 198 201 208 
15.385664765819772 -0.3335080248299116 146.6789079082809 158 159 179 
14.881812711832369 -0.5516640438819285 147.0346832669304 200 200 209 
15.4578127942294 -0.31143968945006995 146.67557875866032 75 76 96 
32.533806900348516 -3.9143227703619767 158.37928291269836 83 76 83 
19.606178350880604 -4.596477965596682 156.82623469333126 107 95 99 
19.895156984515285 -5.090973796417332 156.68353318229381 201 203 215 
19.621657461465073 -4.580285560717938 156.60013880349595 96 84 88 
19.467760697791586 -1.9667889307335256 156.80128339677879 223 225 230 
19.654792837832183 -1.9806864997915596 156.6527212006902 115 118 123 
20.013717921076577 -5.899875781072031 156.37780549534946 201 204 211 
19.398406022201836 -5.405152688058761 157.25757601002942 210 212 224 
19.582245224187325 -5.671540635545838 157.2034948835739 205 207 219 
21.79212113983308 -3.5259745480288407 154.1287975459093 145 135 136 
12.405724807581366 -0.5182362931149855 159.85337191829404 115 121 151 
19.917283471108874 -4.670334585118666 156.59956907733127 113 101 105 
21.23124237208137 -4.889068761645793 154.4830080325886 170 173 180 
21.617796249583414 -5.671621174364406 154.40695298044014 153 149 145 
19.47964023547833 -4.615128010761229 157.15574729558455 114 102 106 
20.83571558951659 -3.143794731309371 155.6975140109632 220 218 219 
22.82206093676936 -3.227440491633997 153.0904158335323 181 165 168 
19.710568257122798 -5.50296264790224 156.96470071819414 172 174 187 
17.086331683140795 -0.5191431442197998 151.85449261053867 168 170 191 
17.10034211580639 -0.5168988300960091 151.87414274992562 168 170 191 
21.728404198198938 -4.24569218999532 154.3363094260916 120 105 108 
21.016200739019947 -4.718140142705911 154.86608046056932 135 131 132 
17.39276342722795 -0.4768107170863778 152.99015476675942 40 42 67 
20.74918522687762 -5.619611614963541 155.50630241702962 177 179 191 
21.49370550974814 -3.7455813004852594 154.8724624660714 138 123 123 
20.230529664895013 -2.007374828806378 156.42079188286596 209 205 211 
22.769038122170247 -3.4579737994467754 152.929855098464 177 166 168 
16.36660988664677 -2.8219719099210385 160.66251866767172 140 137 144 
17.06952318462813 -0.6185422580580968 151.86517496166624 116 119 139 
17.077386868633475 -0.6615262060615115 151.8821982730536 123 125 146 
22.673295464756624 -4.963176493644939 152.97095407733178 130 105 101 
20.80867176293511 -5.978690684608221 155.81467782557158 211 214 223 
14.475904197778558 -3.098835695198765 162.74433785183078 136 126 126 
19.292683280223464 -5.726883000081847 157.30970483112048 211 213 226 
22.440278337636443 -4.319924145937808 153.77746121016526 221 218 224 
18.819443314533125 -4.5466916666866135 158.01155939393922 128 115 123 
15.987909239545957 -0.6099599240131697 155.51186964150165 187 190 209 
16.501745592571258 -0.3003287099935723 151.6620361408334 216 221 228 
17.162702236905837 -0.3269227448176726 153.71980409036235 215 218 233 
17.132122769555394 -0.3208290396304654 153.66806818367016 215 218 233 
19.057070387895422 -4.754993673451127 157.78471170368584 214 213 226 
19.52951099124562 -1.6933721893485987 157.2930620744067 149 136 146 
18.825242632394673 -5.335751175777073 157.88421786637784 215 217 230 
18.260374366498738 -6.509635065308354 157.61183327964804 208 207 208 
20.566476397196304 -5.805037069710934 156.0056849488003 209 213 223 
19.627715219116688 -1.8559077524945111 157.30979423215865 124 111 121 
19.403095266603046 -5.615630996276339 157.26019884898102 212 214 227 
19.647781037467272 -4.638615965348164 157.02748264605884 112 98 101 
19.69467161227528 -1.8659580587565587 156.56584471826895 203 205 217 
21.004043164823983 -4.195273524863868 155.8251931960859 121 106 109 
18.987091973144068 -5.403234880853599 157.8255975364222 204 206 218 
18.38680590246997 -6.5095673418871485 157.72839022030374 74 66 71 
20.532291921045633 -4.746891721170263 155.91683403254657 116 102 99 
19.95449250778026 -2.123671272808109 156.30427045903755 204 203 207 
21.80942549293112 -4.157773959114639 154.21282257849344 133 118 125 
16.53599628286222 -0.9905312170705458 152.0575807565855 183 135 168 
19.86617796623246 -2.0507854187533017 156.40172673253687 201 202 207 
18.48372089510798 -6.420066243301822 157.62027514682245 59 45 49 
22.44021322100613 -4.556719517433599 153.80424823255265 165 162 167 
21.07181644144395 -6.21553269006526 154.96805198625955 95 95 103 
21.65254266337018 -2.4837484098260534 155.89896265568714 200 203 208 
21.35935060241738 -2.43373078708116 155.00609423860115 201 204 209 
18.46372013289997 -6.981866173085258 157.7720517263253 135 133 134 
21.678733435845245 -4.306773856393622 154.29746722333473 109 92 95 
20.89669909834513 -2.330802383237707 155.72468831023957 161 163 168 
20.95107664704579 -4.5547226177418665 154.9154265830904 130 117 124 
21.4445500199415 -4.129974078408829 155.00030640759624 143 128 131 
20.91727124916014 -2.3706024419004996 155.57526258585168 203 205 211 
18.370250252157255 -6.678431070405027 157.78195887971742 111 107 108 
20.10410495032879 -2.2586873563690815 156.4255855702689 218 219 223 
20.28232387309707 -2.280828527588464 156.27986888449502 203 205 209 
22.435744162707397 -6.02505468903615 153.17447062663993 139 126 137 
20.243771147004797 -5.611801569875018 156.25177920004543 95 97 109 
19.900828204848718 -2.2441000413431054 156.80643070667224 211 214 219 
22.640320142853646 -6.068649365208595 152.90595845342182 53 52 67 
17.191955856088 -0.8105540718088986 151.86147839929606 54 56 77 
17.449031557822952 -0.47697621180008465 152.99438010582128 39 41 66 
20.611591461459945 -4.363689999796094 155.8418189464902 167 151 156 
20.755928993770983 -2.352167161361956 155.62803284496312 202 205 211 
16.589974084595212 -0.9387772925859352 152.15783557715588 187 183 196 
17.139911324571862 -1.5258616529364577 147.7628058824569 166 147 157 
16.729137542046203 -0.25640812809790203 151.8627734017573 216 219 238 
16.977849056133827 -0.6333022576509624 151.8481993084685 115 117 139 
20.695663808633086 -3.245228965691461 155.63477596941448 206 204 205 
22.084484691366328 -6.431875596870242 152.07922869220045 158 144 147 
18.894464816591974 -5.15926803878329 157.67118771787588 128 131 138 
20.495031597811916 -5.129697361492169 156.03261672680262 209 211 223 
22.179049673176607 -6.729266767532485 153.69128793051652 204 201 210 
21.61619400324001 -5.632509202972761 154.65586153530944 225 228 235 
19.281469043588533 -4.577640322439551 157.60822471609856 123 111 118 
16.803238150949618 -0.7673383817857498 153.29713440252624 202 199 210 
16.72259601512671 -0.7729772086428155 153.1664785897979 202 199 210 
19.35155687776561 -5.293709404146464 157.311140586921 215 217 229 
18.03417897639607 -0.6212748709904092 157.08132557359679 198 198 208 
18.05273103109748 -0.6202847723226932 157.11456903326308 198 198 208 
19.385155892578332 -1.7645822882828157 156.71210403828636 126 113 123 
20.759364670646377 -5.035209552778003 155.66598256459335 175 176 189 
22.086767522593142 -3.6866684044025306 150.53389961417648 63 53 69 
17.675673532764947 -0.45158776844275295 156.6223918739713 56 55 66 
20.57323700300715 -5.58646071100878 156.0039389963917 212 214 226 
21.46767216502377 -3.410941931174306 149.22598151296535 185 182 193 
21.146833066308858 -3.8352162581156684 155.10529465957123 157 140 146 
21.547144231031687 -3.7752244180154726 154.75936249616197 139 123 128 
17.669855249929938 -0.6749998369434478 156.88118067063044 176 172 186 
19.19179093566769 -2.074649327960606 157.744525393198 169 170 175 
17.635993542728727 -0.8047595212917473 156.84434815897782 38 36 50 
21.647410144547536 -3.784429957019947 154.70250472229776 126 112 117 
19.487319819064478 -1.8499902046012568 156.75405084663228 130 118 128 
20.39383034119769 -2.2469686328832976 156.33965184876115 159 160 164 
19.44075134623335 -5.588321356200423 157.0583499422082 208 210 224 
20.865713815426812 -3.3333113779143284 156.0077721704196 206 204 205 
21.98383784247808 -2.9284778185121247 154.12965634434033 150 137 144 
19.183790844446314 -3.2105477048127895 157.7288975620568 232 232 232 
21.851377923643412 -2.957488091848618 154.09143197640938 129 118 124 
18.57202779261188 -1.9069565836824693 158.3407955083168 123 112 121 
18.12893623203125 -0.5216759693783506 156.56050104288846 80 85 90 
20.19853709803268 -4.91977210782922 156.48423671880195 175 175 187 
21.62089599398905 -6.185844190374589 153.88583177567475 166 156 164 
21.892968728087528 -3.4247283067558385 154.34243810399303 162 151 153 
21.83765245806892 -3.64569129708088 154.32274195206344 161 149 151 
18.765330153532283 -1.6542021158486968 158.24803491776797 159 147 150 
18.734684262343578 -0.6106226669698058 157.18310440924628 151 151 161 
19.722258999891682 -1.6719457831644235 156.6714367800513 182 180 192 
20.874719266704542 -3.426701951532384 155.70198081776465 186 189 188 
17.696172538464047 -0.5588833792580652 156.87249247083713 83 71 81 
14.459718215703267 -0.5933605080898439 147.18022807795933 192 195 210 
19.82910968163487 -4.789541584509276 156.8796715265923 163 148 162 
20.44604468187068 -3.9067378134598885 156.00450806141734 129 112 118 
17.297517845499378 -0.5741763263421888 151.81096397389211 53 60 74 
22.314802131154458 -5.988819518503064 153.8895125907921 117 110 117 
20.781667508917195 -5.739045001861607 155.54963642828622 147 149 162 
17.68313709223064 -0.7073470448872696 156.88417804946732 174 170 184 
18.237096597603365 -0.48812143326883595 156.84474631756248 184 188 198 
18.298040891953015 -0.48142166508198514 156.95653465687693 184 188 198 
19.2362887315693 -4.589938509416509 157.40525277978904 100 86 95 
22.346560389147477 -5.954456837795686 153.77324189427938 204 195 202 
20.537489443897215 -4.540519169022028 155.7579288304524 151 136 139 
20.640828793265975 -3.154286986632949 154.71629504678714 213 215 214 
21.456230622020872 -3.486776764253692 155.11170385664903 203 205 204 
22.340136485861787 -4.483487956363259 153.77799763872585 138 132 138 
17.3953426505279 -0.9181423684944581 156.75036327515906 137 137 151 
21.661834753059964 -2.1249960733070297 154.8911363163637 128 111 121 
14.881251651070352 -0.845945077121157 146.95770904543807 141 48 60 
12.502479180274168 -0.27454784660580467 159.83648756564554 115 71 83 
16.885463354044145 -0.7722938670670025 153.05979109198978 47 54 72 
16.685099312421542 -1.1044557465378473 152.93818658710296 137 123 135 
16.55602418258444 -0.9227304272746184 152.5158466785922 205 203 220 
14.73098821983711 -0.8253492262523847 147.18095226279812 122 47 75 
16.613732569154593 -0.6269243769473047 152.15430403724926 154 162 181 
15.49304181112435 -0.9293964587394479 146.7146250967289 196 198 210 
14.824681525235249 -0.8390397723467014 147.5146646503081 190 193 204 
22.34079449050127 -6.58055899765049 153.13392375962388 90 78 86 
22.364126182781686 -6.031471877671846 151.65394099248644 105 107 119 
17.301316103112228 -0.7189307751796514 151.81807598121924 161 162 179 
17.29396975751526 -0.7196930662622565 151.81044473585771 161 162 179 
22.40084493330752 -5.2212145347505805 153.22572064780599 97 90 101 
15.576516756332595 -0.7575707251154871 148.81588027450962 68 75 91 
15.54992352971601 -0.7639308959663507 148.77603145985478 68 75 91 
22.163040113583797 -3.8971525966086373 153.76313265780314 160 150 153 
22.150200430247786 -3.890386260780803 153.7506716813649 160 150 153 
17.315860811916856 -0.6216253573068642 151.82415016915928 28 35 47 
17.330486462132814 -0.6095613430736135 151.7880950672102 189 197 209 
17.04112768580469 -0.581359552758635 151.87916550454275 5 10 29 
17.05516786128093 -0.5350076161159989 151.861641389263 24 29 48 
16.512739706611775 -0.9387607307108643 152.32613172926122 73 65 88 
17.540445137479615 -0.392155449864791 153.1007672888035 14 15 37 
14.91530197766959 -0.7971058213163356 147.67198005528277 210 210 226 
14.908856666808973 -0.7197486257751762 147.685687744523 100 102 117 
18.634999548422073 -2.7870990275420624 152.663293330043 199 200 204 
16.703973936260226 -0.7495061040777422 151.7961241269066 56 61 90 
22.952195829823 -5.361631817118181 151.5342709981365 163 143 157 
22.8598836012444 -2.7031208059862726 152.85981436211222 181 176 180 
17.03417205065296 -0.7499769919487465 151.87326779504798 41 49 62 
15.57597141066989 -0.9992997115201123 148.67418569925528 120 125 136 
22.205663591600278 -5.825574565410591 151.5520351991977 146 148 160 
20.68368403923354 -3.176901111497571 155.80447279815306 155 153 154 
15.438513618003377 -0.23275382938928546 148.27237866880154 220 222 235 
15.98926424401561 -0.26091960711514206 149.98993008924677 230 232 247 
16.268052054021037 -0.19726967861361588 147.93809735616344 108 110 124 
16.45795232694849 -0.26921048501982936 152.22232015073033 123 124 145 
15.171047740511444 -0.21216807517778458 148.07908738329246 131 131 156 
15.462285992854136 -0.45556832602360275 146.67877722703145 74 77 84 
15.793944392438252 -0.21397193325913988 149.44075460807912 105 106 126 
16.033325735813957 -0.27225208544687707 149.96100754986702 129 131 146 
15.420043717454119 -0.48133086480397314 146.6859224850907 125 128 136 
15.239026834941294 -0.4055737174357448 146.72030041094834 57 58 78 
15.411173980799552 -0.36400197082432895 146.6758521438843 36 38 52 
15.416091346128788 -0.3315298213590063 146.66413772263638 204 205 222 
15.388801376762492 -0.33684323692763085 146.69124476755835 194 195 215 
15.743520515558679 -1.49466932274829 146.95450632289538 139 109 110 
15.616494512047748 -1.1432726322432263 146.82595115596348 15 13 35 
14.866884010199632 -0.8470540761725489 146.94910043187204 152 47 65 
18.219327665509166 -3.0521869042442074 158.41504654571798 170 150 152 
14.722737763265783 -0.8292632907805166 147.1029995968395 102 25 38 
15.654341373761632 -0.5063918744529488 146.62333764175045 49 51 66 
14.890845704217977 -0.7329143909020313 147.6674011489282 220 221 237 
15.417607864967014 -0.5439169219297542 146.6910848835102 103 104 123 
14.741780028910918 -0.8647989589032814 147.23759868866827 203 173 191 
13.728900586088177 -3.5957275004276896 163.90427366682783 157 138 142 
13.958356870607785 -5.045073908735237 163.80305124140236 109 107 121 
15.63126754229017 -0.9440165797843245 146.62199493677912 111 113 125 
14.889870223277812 -0.8359463244079985 147.7413045202078 75 36 61 
15.400303137905626 -1.1413597940700715 146.80556936406245 137 138 152 
15.572850008501382 -0.3984235623977104 146.634474248819 107 109 121 
15.3501348514467 -0.5666618970488426 146.73759807063993 129 130 150 
15.507960752434578 -0.6261425737855246 146.6486743441149 183 184 204 
15.65992112698082 -0.9291231232102675 146.61277331405333 210 212 224 
15.390163634180126 -0.516207800707374 146.69851499325355 220 222 236 
12.476184915271343 -5.205848758470504 164.88497805296046 139 129 140 
14.917021387833621 -0.5634290224261111 147.67754975849317 188 191 207 
15.370336309493096 -0.4186598664709027 146.70855072337886 190 191 211 
15.52381584883705 -0.9342943726238202 146.63172507704266 139 141 153 
15.467158419677695 -0.6705190686297744 146.67572490201601 57 58 78 
14.755991762055658 -0.7269191358019644 147.32365087978934 213 215 230 
14.921810136096731 -0.7303920448282555 147.66712359458856 221 224 238 
15.445148941304524 -0.3427318512602482 146.65827776716677 161 163 178 
15.40673565753843 -1.24277431289461 146.8271724524967 51 50 68 
15.40673565753843 -1.24277431289461 146.8271724524967 51 50 68 
15.359158979659453 -0.4914128072519728 146.72240022519642 164 165 185 
14.76990223067043 -0.8507183617682554 147.50206533147252 195 203 216 
15.412622987824943 -0.31118507743961454 146.71277460542808 70 71 91 
15.39514842938975 -0.41348915193409796 146.7078245830197 70 71 91 
12.476184915271343 -5.205848758470504 164.88497805296046 139 129 140 
15.33354978249098 -0.5219573393266981 146.7038412259347 183 184 204 
15.327578913768898 -0.36790764060659575 146.73377949326166 121 122 142 
15.400992437733318 -0.5555566089953881 146.68375110288497 180 181 201 
15.400992437733318 -0.5555566089953881 146.68375110288497 180 181 201 
15.417319730553185 -0.4525257969423808 146.7245274623945 120 121 140 
22.950927893780253 -2.356724603106148 153.3168290140804 135 125 133 
21.84953077713353 -2.138510294070624 154.56144902289594 155 141 148 
21.512880633907585 -4.671482645714132 154.50393728952707 69 66 77 
20.269662019879807 -4.69628596314008 156.20494107553057 105 89 88 
20.886278823631304 -2.2948514487271154 155.76593031588368 203 203 205 
22.31406957240674 -5.822272796001252 153.77745343684683 196 190 192 
22.258116761560906 -6.410579084510373 151.93183717005422 65 56 67 
18.584110115752125 -2.2214787876822832 158.42470225359986 116 104 114 
21.263773793147575 -4.612134000756939 154.67842731034187 212 215 223 
18.674453351816826 -2.0048997255902123 157.9698451769765 158 159 164 
19.786067618657587 -4.662067387758489 156.89906975003262 96 84 88 
14.847105815991497 -0.7675261363187307 147.52472408204994 219 222 237 
19.684445267755542 -3.611039055927661 157.25304751645933 156 137 143 
19.55804447667088 -2.0116146272626922 156.70917865286964 169 172 177 
22.192529227253182 -6.382007391600313 153.91362362545456 190 185 192 
22.714601462907915 -4.948054853257978 152.9682646364077 186 165 166 
21.164755065688038 -6.140273126754301 155.1737302703805 149 152 159 
21.432971230336364 -3.323255785615709 155.08803023166737 208 212 211 
21.34336900030617 -4.563807324026099 154.42537718647952 203 202 210 
19.74369000288249 -4.816341823390762 156.87571083820353 160 164 175 
21.069046785104543 -4.695943352372694 154.67388181420674 136 139 148 
21.446492438066112 -3.820563818708047 154.97229093955482 136 119 122 
20.456364373598422 -4.725022037048935 155.84584308220877 123 109 106 
21.682260533384177 -4.147262218317319 154.31230990673734 118 103 106 
20.243242216431895 -2.05654881901519 156.30843439137277 223 213 223 
12.701345531521895 -2.279880734136759 165.87721357328883 158 156 169 
21.155236390153703 -4.812207205919288 154.62964165293795 139 141 153 
21.4144070144488 -4.214699435534829 154.95597294380298 116 101 104 
14.203315022694532 -0.32572816129191184 156.68441100007965 191 193 206 
15.438138067905111 -0.6082022298663705 148.52447446525179 138 67 83 
20.819863143891986 -3.1408828700146945 155.83968694928618 220 219 220 
18.587105103273913 -4.597058455346659 158.13855974405408 105 103 110 
18.85326017574875 -4.517132815187989 157.85546414617266 112 98 103 
22.21721033316311 -5.865547005473562 151.69189415526222 94 94 106 
21.240695645341937 -3.301150287968319 155.10437077335268 212 216 215 
20.726201301329652 -3.3978983314255276 155.83445694113698 204 205 205 
17.310192753434347 -0.825509371029802 151.87560517077063 58 56 78 
20.388212082292185 -3.908165470720731 156.17325490887663 126 107 113 
18.459273770189238 -6.859402487049335 157.8333854975105 187 183 184 
20.47908323730725 -5.996527748461192 154.92884581889578 96 96 104 
19.127943327696222 -2.952895828620994 157.63196177686882 164 163 162 
19.67406919424647 -3.037255725436105 157.04139511115525 181 179 180 
19.52883353740262 -1.8773484765190236 156.7692106527166 148 139 147 
22.714601462907915 -4.948054853257978 152.9682646364077 186 165 166 
19.069371757886202 -3.1569699664203075 157.74031838990902 189 188 183 
20.33598067864771 -4.270132323141376 156.1367899918721 140 121 127 
21.09034371607935 -4.504003990194825 154.8058114740285 50 42 53 
