-4.4034490698 -0.0151053127634 11.3658033514 114 94 83 
-4.36016457229 -0.285163881189 11.3444701868 156 143 135 
-4.36185259435 -0.0194320267017 11.36596625 120 98 87 
-4.45214397028 -0.109866427047 11.3705148226 158 140 131 
-4.38852395649 -0.154660062531 11.3527771741 180 159 150 
-4.58229623417 -0.0814712763286 11.2607606633 224 225 229 
-4.28088568591 -0.0852467002571 11.4162753151 114 91 78 
-4.33911958243 -0.114815369073 11.3697864661 139 114 101 
-4.35394883003 -0.038972710196 11.371070577 129 105 93 
-4.37304670696 -0.127956265237 11.3554363841 135 115 103 
-4.12392544218 -0.318572737503 11.5980273464 224 220 225 
-4.32600893373 -0.0830113099616 11.3769453146 128 105 91 
-4.32468879033 -0.301808439873 11.3698869873 143 128 122 
-4.38578561575 -0.152771884721 11.3527343269 150 128 120 
-4.4835820423 -0.126724078167 11.4018038131 179 167 158 
-4.30872274474 -0.268669705289 11.3851578952 135 118 111 
-4.3056243293 -0.124953106437 11.3947405641 115 93 80 
-4.50475816183 -0.148723944853 11.4198917455 178 176 176 
-4.34600438691 -0.19612853571 11.3616728481 157 139 127 
-4.43659952579 -0.277446096784 11.3435315767 181 172 167 
-4.31795939939 -0.193872050739 11.3782863732 145 125 116 
-4.31503275225 -0.273108648012 11.3764855702 134 117 110 
-4.48787790442 -0.0982294227056 11.4136964012 170 156 147 
-4.21955269865 -0.314637152467 11.5099417592 122 122 124 
-4.38324741993 -0.230517412046 11.3402660337 179 165 156 
-3.56895696897 -0.312115485204 11.2583102641 160 155 152 
-4.48194406482 -0.00532182579076 11.1663054428 178 181 187 
-4.43690385415 -0.207566516956 11.349590069 194 181 175 
-4.47113428709 -0.0847322996224 11.3866816718 152 138 129 
-4.48632670021 -0.0216090629056 11.1698269065 230 230 230 
-4.3495113092 -0.228754412596 11.351799782 149 129 122 
-3.73193412137 -0.1705552731 11.6763238999 75 68 62 
-4.47904832993 -0.149434206163 11.383491824 173 160 151 
-4.50645782222 -0.139576433245 11.4158879119 163 164 158 
-4.14486445936 -0.338367118923 11.5984120236 133 133 135 
-4.59865134201 -0.0453229704313 11.2476074625 94 104 105 
-4.32550597462 -0.177094114922 11.369656784 146 128 116 
-4.36801862503 -0.173401674341 11.3536718919 153 137 124 
-4.36810472145 -0.173114157079 11.3528792412 153 137 124 
-4.43305097189 -0.024957828842 11.2320414212 138 121 116 
-4.31269743219 -0.192705556421 11.3811849102 128 108 99 
-4.39563286449 -0.0715198302648 11.3693356079 153 131 118 
-4.13742563491 -0.353161036316 11.606170768 95 94 100 
-4.13427192318 -0.340417494371 11.6128964311 103 102 105 
-4.50054963114 -0.281120564816 11.3963788481 206 197 192 
-4.44073669636 -0.0775174896414 11.3665551998 152 133 122 
-3.55367948894 -0.434154638774 11.2973709566 140 141 146 
-4.27414175596 -0.217167639703 11.4188021323 146 126 117 
-4.02434129719 -0.234021623159 11.665882637 215 203 206 
-4.01095681863 -0.0882616595512 11.6763014559 173 169 173 
-4.22172734672 -0.364681956901 11.5094337503 107 107 117 
-4.28239601092 -0.272712400761 11.4113547502 138 121 114 
-4.35569807235 -0.109046623543 11.3691209917 142 118 106 
-4.51547657518 0.0148605470955 11.1916953521 121 121 123 
-4.45423200129 -0.107922159913 11.3716263395 183 166 156 
-4.32332225503 -0.245370063467 11.367291858 140 122 115 
-3.73617965798 -0.168708010484 11.6748548897 211 204 197 
-3.73329540521 -0.119774716102 11.6701231 207 207 204 
-4.32583376746 -0.221835315862 11.3654987514 130 110 103 
-4.2367481804 -0.0849421983817 11.4658744028 111 91 80 
-4.43333307963 -0.259144060578 11.3438012029 178 165 159 
-4.43401036987 -0.0232936167792 11.227704184 109 96 98 
-4.43925549836 -0.0764286022505 11.371398756 179 161 149 
-4.50409184521 -0.0500185731556 11.2145296802 135 135 135 
-4.42240981482 -0.185791206624 11.3460421282 182 168 159 
-4.2986809773 -0.190153673118 11.39362332 144 124 114 
-4.49631936 -0.110219902625 11.4169628713 147 135 131 
-4.49161195765 -0.282441582356 11.3686488389 222 213 208 
-4.49153779893 -0.281848248251 11.3674677579 222 213 208 
-4.366519116 -0.0500133204421 11.3643773925 174 150 138 
-4.41631199285 -0.204230926214 11.3461375928 199 182 174 
-4.44051709973 -0.139079113504 11.3558711794 177 160 150 
-4.31015036354 -0.253816329389 11.3812939653 154 132 127 
-4.35912407347 -0.0138096977695 11.3708603947 114 100 92 
-4.37631933515 -0.168480105106 11.2542489721 149 131 121 
-4.14096229186 -0.36353800258 11.6036345497 124 122 132 
-4.47030173429 0.00744255945679 11.2473683239 87 89 101 
-4.24403835398 -0.0426250714646 11.4548816415 100 85 83 
-4.48561705344 -0.010562038119 11.1766948763 172 172 174 
-4.51148134196 0.014370405046 11.1863774444 68 69 68 
-4.44115183678 -0.264036275765 11.3351284094 164 151 145 
-4.42271882749 -0.0667241545666 11.3675447823 164 145 130 
-4.45062214488 -0.137794216606 11.3683557097 196 179 169 
-4.46467301519 -0.198180363453 11.3624701289 199 189 179 
-4.34568537412 -0.261892249615 11.3571980899 165 148 141 
-4.37201482318 -0.138182449947 11.3555696475 179 160 146 
-4.051764045 -0.259056941383 11.6798478593 95 79 92 
-4.02464367421 -0.237466780934 11.6610173905 108 97 101 
-4.57407052931 -0.10992120802 11.3336895633 54 55 58 
-4.42812802573 -0.179589111176 11.3536119178 191 177 168 
-4.54586314489 -0.254794174065 11.435628449 182 178 178 
-4.35904800375 -0.017445329161 11.3668412557 140 122 115 
-4.01234080383 -0.119273912297 11.6779024107 100 88 92 
-4.5442512937 -0.0369296856553 11.2022344318 225 225 231 
-4.37454802361 -0.0215188603515 11.3674513871 123 98 89 
-4.44582770345 -0.184530876002 11.3613577195 174 160 151 
-4.38130434078 -0.240903191245 11.344113262 152 138 129 
-4.23498856272 -0.125190731106 11.4756140437 128 110 107 
-4.49802586093 -0.0733798677411 11.2696473645 124 125 121 
-3.64330808231 -0.200555657441 12.1521206482 173 171 172 
-4.62564296099 -0.293798656542 11.5040336716 200 201 203 
-4.395638119 -0.19882916636 11.3469073537 158 144 134 
-4.33607825829 0.0311989608262 10.9691327985 202 201 199 
-4.47062056071 -0.237003853373 11.3622174316 184 173 169 
-4.48337660757 -0.187707305322 11.3803965342 202 189 181 
-4.33248468328 -0.0801623027018 11.3740524711 160 137 123 
-4.38459810518 -0.121296479815 11.3556248564 175 156 142 
-4.62470808953 -0.270225558241 11.5141656873 195 196 200 
-4.47437069084 -0.160570189449 11.3773112874 170 157 148 
-3.55689300359 -0.143288001619 11.3416311639 162 148 139 
-4.36222355898 -0.130128314097 11.3591549936 131 112 98 
-4.3763063161 -0.0690075078602 11.3641006323 141 120 108 
-4.39857189915 -0.088892649855 11.361666709 156 134 120 
-4.38029544986 0.0342401241508 10.9770734016 198 197 195 
-4.37744481016 -0.0357716612839 11.3642420525 137 117 106 
-3.80628724721 -0.12710341742 11.3499366641 75 76 81 
-4.34813088048 -0.284698531493 11.3570557864 168 148 142 
-4.39558745256 -0.16798729308 11.3502209432 176 158 146 
-4.48142393373 -0.0543679172328 11.2501755271 75 76 75 
-4.38552639423 -0.115753999566 11.3559298158 153 126 115 
-4.10777824805 -0.363433209236 11.6424983071 85 84 90 
-4.37918430125 -0.011623927317 11.3605730261 106 95 99 
-3.5799974864 -0.382434050002 11.4144348934 178 149 141 
-4.60472847311 -0.118982811581 11.4273776459 86 86 86 
-4.28733689529 -0.0734594323935 11.4106665841 130 108 95 
-4.32776758239 -0.146102239323 11.3671458357 133 109 97 
-4.34176018206 -0.0913747035497 11.3676764565 135 111 98 
-4.36850157537 -0.0359027144962 11.3649962193 129 107 94 
-4.44932760947 -0.205554165168 11.3576952651 176 162 153 
-4.34603581598 -0.13176774258 11.3609726999 130 108 95 
-4.31576685743 -0.122028516625 11.3794908978 124 100 88 
-4.39558745256 -0.16798729308 11.3502209432 176 158 146 
-4.52931976835 -0.0225599462291 11.1919114141 140 136 124 
-4.5641583191 -0.298076289063 11.461624943 206 203 202 
-4.57214197458 -0.0837202353263 11.244124196 157 157 157 
-4.39303865455 -0.0158890961297 11.366756452 106 86 72 
-4.55507411587 -0.0958101124514 11.2687524395 82 80 94 
-4.36549001434 -0.155106681094 11.3556083964 141 124 114 
-4.34261822775 -0.17950091125 11.3598194593 137 120 111 
-4.35102463334 -0.208400946732 11.3561449036 145 130 120 
-4.38640266117 -0.0897178598281 11.3583443338 144 124 113 
-4.38640266117 -0.0897178598281 11.3583443338 144 124 113 
-4.4247642869 -0.155847049008 11.3531803248 144 127 119 
-4.35724243024 -0.1343467727 11.358321764 134 117 107 
-4.41795394408 -0.203088436573 11.3463223065 171 157 148 
-4.75731111675 -0.754484188933 12.605183201 81 82 87 
-4.55841977927 -0.0912376124425 11.2846817115 96 96 96 
-3.853365676 -0.0690917695855 11.3396673484 48 48 59 
-4.58415949136 -0.109989432058 11.3459359278 58 58 60 
-4.55227521406 -0.0916272299691 11.2836180763 99 99 99 
-4.62645396457 -0.2922364325 11.5078393148 158 156 159 
-4.34296337388 -0.179802656526 11.3605985148 135 118 109 
-4.36646876155 -0.165663880953 11.3521323645 149 133 121 
-4.34277798433 -0.147417946848 11.3640192295 136 115 112 
-4.33787494951 -0.136555139119 11.3642819111 122 99 91 
-4.57058146992 -0.0809854626836 11.2444750302 166 166 166 
-4.41219236984 -0.166445203442 11.3510531681 180 162 158 
-4.59413683342 -0.29607783025 11.4820678789 199 200 194 
-3.56936570627 -0.167014429786 11.4557432839 120 103 95 
-4.41007787376 -0.139125398608 11.3546493832 142 121 116 
-4.45774315129 -0.200976770694 11.3602928843 164 150 147 
-4.44245908303 -0.100027006003 11.3697918417 137 117 108 
-4.37242871899 -0.18005845363 11.3516576716 136 121 116 
-4.39380481255 -0.159054172238 11.3513321908 144 126 122 
-4.35959333508 -0.0420439298217 11.3670128347 125 102 88 
-4.39202069076 -0.199825215865 11.3483772641 153 138 133 
-4.52875850793 -0.152968532456 11.4467145872 70 71 75 
-3.56091705227 -0.272230718362 11.4258375519 119 120 124 
-4.44143008246 -0.152723724769 11.3602448008 182 167 161 
-4.28474270598 -0.114898654745 11.4049526389 128 106 93 
-4.37789592466 -0.280068601799 11.3450455198 180 167 161 
-3.6503777836 -0.224923018054 11.6773091517 144 129 122 
-4.55201563082 -0.0261334866374 11.2095756622 87 76 141 
-4.73117072231 -0.279519226513 12.1773811417 239 230 228 
-4.50658952769 -0.0642596239761 11.0007749054 190 190 192 
-4.44854341214 -0.197781289644 11.3564553329 176 161 152 
-4.69644409823 -0.375509283673 11.749014847 130 130 138 
-4.47030173429 0.00744255945679 11.2473683239 87 89 101 
-4.64360532199 -0.246340226159 12.1330907627 159 159 167 
-4.53731982267 -0.139110749232 11.4868107634 76 76 78 
-4.49807414366 -0.177096085282 11.4082983695 141 127 127 
-4.5776138514 -0.0493627120619 11.2712668156 197 205 215 
-4.58883013395 -0.23338665413 11.9764422794 190 190 197 
-4.46722225933 -0.271445863168 11.3556162272 206 197 190 
-3.86681453334 -0.0744099499476 11.3397741313 52 52 64 
-3.83777623206 -0.106393863141 11.3440090086 68 68 77 
-3.78423089172 -0.139983186524 11.3589896228 58 53 59 
-3.67656208829 -0.0937065039566 11.3906164123 53 53 62 
-3.70062232369 -0.0899387448257 11.3836774915 46 45 55 
-3.60347162746 -0.318294087234 11.4692718823 161 140 134 
-3.82553420907 -0.0927451575103 11.344890115 47 47 57 
-3.85794165928 -0.105000685853 11.3380522335 231 231 239 
-3.7111805389 -0.107470089105 11.3829152316 78 78 88 
-3.70764896734 -0.108665973897 11.3876972414 78 78 88 
-3.64238657426 -0.1044242102 11.4210633273 176 176 178 
-3.68486750951 -0.103011094532 11.3902019952 79 79 89 
-3.68993673147 -0.107288566012 11.3888816438 169 169 179 
-3.69481211532 -0.111084015452 11.386852398 83 83 93 
-3.65929111962 -0.168189378914 11.4781114548 91 90 99 
-3.66132107915 -0.151232163568 11.4164301905 78 67 74 
-3.80528340664 -0.0873426962663 11.3530892487 46 45 59 
-3.81741758404 -0.0944732361815 11.3476284266 107 107 117 
-3.81776727363 -0.0943568985736 11.3472001872 107 107 117 
-3.58619855281 -0.323153463509 11.4618552318 143 125 114 
-3.58656126108 -0.330060391345 11.4633809286 150 131 116 
-3.71686550185 -0.101274068532 11.3793109605 51 51 62 
-3.71264631399 -0.101686506802 11.384385909 51 51 62 
-3.67379635445 -0.103666737649 11.3936708197 64 64 74 
-4.3091299265 -0.0383043699882 11.3797029487 114 92 81 
-4.44362660929 0.00101654459717 11.250355714 99 101 110 
-4.32027886258 -0.157923362599 11.3758174402 121 97 85 
-4.26476637923 -0.335828707506 11.4387912665 143 132 132 
-4.39100574035 -0.136950877193 11.3511444735 155 137 125 
-4.37776837688 -0.223757466841 11.3495803361 149 132 124 
-4.46324200374 -0.00851148857225 11.1751701379 166 164 170 
-4.47419589241 0.00682526479609 11.1673030792 70 72 86 
-4.3216428583 -0.120910630186 11.3737117165 123 99 87 
-4.24102426154 -0.0432738794437 11.4668614044 95 80 76 
-4.50923972386 -0.0521741309288 11.2208928294 91 92 95 
-4.3713185651 -0.113698027283 11.3585858202 152 125 114 
-4.57604677132 -0.085316889925 11.2473012775 119 121 120 
-4.51646454228 -0.0476562352466 11.1871841439 99 100 106 
-4.18818441751 -0.158594319905 11.5401848491 100 98 99 
-4.55366271115 -0.142185855729 11.4650645207 190 190 192 
-4.43352554071 -0.0344733209167 11.2306408395 141 123 109 
-4.51864100797 -0.00505184927277 11.1816767548 76 77 81 
-4.32087685392 -0.0201510149056 11.3793612419 97 80 80 
-4.05009074033 -0.128968537477 11.6907043615 85 68 68 
-4.51054368366 -0.121926284455 11.4247466801 126 126 128 
-4.54174774818 -0.0561258405751 11.2011917517 141 143 142 
-4.30345981219 -0.315490143924 11.3917131502 139 126 120 
-4.44044980543 -0.0285560553986 11.2162805993 153 152 154 
-4.37448447091 -0.250541760282 11.3428587938 194 180 171 
-4.33561077041 -0.199603996089 11.3641568744 122 105 91 
-4.40880603024 -0.260221289687 11.3374184576 160 147 141 
-4.37921050791 -0.142237231839 11.3536548019 137 119 107 
-4.56716187646 -0.290979555724 11.4573317748 103 103 106 
-4.46269728291 -0.091374984585 11.3778337012 157 140 128 
-4.47202113579 -0.0864087714744 11.3850975162 192 175 164 
-4.33163428585 -0.134510727242 11.3715003024 121 98 84 
-4.29916753479 -0.162559776262 11.3950625149 131 107 95 
-4.30978645492 -0.138177696739 11.3852105719 110 86 74 
-4.07844233819 -0.330561021044 11.6636127386 115 103 117 
-4.33817297016 -0.0775523145983 11.3680665356 131 108 94 
-4.54698387579 -0.0873737276 11.2832049 129 129 129 
-4.25794162478 -0.079523948129 11.4392985341 116 96 85 
-4.39249321702 -0.161993636501 11.3545735014 183 165 153 
-4.40638775375 -0.125974645855 11.3563610327 179 160 145 
-4.35082172589 0.0314415530301 10.9757628713 173 172 170 
-4.25221916909 -0.0718662132629 11.4440491084 132 112 101 
-4.37076338151 -0.261998488936 11.5389107529 182 165 157 
-4.37076338151 -0.261998488936 11.5389107529 182 165 157 
-4.52503859046 -0.0381042928477 11.1826371591 232 233 237 
-4.02475976103 -0.405365005705 11.6789553542 76 76 89 
-4.3027249336 -0.188694947677 11.3893286933 146 128 117 
-4.45987656678 -0.19495477481 11.3611745589 200 190 180 
-4.46252574891 -0.0164013774205 11.1811786488 44 46 59 
-4.43525359505 -0.204847973915 11.3465672711 172 158 149 
-4.46178223253 -0.185917799987 11.3628130561 183 173 163 
-4.38255928702 -0.0644422471865 11.3601013472 134 111 97 
-4.36620269617 -0.285515342754 11.3438323413 153 136 131 
-4.40568609302 -0.203454493092 11.3470887711 181 164 156 
-4.50744431286 -0.137987945984 11.4193127551 52 52 48 
-4.43814708635 -0.122415867042 11.3644360755 160 142 130 
-4.39826606516 -0.0463551695609 11.3635989113 176 154 140 
-4.33083569662 -0.0749478258859 11.3707907986 128 105 91 
-4.42622287689 -0.135262777635 11.3561644209 165 146 134 
-4.4525828493 -0.187704433464 11.3557776868 198 185 176 
-4.30602704877 -0.142712247042 11.3889597734 125 101 89 
-4.15083495041 -0.0730621464643 11.5713237701 104 88 84 
-4.35988179127 -0.263148375518 11.3486247906 168 151 144 
-4.4043623058 -0.251080563705 11.3403227579 170 157 151 
-4.53700382696 -0.115997190476 11.3273761969 94 94 96 
-4.14632708205 -0.0788395632183 11.5863564681 105 88 80 
-4.45915897288 -0.00599060441493 11.1899111884 52 55 64 
-4.39112341413 -0.0811056546059 11.360337198 177 154 140 
-4.14031232349 -0.202494146641 11.6051609408 122 122 122 
-3.67233217842 -0.319459487572 12.1307365004 91 89 94 
-4.42346299495 -0.00823972245698 11.2311632711 105 100 100 
-4.51037066472 -0.121648876888 11.4236582034 125 125 126 
-4.52306741708 0.0172194741345 11.1947440263 93 92 100 
-4.43016790453 -0.0894753739552 11.3660716706 142 122 110 
-3.48675026948 -0.231892231504 12.3602492772 83 81 82 
-4.44627183119 -0.273342244876 11.3455054013 175 164 160 
-4.40780150285 -0.193486193297 11.3462284703 162 148 139 
-4.45944219875 -0.0921833132545 11.3817993378 168 146 132 
-4.38153085295 -0.200232222159 11.3460699558 155 142 129 
-4.54484640556 -0.0944731147547 11.2806747902 236 236 236 
-4.3932166467 -0.122665025861 11.3562623674 155 136 122 
-4.4138598024 -0.0981657440039 11.3601517652 156 134 120 
-4.29450032437 -0.0298066157419 11.3957557899 105 83 76 
-4.34192003365 -0.121828634472 11.3674488675 136 113 101 
-4.44633335611 -0.130897352057 11.3649076157 181 165 149 
-4.37504154495 -0.162044373627 11.3497118213 170 152 140 
-4.48553175803 -0.048361121615 11.1976421185 60 60 60 
-4.2984453044 -0.114011899278 11.3911911359 116 96 85 
-3.49522415925 -0.236337837929 12.35646927 149 147 148 
-4.54351895768 -0.0908147112669 11.2866655037 117 117 117 
-4.3292933868 -0.190007052051 11.3678730117 133 113 104 
-3.50502552368 -0.295775415448 12.3469264183 177 175 177 
-3.87098111205 -0.278083715206 11.9070156977 213 204 214 
-4.47181083581 -0.138571865738 11.3811484722 172 158 149 
-4.35704484473 -0.126502338013 11.3614006538 128 109 95 
-4.44497863983 -0.135888339708 11.3633041663 171 154 144 
-4.44002106459 -0.0286031028714 11.2158374473 152 151 146 
-4.51462117157 -0.29252430393 11.3999899019 185 174 170 
-4.29643064118 -0.133184428735 11.3956419733 131 113 101 
-4.23454943265 -0.103854596831 11.4657857223 109 95 91 
-3.66168272595 -0.244199495359 12.1446425923 106 104 105 
-4.4573868525 -0.201151293112 11.3607697088 172 159 151 
-4.39781541602 -0.0387383700075 11.3668948124 157 138 124 
-4.36073580536 -0.08619539413 11.3648686567 141 119 105 
-4.38634514674 -0.157421220598 11.3566768306 170 152 140 
-4.52525804182 -0.220649279519 11.421064118 181 168 160 
-4.38808792234 -0.159624123785 11.349345287 160 142 130 
-4.42804042331 -0.0966904524556 11.365404306 158 136 122 
-4.38670756033 -0.100929677784 11.3582961043 155 133 120 
-4.40991121338 -0.0912692006928 11.3623395598 146 124 110 
-4.36376311167 -0.0886635084875 11.360237599 133 111 97 
-4.4120814214 -0.177054037545 11.3515108015 181 167 154 
-4.32552801362 -0.120276050669 11.3717072415 133 109 97 
-4.56094535317 -0.249491871911 11.4425633744 165 152 152 
-4.42286854078 -0.0719263477208 11.3675392187 150 128 114 
-4.43085316238 -0.204294568892 11.3489339704 188 174 165 
-4.33934090658 -0.0422324948387 11.371859858 143 118 111 
-4.40315896931 -0.0774843571673 11.3624143801 144 122 108 
-4.40412253198 -0.0702115027211 11.3641846242 148 126 112 
-4.54100772762 -0.255414163534 11.4273585541 169 164 165 
-4.47171231724 -0.0206942079195 11.1795621581 185 186 182 
-4.36558727152 -0.0902685469947 11.360397599 171 149 135 
-4.45126384912 -0.10348196416 11.374634836 169 148 135 
-4.52336991742 -0.0142372114648 11.1977503441 200 198 208 
-4.37047909532 -0.181909772077 11.3521786047 173 155 143 
-4.29307261283 -0.0730310714756 11.4020733867 127 105 91 
-4.36796001109 -0.0126359814996 11.3178280893 113 97 89 
-4.38355103235 -0.0682203990882 11.3604363652 125 101 99 
-4.34332595971 -0.0990595600699 11.3664396135 132 108 96 
-4.40428420134 -0.208971141715 11.3479695157 157 143 134 
-4.35963868337 -0.107575454686 11.3589399 139 115 103 
-4.33987759548 -0.0976030049996 11.3677553363 154 130 118 
-4.41358325969 -0.0930427582273 11.3612025384 182 160 146 
-4.4090869031 -0.171434073935 11.3496007275 159 143 130 
-4.4090869031 -0.171434073935 11.3496007275 159 143 130 
-4.4509938266 -0.116153781088 11.3719270139 179 163 150 
-4.36983858148 -0.126342334116 11.3557334134 168 148 141 
-4.44353321535 -0.0776883856791 11.3737233516 150 128 114 
-4.27320519088 -0.149479745425 11.418032421 140 121 108 
-4.40421764617 -0.196103404317 11.3468177932 184 170 161 
-4.40407234381 -0.196351324583 11.3474138501 184 170 161 
-4.35989191717 -0.0870063444819 11.3593568919 157 135 121 
-4.44127770027 -0.157313781863 11.3605243121 190 173 163 
-4.54889682207 -0.186472488542 11.4485506925 190 175 168 
-4.33369755971 -0.111876848308 11.3711505019 129 106 92 
-4.4181898905 -0.20736449649 11.3483927336 167 153 144 
-4.54121111337 -0.20018147608 11.4421808139 166 154 149 
-4.3968320479 -0.222371427271 11.3461114222 186 171 165 
-4.2929228862 -0.122472433973 11.3969199616 118 103 92 
-4.40110205981 -0.231651439825 11.3459385556 156 143 137 
-4.35491680663 -0.104815765882 11.3608574059 127 107 96 
-4.41942509562 -0.152479091986 11.3528808281 153 136 128 
-4.37554149178 -0.036116568992 11.3606594863 129 106 92 
-4.35400835828 -0.172509237464 11.3569007289 168 152 139 
-4.33558888487 -0.203347131629 11.3630699783 137 122 117 
-4.39598462536 -0.133425266547 11.3536512474 142 123 114 
-4.41416266045 -0.109181312538 11.3581060664 141 122 110 
-4.46138020436 -0.0053940558544 11.1826919301 57 57 67 
-4.33026745008 -0.0988821716966 11.3710966589 148 128 117 
-4.38670461399 -0.200278409086 11.3469675689 148 134 124 
-4.39107667878 -0.131728219961 11.3543787408 177 160 150 
-3.63403720079 -0.507165645292 11.5905757068 66 68 79 
-4.33369129759 -0.0292848747203 11.3734934092 145 121 109 
-4.40880381453 -0.153959497173 11.3528081287 140 123 115 
-4.36238041635 -0.0373342518469 11.3649892062 128 108 97 
-4.50743665831 0.01632615189 11.1823844877 98 98 97 
-4.38007421604 -0.127422680798 11.3546669574 141 122 112 
-4.39485397129 -0.173873975999 11.3502576546 150 133 125 
-4.38995012323 -0.0825104061945 11.3585906431 131 111 100 
-4.34376796489 -0.0375874022677 11.3701973114 136 117 107 
-4.39614663409 -0.175184558767 11.3499689979 177 160 152 
-4.35939534849 -0.0247203768716 11.3653056665 150 130 123 
-4.53630428594 -0.091791998439 11.2838796131 122 126 135 
-4.48057403251 0.00454340405205 11.1901184728 44 46 58 
-4.52957825207 -0.142068413515 11.4414208661 202 204 203 
-4.4074667823 -0.194176018555 11.3492118039 157 142 137 
-4.40683850929 -0.109827699504 11.3578437731 139 119 112 
-4.41202093779 -0.0946209453651 11.3599600641 126 106 99 
-4.50859449284 0.0193215111586 11.1833301657 60 58 69 
-4.47050033609 -0.124017545218 11.3817843324 137 122 115 
-4.3566683582 -0.207912567078 11.3543454539 147 133 130 
-4.41964978643 -0.112550441868 11.3598882362 138 117 112 
-4.39607318326 -0.157418988071 11.3505780919 181 163 159 
-4.35851197118 -0.0801553086821 11.3619928806 148 128 126 
-4.39643681902 -0.0836830405431 11.3598908223 160 140 133 
-4.39545300006 -0.0816057295003 11.3597122045 122 102 95 
-4.39536289648 -0.081735196032 11.3598585127 122 102 95 
-4.43775778703 -0.0963472335619 11.3674812674 135 115 106 
-4.39059731411 -0.185108268565 11.3500643105 126 111 106 
-4.42897062728 -0.209739593659 11.3482102217 173 159 157 
-4.39189000511 -0.199865830418 11.3486443578 153 138 133 
-4.42082051669 -0.0795007230846 11.3634238454 126 106 97 
-4.49095061468 -0.171724492969 11.4021973114 187 174 168 
-4.40919086453 -0.144599480346 11.3529971041 167 149 142 
-3.49892696179 -0.253990916225 12.3535067242 164 163 161 
-4.40406963759 -0.106376934509 11.3585293898 122 102 95 
-4.42065445338 -0.196735603276 11.3516556751 136 121 116 
-4.41395238017 -0.157226590794 11.3542406516 137 119 115 
-3.82823927137 -0.21676817209 11.9050863364 123 111 121 
-4.4235510437 -0.209173961496 11.349974028 174 158 151 
-4.42565766766 -0.211298246185 11.3501344449 155 141 138 
-4.41469842529 -0.173360612671 11.3518601703 172 157 152 
-4.57392359156 -0.217656262988 11.4652923491 149 137 137 
-4.65048068652 -0.236250846005 12.030420975 54 55 59 
-4.50591307647 -0.167560251989 11.4249481863 150 142 139 
-4.55209043007 -0.179779286953 11.6436621151 34 34 42 
-4.48504126873 -0.0128180042868 11.1684549216 144 143 151 
-4.52731568528 -0.152291089817 11.4473803301 96 99 104 
-3.51850503461 -0.258467255833 12.3356996471 191 190 186 
-4.55687511462 0.0210005279487 11.484355005 48 49 54 
-3.63792545802 -0.387646286247 11.5978603558 138 120 116 
-3.60995208805 -0.231578983452 11.607216145 80 80 82 
-3.59831730904 -0.431777462008 11.4896083349 89 91 103 
-4.27105079068 -0.304871121521 11.4287900193 150 135 134 
-4.23321550822 -0.349767471839 11.5001838929 172 173 177 
-3.10031160681 -0.465004357339 12.6741016933 185 180 170 
-4.51679233348 0.0021812061535 11.188193738 207 206 209 
-4.48674726304 -0.0117366806753 11.1730964528 108 108 110 
-4.52615583677 -0.0137175663402 11.1989456266 177 176 181 
-4.15811810627 -0.144101955146 11.5868943494 108 106 107 
-4.31844011631 -0.196776927248 11.3777739306 120 100 91 
-4.42449144985 -0.0646520111421 11.3676735349 141 122 107 
-3.84992447562 -0.241731059252 11.8803149571 80 68 80 
-4.50278957379 0.00377197573364 11.1781863976 90 91 94 
-4.38714111812 -0.0396646893772 11.3601757222 162 140 126 
-4.38714111812 -0.0396646893772 11.3601757222 162 140 126 
-4.3250288308 -0.210442072419 11.3696144248 153 133 124 
-4.42478157129 -0.252542599079 11.3450209829 173 160 154 
-4.43937220668 -0.151199501515 11.3600435674 165 149 136 
-4.23992043423 -0.342782880947 11.4895652438 170 171 175 
-4.33866025977 -0.0992724648668 11.3657716264 130 107 93 
-4.33881716875 -0.0990099117101 11.3639892125 130 107 93 
-4.45256955977 -0.186438682994 11.3588858337 177 165 156 
-4.45258556328 -0.186168912726 11.3580345029 177 165 156 
-4.37315587499 -0.0289867311538 11.3567725565 138 115 103 
-4.42564694427 -0.0783378477668 11.3715022157 170 149 129 
-4.47013090491 -0.236965136346 11.3622655863 186 177 170 
-4.46984445981 0.0100109466258 11.2582159941 34 36 49 
-4.4659402206 -0.0160471146398 11.1777040747 145 143 150 
-4.36805494717 -0.12452656322 11.3538543671 134 111 100 
-4.26124428948 -0.235473472653 11.440724327 125 108 99 
-4.45595528994 -0.17504061052 11.360805292 175 162 154 
-4.54608077985 -0.0878948884578 11.286605368 116 116 116 
-4.24938801433 -0.291273310779 11.4544334452 228 222 226 
-4.39373396024 -0.0502550507502 11.3601910413 168 146 132 
-4.31038251201 -0.296915961709 11.3819240904 138 123 118 
-4.51535031592 -0.106061079782 11.2105052939 163 164 168 
-4.23865205217 -0.11786088333 11.4621129577 113 93 91 
-4.31645669128 -0.175673049997 11.3780211859 136 116 105 
-4.36992661393 -0.221301459517 11.3479921277 172 155 145 
-4.2539111602 -0.0994165336199 11.4450698085 112 94 82 
-4.29936807204 -0.249562409797 11.3932563958 156 137 130 
-4.45721402167 -0.194481621263 11.3578535871 201 191 181 
-4.56501867623 -0.14083886096 11.46983282 198 198 200 
-4.0698344723 -0.173888321483 11.7648894533 111 109 110 
-3.87028094538 -0.265128262313 11.9054131203 110 100 109 
-4.48315364434 -0.193170313654 11.3740561295 209 196 188 
-4.50364091531 -0.149335008684 11.4155140031 182 177 174 
-4.50991472277 -0.118208805605 11.420964675 124 124 126 
-4.06580957319 -0.217007829354 11.6776292958 134 119 126 
-4.67415352047 -0.254370019169 11.544774713 107 103 106 
-4.53910878337 -0.293742566267 11.4274595588 179 179 179 
-4.32478202332 -0.256066163696 11.3691202838 127 110 102 
-3.55515733545 -0.214146287125 11.3338421446 135 117 102 
-3.87591387822 -0.256181267993 11.8999832426 84 78 85 
-4.48182069137 -0.129769446754 11.4041948538 164 151 140 
-4.32321091529 -0.15498971711 11.3730872776 149 125 113 
-4.40102860369 -0.257957352271 11.3422828856 193 180 173 
-4.24525379254 -0.200721841932 11.4613214048 144 121 113 
-4.33595184433 -0.210757944272 11.3639909103 136 116 107 
-4.44140777211 -0.186204101441 11.3511981756 167 153 144 
-4.23796292801 -0.152457226737 11.4684103634 126 107 104 
-4.33459210158 -0.248740718268 11.3597192327 158 141 133 
-4.5164851294 -0.26699121766 11.406090748 247 241 243 
-4.36977135762 -0.044272923713 11.3645445806 127 104 90 
-4.43794646522 -0.146375527485 11.3547974863 160 144 131 
-4.42863726316 -0.0116254965428 11.2251509746 115 96 88 
-4.33097862881 -0.031120462543 11.3778949162 120 96 84 
-4.37989278951 -0.18936903129 11.3463182867 152 136 123 
-4.32493603351 -0.243241393749 11.3672798139 153 134 127 
-4.48296454009 -0.162873378213 11.3863730094 155 142 133 
-4.50012080676 -0.110004094526 11.4209614314 122 113 112 
-4.42755802699 -0.18061862227 11.349329706 172 158 149 
-4.42692970383 -0.208473267654 11.3482175526 189 175 166 
-4.40941336831 -0.072375428319 11.3621124238 138 118 105 
-4.29528052495 -0.259560404271 11.39919045 127 110 102 
-4.29528052495 -0.259560404271 11.39919045 127 110 102 
-4.40299555599 -0.0771520905913 11.3601884469 147 124 110 
-4.39198068788 -0.132750691625 11.348181252 145 127 115 
-4.46304021267 -0.267219758486 11.3549774575 199 190 183 
-4.40678133615 -0.0368948719514 11.364016309 141 119 105 
-4.25460417208 -0.0764555325786 11.4403533354 111 91 80 
-4.31258906918 -0.152408890655 11.3836289662 130 106 94 
-4.36494138565 -0.219328750546 11.3512787866 168 150 138 
-4.35985259774 -0.0950984780956 11.3633564244 166 143 129 
-4.38343157839 -0.146740099239 11.35089418 170 152 140 
-4.54698387579 -0.0873737276 11.2832049 129 129 129 
-4.33527911343 -0.225960659541 11.3639603996 135 115 106 
-4.34375280359 -0.134502506768 11.3664737803 171 148 134 
-4.43005302096 -0.255078013199 11.3458941597 182 169 163 
-4.32118595934 -0.173350690803 11.3767084797 128 105 95 
-4.52642839044 -0.171184559275 11.4341945541 184 171 163 
-4.52136913281 0.00160570277651 11.1953944211 112 113 118 
-4.45796795014 -0.00955361962394 11.1910838465 151 149 160 
-4.41241035511 -0.160486245143 11.3520431778 158 140 128 
-4.44191793002 -0.00693414727512 11.2028416494 58 62 68 
-4.3430013833 -0.126293189003 11.3632945379 153 130 116 
-4.42221783148 -0.0934823797917 11.3600858879 137 118 101 
-4.38273874592 -0.0610524673323 11.3631723312 144 121 107 
-4.43859976439 -0.10053057071 11.370643807 158 139 125 
-4.42134907177 -0.253751310552 11.3461603865 157 144 138 
-4.38383506331 -0.0662650141083 11.3622555459 171 148 134 
-4.28307920498 -0.0441828242639 11.4044175102 107 90 80 
-4.28142892464 -0.044584226742 11.409011601 107 90 80 
-4.4327966677 -0.161069277412 11.3578788643 187 171 158 
-4.50203252146 -0.277885290668 11.3955750163 178 169 162 
-4.52255098688 -0.247120820227 11.4163811392 200 188 183 
-4.33551162085 -0.182684467132 11.3644014422 155 137 125 
-4.27583939992 -0.04185996407 11.4152032449 96 81 75 
-4.43341504866 -0.190382757565 11.3541030524 186 172 163 
-4.05432215089 -0.0986988562986 11.6910162858 118 105 102 
-4.32396282031 -0.142874042492 11.3723542763 134 110 98 
-4.35388302447 -0.133039758005 11.3605952935 165 142 128 
-4.40765629088 -0.202895964611 11.3474842837 181 164 156 
-4.44120669841 -0.122466713581 11.3687547581 168 152 136 
-4.36268791991 -0.149417868776 11.3548421301 169 149 137 
-4.44725144278 0.00488239302374 11.2542716763 40 42 54 
-4.36833820136 -0.254683193186 11.3498897199 171 157 148 
-4.49179912123 -0.285328491531 11.371150298 231 221 220 
-3.46919358353 -0.249117431202 12.3731267731 70 66 70 
-4.04690356821 -0.12727706322 11.6870484979 82 67 72 
-3.55735123949 -0.227944170044 11.3152668149 135 120 115 
-4.27900744997 -0.0501994359979 11.4121838459 108 96 83 
-3.87261493102 -0.0780119331455 11.3403823421 156 156 166 
-4.48341938942 -0.195426963571 11.382802205 212 199 191 
-4.38547872473 -0.090175982527 11.3603283037 156 134 120 
-4.50601152537 -0.195721433207 11.4172174468 179 166 158 
-4.30805290744 -0.133999378694 11.3837843164 122 103 92 
-4.36383459347 -0.0886316512328 11.3604001913 132 110 96 
-4.45983324201 -0.20098914456 11.3619355781 173 160 152 
-4.41359843701 -0.127769134676 11.3574303271 148 130 116 
-4.33074461268 -0.119196007119 11.3681229065 130 106 94 
-4.37810064507 -0.19947624206 11.3501997265 178 163 150 
-4.401645032 -0.0955421257982 11.3573750422 155 133 119 
-4.23662041955 -0.126443495583 11.4657843668 127 112 103 
-4.34081730145 -0.117536366338 11.3637676337 129 105 93 
-4.34386428727 -0.016444785649 11.3530870049 95 83 76 
-4.30747020843 -0.127610575313 11.3871487892 123 101 89 
-4.37414758945 -0.210130952858 11.34776386 172 158 146 
-4.29723880262 -0.0670864688991 11.3929892321 179 157 142 
-4.35028601285 -0.272571940703 11.3562072063 162 148 139 
-4.49690187097 -0.0461424720923 11.2047054254 75 76 79 
-4.36569756994 -0.150815202619 11.3531861697 140 121 106 
-4.40595574654 -0.16422583302 11.3527717661 190 172 160 
-4.41339342663 -0.168073123629 11.3522557101 156 136 125 
-4.51552811366 -0.166657659427 11.4262619536 218 206 197 
-4.51552811366 -0.166657659427 11.4262619536 218 206 197 
-4.46409647996 -0.0958727056836 11.3870850833 158 138 124 
-4.4458648052 -0.028027218104 11.2111736974 84 83 91 
-4.42733484891 -0.0811519461608 11.3675016488 179 157 143 
-4.37024960904 -0.0160458353785 11.3656608991 143 122 119 
-4.51524842259 -0.21805641395 11.4165654748 207 194 186 
-4.39751762148 -0.0997006128555 11.356469205 145 123 109 
-4.36311920492 -0.140890405291 11.358159491 137 118 104 
-4.39089454325 -0.0597649448188 11.3614269398 139 116 108 
-3.56338696473 -0.215489932225 11.3399275454 182 159 145 
-4.31678344195 -0.0990284994927 11.3721766128 114 96 85 
-4.35497448936 -0.193161431995 11.3551703627 133 115 103 
-4.24722607136 0.0332640640021 10.8522702423 188 188 188 
-4.38605678258 -0.0274976116799 11.3646032037 134 112 101 
-4.35293355947 -0.198979907446 11.3558170568 166 148 136 
-4.35882210675 -0.0378854971743 11.3647295636 126 104 90 
-4.37725014716 -0.0484947828467 11.3631282481 171 149 135 
-4.39921633976 -0.184076515683 11.3497862596 159 142 130 
-4.4706113805 -0.141054293282 11.3819520178 198 184 175 
-4.3728899606 -0.148472950467 11.3532896587 176 158 146 
-4.34733621073 -0.135213640359 11.3602208746 140 118 105 
-4.4527088402 -0.143202251492 11.36941958 171 154 144 
-4.37935446507 -0.233393086213 11.3445266996 156 142 133 
-4.50194891749 -0.281842207795 11.3949511577 177 166 162 
-4.43836899246 -0.187890591 11.3556860322 165 151 142 
-4.40265445069 -0.0548712191603 11.3574721514 124 106 94 
-4.38463225526 -0.165966037656 11.3508839697 189 171 159 
-4.35597421599 -0.235161201203 11.3516037833 166 149 141 
-4.46220342227 -0.186713164205 11.3663426579 185 172 164 
-4.39336676797 -0.131381488546 11.3517239861 184 166 152 
-4.37781273129 -0.177155026164 11.3497403402 182 164 152 
-4.23030535607 -0.0970051700818 11.4706740648 103 85 83 
-4.05604744159 -0.120049864241 11.6879633104 115 99 100 
-4.41964492416 -0.189688131564 11.3513115974 162 148 139 
-4.3254110584 -0.101538412959 11.3704648397 118 101 86 
-4.37384385994 -0.122363396106 11.3553490934 167 148 137 
-4.40508881737 -0.0768195051929 11.3605081016 116 96 87 
-4.38509625156 -0.0732443366222 11.3594473767 178 156 142 
-4.44764707791 0.0095076245027 11.261075368 39 39 51 
-4.42490154082 -0.181520714325 11.3523952925 164 150 141 
-4.42490154082 -0.181520714325 11.3523952925 164 150 141 
-4.41529573166 -0.230129859596 11.346158137 162 147 140 
-4.43119579139 -0.15025197934 11.3565236589 182 165 155 
-4.43037904769 -0.20986748795 11.348976725 173 159 150 
-4.32102981529 -0.121118762636 11.37445924 129 105 93 
-4.32174643496 -0.120864027006 11.3729057951 129 105 93 
-4.36077315522 -0.0392099751052 11.3629910933 158 136 122 
-4.31853463694 -0.176578822027 11.3748615421 122 102 92 
-4.04988753274 -0.0807243885811 11.6922965913 86 77 80 
-4.63492222319 -0.450425712438 12.0551821029 228 228 230 
-4.40106504243 -0.0883116804778 11.359226897 144 122 108 
-4.40335924867 -0.137232794146 11.3535767599 188 170 158 
-4.44398755264 -0.194771255701 11.3559466043 175 161 153 
-4.34067306448 -0.0629777515559 11.3678447651 127 104 90 
-4.38824626947 -0.161790278081 11.3506756381 158 140 128 
-4.30618213643 -0.218701338444 11.3869024974 161 144 136 
-4.47381537941 -0.126103552017 11.3850840211 175 159 146 
-3.83562963047 -0.0799871580153 11.3427330523 76 76 86 
-4.12916465083 -0.205868690614 11.617024189 136 134 135 
-4.32443932156 -0.16252782112 11.3704540199 158 138 131 
-4.35561901833 -0.0383733031927 11.3652765752 121 103 91 
-4.42864565586 -0.210227567581 11.3496714777 172 158 155 
-4.40582387412 -0.24596562223 11.3431657581 186 173 167 
-4.44322787422 -0.242693296585 11.3494467826 179 168 164 
-4.43128777835 -0.187894983566 11.3509907403 160 146 137 
-4.41056793704 -0.162561782668 11.3525060751 181 164 156 
-4.33174211286 -0.194999915755 11.365952926 152 137 132 
-4.33074589847 -0.170976830608 11.3672530798 131 114 106 
-4.37354654396 -0.251873540425 11.3470406439 193 180 174 
-4.42114631506 -0.0795797779436 11.3642745512 142 120 107 
-4.35905837354 -0.0796641632962 11.3604616522 163 143 132 
-4.46820562717 -0.135885127019 11.3824212454 176 159 152 
-3.89936022868 -0.0930440629587 11.3527720231 74 73 79 
-4.36599161388 -0.0259989552308 11.3653626144 104 84 77 
-4.34886289853 -0.0256653704094 11.3691354176 140 120 113 
-4.35047026116 -0.116215710581 11.360518053 131 111 100 
-4.47499814514 -0.168021313235 11.3774878622 160 150 143 
-4.40212369693 -0.15415735661 11.3505738676 151 134 126 
-4.30755486206 -0.127134093072 11.384474122 126 105 102 
-4.39256762327 -0.186106483091 11.3492249838 178 161 154 
-4.36657388282 -0.0996024393444 11.3591293859 136 116 105 
-4.40385622695 -0.196660480589 11.3484294776 184 170 161 
-4.38402341461 -0.113673878267 11.3559266258 173 153 142 
-4.37770531541 -0.0691415660675 11.3593762724 131 111 101 
-4.38653312878 -0.135800028249 11.3538389378 175 158 148 
-4.4375692339 -0.0804398940529 11.3682862652 163 141 129 
-4.33398428892 -0.176006196508 11.3652545514 162 145 137 
-4.40093315782 -0.194535766676 11.3470372881 163 149 140 
-4.35201482558 -0.0275857785375 11.3651675152 112 94 92 
-4.36527853627 -0.0960440065851 11.3577243396 132 112 105 
-4.40237753659 -0.102751639226 11.3579686452 144 124 117 
-4.43259387361 -0.158860291637 11.356873814 154 139 134 
-4.34034577945 -0.138204666989 11.3645496912 150 129 126 
-4.44093402564 -0.15309389509 11.3614564934 188 173 168 
-4.41909334719 -0.243138823003 11.3445729645 186 174 174 
-4.37341057682 -0.0402934099147 11.3631010843 129 106 92 
-4.43857101387 -0.0395098555458 11.23099223 246 233 226 
-4.43750287362 -0.232214447181 11.3510474404 170 158 158 
-4.43395886648 -0.121078389494 11.362196847 164 143 137 
-4.41458480458 -0.0906163589998 11.3593566384 130 110 103 
-4.41458480458 -0.0906163589998 11.3593566384 130 110 103 
-4.40164015313 -0.0956533097211 11.3583199582 127 107 100 
-4.38678850595 -0.1742982115 11.3511244101 136 121 116 
-4.34796987943 0.0357941855417 10.9405572262 182 182 182 
-4.72455872123 -0.348873021858 12.7223615379 172 173 178 
-4.37531157161 -0.254383691511 11.3434571892 153 138 131 
-4.40950557111 -0.102149550054 11.3587223751 130 110 103 
-4.43958880523 -0.185344811913 11.3552270471 183 169 166 
-4.47559881789 -0.188020120385 11.374140511 161 147 144 
-4.48812339227 -0.146275499291 11.4065232724 153 139 139 
-4.50459790473 -0.25083562682 11.4009081389 187 174 178 
-4.4527623807 -0.186570363977 11.3609501374 159 147 147 
-3.64936803373 -0.28749673563 11.6649766692 112 97 93 
-4.64631967244 -0.278338340668 12.308190905 153 154 158 
-4.5908744086 -0.224867829218 11.9338589643 191 192 197 
-3.89622027805 -0.0831205326994 11.3603012572 225 225 235 
-3.85154448873 -0.0873177337102 11.3372154806 122 122 130 
-4.44208922046 -0.0102342055456 11.2017314739 63 65 69 
-3.83924489597 -0.647838817066 11.9180592098 122 121 134 
-4.32846921949 -0.108249340877 11.3737985713 153 127 114 
-4.32449112837 -0.257070535226 11.3725198531 133 116 109 
-4.43518385389 -0.0403148013898 11.2282588899 134 116 104 
-4.50068733548 -0.0498031759418 11.2222906073 134 133 138 
-4.3328314185 -0.255118099902 11.3641244605 135 118 110 
-4.32822726728 -0.280333222414 11.3575931933 160 143 136 
-4.35494652687 -0.0201107984935 11.3678689756 111 92 79 
-4.33629310745 -0.0449014303059 11.372266077 108 89 75 
-4.41821720993 -0.168421292736 11.3555794674 159 142 134 
-4.34325429589 -0.298955773901 11.3637184254 175 159 152 
-4.38390335637 -0.0456808616847 11.3531250836 142 124 112 
-4.35025169769 -0.141310074215 11.3546120985 132 110 98 
-4.41023559153 -0.203021335015 11.3497647693 194 177 169 
-4.39796416716 -0.0339879250176 11.3693151515 145 125 114 
-4.363857285 -0.175977440858 11.3513442941 151 135 122 
-4.39348386581 -0.242768554714 11.3473525836 194 181 173 
-4.44283027582 -0.138600347409 11.3577603876 171 154 146 
-3.86811249735 -0.09968770178 11.3343987989 158 158 158 
-4.27090710631 -0.204444861387 11.4211392765 126 106 97 
-4.4426019211 -0.283684503745 11.3476560775 197 188 183 
-4.395793028 -0.157386139566 11.3498986513 184 167 157 
-4.3972575829 -0.12956266347 11.3437378526 177 158 147 
-4.31180677467 -0.0248587864049 11.369429538 136 111 107 
-4.47481447643 -0.273357081534 11.3606819652 193 184 179 
-4.40673432436 -0.0182907713132 11.3647677247 124 103 91 
-4.45114242659 -0.00139415265316 11.1900227636 38 48 52 
-4.38535627627 -0.173435177298 11.3514747516 186 170 154 
-4.30727918632 -0.136794867769 11.3860364919 150 128 115 
-4.39303283303 -0.295207570245 11.3482730277 179 165 162 
-4.40137207335 -0.183647527724 11.3492474444 164 147 139 
-4.40137207335 -0.183647527724 11.3492474444 164 147 139 
-4.38272173359 -0.212044889127 11.3489865134 166 149 141 
-4.37072553562 -0.227235581925 11.347209571 168 154 145 
-4.41995638225 -0.0900045174336 11.3591668084 162 143 129 
-4.31858934997 -0.251369923253 11.3767246827 141 124 117 
-4.40042145779 -0.186260636206 11.3509651355 181 164 156 
-4.40712613852 -0.283671278166 11.3442772858 185 171 168 
-4.40705377942 -0.205273820189 11.3491404477 171 154 146 
-4.34207772792 -0.225443408098 11.3617149375 145 125 118 
-4.44671940505 -0.0246618882155 11.2161374323 60 58 70 
-4.4213737858 -0.276070595076 11.3370446763 190 181 176 
-4.44714854252 -0.208117253189 11.3534402714 194 181 175 
-4.30705129412 -0.220365737457 11.3870151154 131 111 102 
-4.26445567803 0.0360380197219 10.8474842059 204 204 204 
-4.48442237052 -0.11760000245 11.407836907 156 143 134 
-4.37650296887 -0.20923916244 11.3442216966 175 158 150 
-4.38678000192 -0.0369965263439 11.35979296 160 142 130 
-4.48607946164 -0.116700022058 11.4072075177 177 164 156 
-4.43935395527 -0.137270624284 11.3567238004 188 171 161 
-4.24953305054 -0.240230919081 11.4541749509 146 126 117 
-4.44704229683 -0.0530587353947 11.2391298146 148 129 116 
-3.56338696473 -0.215489932225 11.3399275454 182 159 145 
-4.5030039868 -0.119238804944 11.4141971083 129 127 126 
-4.22930929193 -0.0739240280814 11.4782808928 125 103 95 
-3.86480008809 -0.195457176445 11.914548318 215 213 218 
-3.86503886579 -0.19536153855 11.9140869274 215 213 218 
-4.4981804273 -0.278091798244 11.3926198305 185 176 169 
-4.47703517243 -0.0990319287829 11.3953164094 137 123 110 
-3.65821752666 -0.321281421295 11.6568063349 109 92 87 
-4.38568003821 -0.0202853357545 11.3665166649 111 91 80 
-4.01119318385 -0.0914464121868 11.6758706653 94 89 93 
-4.29242649793 -0.122990070963 11.4003549989 107 85 72 
-4.3569802429 0.0406818624248 10.9207130876 178 178 178 
-4.38519023794 0.0389665002584 10.9446208092 186 186 186 
-4.39695112039 -0.14643562548 11.348667159 148 130 118 
-4.15033761403 -0.233716198772 11.5794514896 139 119 111 
-4.34409150329 -0.214173088774 11.3589200738 165 147 135 
-4.50242157712 -0.283013151222 11.3981636019 180 171 164 
-4.41654461419 -0.127566315679 11.356800623 151 132 117 
-4.40398332064 -0.141080385288 11.3498272183 181 163 151 
-4.43727086007 -0.157758822033 11.3549946891 169 153 140 
-3.83923819766 -0.204681946014 11.8867829109 120 113 118 
-4.52046288894 -0.218423524539 11.4306378408 184 171 165 
-4.48879546761 -0.175078501774 11.4069507247 177 164 155 
-3.86178941504 -0.193326617671 11.9142518641 204 200 206 
-4.45341582724 -0.183195897422 11.3625562232 182 170 160 
-4.32452534055 -0.0813573266165 11.3744672653 147 124 110 
-4.3565216406 -0.208351328654 11.3558767378 144 126 114 
-4.34186278837 -0.231972305808 11.357176449 169 149 140 
-4.44041330984 -0.0862809485537 11.3625041232 182 163 149 
-4.4360645378 -0.108963078126 11.3645567492 191 173 160 
-4.487205021 -0.0940050392622 11.4109099797 166 155 146 
-4.34506579211 -0.0451141104077 11.3653242677 140 114 105 
-4.42914919165 -0.138794556154 11.3574453492 184 164 153 
-4.48494749686 -0.00563757796255 11.1789642461 181 183 188 
-4.5074924364 -0.251011701129 11.3963125798 188 177 177 
-4.41902150925 -0.234615809334 11.3439845938 196 183 177 
-4.33346543039 -0.209095158025 11.36344946 162 144 133 
-4.2405037594 -0.176632934325 11.4560664013 82 78 75 
-4.41002097146 -0.263268151901 11.3391848462 170 157 151 
-3.83553060258 -0.252985397788 11.8952227129 121 112 118 
-3.6792068551 -0.302706959953 12.134111498 88 86 89 
-4.39721944189 -0.0866146417707 11.3585218376 186 164 150 
-4.33688577193 -0.108468942916 11.3664698059 163 140 126 
-4.5511156527 -0.290703732962 11.4444616256 155 154 161 
-4.07110315199 -0.231872017428 11.6688355879 234 224 223 
-4.44401603351 -0.18477846061 11.3619394125 169 155 146 
-4.3396635765 -0.114441588742 11.3671731503 132 109 95 
-4.2945983657 -0.0834072348157 11.3970211214 139 116 102 
-4.31665741812 -0.154939825658 11.377304659 130 106 94 
-4.42107538269 -0.157927821109 11.3511839534 178 162 149 
-4.25978527344 -0.0754290171739 11.4385404272 110 90 79 
-4.24551069788 -0.071609299213 11.4592992883 110 90 79 
-4.41818758654 -0.229209180553 11.3441853548 170 157 151 
-4.35669544789 -0.194612094464 11.3558195521 162 144 132 
-4.33320944096 -0.0297207230988 11.3759006879 143 119 107 
-3.63348197613 -0.0880266260937 11.2868589113 86 85 82 
-4.41593947097 -0.0651129064999 11.3621854954 141 119 105 
-4.40691855002 0.0405147640634 10.9463489312 179 179 179 
-4.0499420765 -0.10004675731 11.6854933409 86 66 75 
-4.3701477178 -0.0238179485775 11.3655483845 147 127 117 
-4.32103806928 -0.134148839116 11.3751665546 145 121 109 
-3.6803703692 -0.339324142621 12.1301590223 84 74 82 
-4.38420510021 -0.130403989307 11.3524658392 146 128 116 
-4.23879981849 -0.179284636377 11.4226399089 218 216 219 
-4.44533199721 -0.135078393483 11.3582230395 174 157 147 
-4.3192332135 -0.179996512177 11.375122547 127 109 97 
-4.41014591286 -0.107487676794 11.3567452326 182 163 148 
-4.51371785611 -0.137576971807 11.4257047763 72 72 76 
-4.41964691905 -0.159725124787 11.3517920571 160 144 131 
-4.22308417161 -0.182812549073 11.4943046705 120 117 118 
-4.51932334086 -0.246627333561 11.4121460591 195 184 179 
-4.26932029726 -0.224792781779 11.427470177 125 105 98 
-4.4901737194 -0.285268623945 11.371980655 204 194 193 
-4.25835703746 0.00559391001135 11.1143125795 171 170 168 
-4.22504098436 -0.0478049212715 10.9037997411 82 76 76 
-4.33580086013 -0.0446354420389 11.373397135 117 92 82 
-3.45682637187 -0.24558983744 12.3790430324 71 63 70 
-4.38934833341 -0.212307638164 11.347272181 188 171 161 
-4.37811084142 -0.0560007935722 11.3630491112 167 144 130 
-4.35236087012 -0.20651920539 11.3561906015 172 154 142 
-4.15100534415 -0.075517603221 11.5752475457 119 102 95 
-4.31652091692 -0.229938542471 11.3788534328 136 116 107 
-4.39462886468 -0.254885918038 11.3441354695 179 166 157 
-4.31675899544 -0.212233910623 11.3757516958 157 137 128 
-4.25275986651 -0.0715828875834 11.4413064576 132 112 101 
-4.3459645757 -0.188605114374 11.3585590345 172 154 142 
-4.22682043562 -0.169402926899 11.4659345532 90 90 90 
-4.36049727864 -0.0202871322646 11.3662608474 121 99 90 
-4.33931008956 -0.279946921026 11.3585815887 134 119 115 
-3.65851636304 -0.177409486082 12.1479687308 86 80 80 
-4.33190134245 -0.235092491209 11.3648157542 155 138 130 
-4.44863753225 -0.161804522455 11.3649736253 173 156 146 
-4.33724935513 -0.285778126462 11.3607933641 163 148 145 
-4.36256431769 -0.104089203897 11.3617821818 143 119 107 
-4.36239789443 -0.117056123793 11.4038860663 149 122 111 
-4.37184007315 -0.0655214700363 11.3558573833 142 119 105 
-4.32395841268 -0.142276399158 11.3715650249 129 107 96 
-4.36215278668 -0.149857669509 11.3580242483 170 151 136 
-4.42176034718 -0.0732835274021 11.3662035781 165 146 129 
-4.33829558916 -0.136192094768 11.3631905089 121 97 85 
-4.2943281989 -0.044555727914 11.3924782707 120 99 88 
