146.397613473 -14.1060642414 -23.3723840912 208 211 218 
133.528097938 -0.00549287373893 -26.4978488265 215 211 225 
141.039589595 -6.84094188937 -17.7523789354 64 65 69 
147.113202238 -16.3897555819 -27.5155211858 43 35 50 
135.846526305 -8.24803856405 -0.241874419707 106 108 120 
138.209139468 -9.99192036323 -12.9699135281 163 145 141 
135.09099914 -0.0121869166166 -27.963728363 125 121 138 
141.413214417 -7.31961031986 -17.9723484227 65 64 69 
141.360556843 -3.85621915089 -17.680513696 168 168 176 
141.294376342 -10.1984519779 -17.5246067024 135 120 123 
130.538807029 -12.33109594 -4.64920519247 122 110 122 
138.803601543 -4.56458508334 -14.7159137759 148 135 139 
138.663002835 -14.5414321015 -14.5668196888 49 48 54 
136.767866867 -19.0042288648 -12.9704352181 201 207 222 
138.414101217 -10.8095684335 -13.8056138017 116 104 114 
131.67342137 -11.7818989404 -4.26668112147 102 97 109 
139.423580805 -3.23299417028 -15.1923066354 161 146 139 
140.651724648 -13.1572526661 -16.758600181 128 127 134 
136.833824653 -3.79836338866 -12.75684398 158 161 168 
142.472955384 -8.4470360192 -18.8099040814 166 149 142 
137.722396944 0.104587235894 -32.7751618268 109 110 117 
131.764468192 -21.6196046702 -5.94144100684 106 112 134 
134.815611028 0.22548128301 -28.1362276056 173 169 183 
139.857709097 -3.24957886164 -15.1678617613 109 98 94 
134.535487004 -11.5202379673 -8.02421864679 81 83 97 
125.802477387 0.51692065487 -18.1593183146 56 61 85 
139.224695511 -12.900255311 -15.7948815979 162 152 153 
138.029907355 -16.7260466594 -14.7383945246 145 136 144 
141.680780171 -9.58806279009 -18.0558045179 142 125 121 
141.711684764 -9.60576632118 -17.9988402854 142 125 121 
130.63214028 0.15725989402 -22.277819125 224 228 228 
130.757487009 -7.41941745729 -5.46318400818 147 134 143 
139.831358319 -9.43275051819 -15.6525734907 159 145 145 
130.357768397 -18.8378916727 -5.22021732156 155 143 155 
142.653110828 -7.98071529252 -19.0805791794 144 124 117 
138.925314078 -9.67372129199 -15.5469144598 179 162 168 
139.943531463 -4.13298504055 -15.7067113537 83 78 81 
142.137291617 -8.57988712879 -18.4184091466 127 109 103 
134.998282059 -1.37971443494 -23.8604970462 85 87 122 
139.149293467 -13.7607250893 -15.7715145192 184 174 172 
131.32320554 -21.1440343691 -6.6512346208 54 62 84 
139.511576291 -4.64124239216 -15.4189168949 130 118 112 
139.547925678 -4.64451918911 -15.3391043113 130 118 112 
139.575631629 -14.7576015685 -15.1365917354 125 118 126 
137.288267897 -7.94856828413 -11.8046235652 135 120 117 
139.771565486 -6.38664841334 -15.4560458186 193 181 185 
140.740031228 -16.9552155101 -18.1179391204 174 163 161 
134.97202351 -14.810283946 -10.2530054316 86 85 101 
139.967550837 -10.99153156 -15.6913242345 125 116 125 
137.969256898 -17.9699183998 -15.1422571885 162 158 164 
142.336428069 -8.53784625635 -18.8467367567 114 97 90 
141.577930606 -13.3048184978 -17.5746240212 65 65 67 
131.662376121 -15.356864894 -4.60052058701 91 90 105 
142.262915291 -8.38757893215 -18.6057754249 141 120 114 
139.337555566 -11.7322802821 -15.8234251137 164 154 155 
137.465428775 -11.1016483896 -12.1935589403 170 162 169 
139.165703342 -9.28743401693 -15.6367196288 170 159 157 
137.837421546 -17.9789793958 -14.5130680077 181 175 182 
137.776048808 -5.55730164363 -12.5066978922 126 128 138 
129.600424127 0.263433678216 -19.3867134343 61 61 87 
131.296661866 -15.2629001353 -5.24429434285 117 114 128 
141.025235165 -10.7872247728 -16.6796840876 127 125 134 
138.376326526 -3.10256112799 -24.4462751424 158 158 166 
140.034040007 -6.29195198074 -15.477117217 69 64 66 
117.114811643 -1.3278277834 -11.4883655635 113 98 117 
137.115442842 -18.7237297997 -12.9913384883 216 219 228 
128.696282111 0.585158894964 -20.0877253606 141 143 164 
133.528069197 -14.3852765061 -5.91492985695 89 93 105 
132.495822994 0.762247577796 -23.4708996706 118 117 130 
132.500969634 0.758563551469 -23.4573462638 118 117 130 
146.022527743 -3.33992471539 -21.7314625644 105 106 110 
140.700686328 -8.56829139246 -17.9173133244 223 224 228 
135.608135609 1.07439161075 -28.6988991011 11 9 30 
140.786328679 -10.3885739264 -16.8229279301 158 142 141 
141.162230258 -7.05672545264 -16.5466726122 60 61 65 
135.44679451 0.301970660256 -30.5300276464 194 194 206 
139.182399162 -5.85212757319 -15.303411458 177 163 159 
139.182399162 -5.85212757319 -15.303411458 177 163 159 
139.830816295 -5.64694418304 -15.7452164261 117 109 108 
139.780645599 -12.9983347949 -16.1711038636 109 106 106 
139.521825638 -16.5304852661 -16.8434952172 141 129 139 
135.576827812 0.692187588528 -30.5541965175 43 45 60 
136.267389347 -0.511415131182 -31.9940802652 236 243 253 
131.734450343 0.575609671842 -23.5484110495 29 31 46 
136.762121115 -6.68917119069 -11.8738803552 156 165 172 
136.163808779 -0.344558457631 -31.651418375 188 191 198 
135.339858993 -1.23979813446 -27.377850197 65 64 77 
136.582824927 0.143880232442 -32.1408886878 236 239 248 
141.916155333 -7.20241612272 -17.9161427233 233 223 229 
143.797186326 -9.43711261903 -21.6842158707 229 223 232 
140.469217275 -16.8741421829 -17.6624631935 146 141 146 
141.287681786 -9.64242852672 -18.0660390831 165 145 140 
135.614360429 0.0252092771144 -30.902216573 192 192 204 
139.155276271 -17.6043922685 -17.2278130133 150 150 150 
137.616699803 -14.3912283114 -12.1084221421 85 85 96 
138.863237093 -17.302652526 -17.1571941868 221 220 226 
143.76772009 -10.1818957717 -21.6546433781 236 226 234 
136.96435755 -18.8520397847 -13.1723205073 113 117 125 
143.900466655 -10.0394228534 -21.8526862986 159 154 162 
142.410519024 -3.50137692251 -20.1699017208 226 227 232 
136.086743112 1.32611511969 -29.7123848252 38 41 60 
143.71281559 -10.3644200114 -21.3438550632 98 90 97 
143.433803998 -10.47463255 -20.3954535602 96 84 93 
143.865883178 -3.31826459688 -20.6626568736 67 68 73 
143.869536923 -3.32057425928 -20.6569484865 67 68 73 
136.333830922 -1.53987225093 -30.7134056846 68 67 84 
137.143348182 -18.9991834068 -13.3795666276 194 201 216 
141.194791172 -13.6636617541 -17.8351766508 145 145 147 
133.574462872 -1.60357790194 -21.915745484 80 84 90 
136.453592575 -1.62152057621 -30.7406442641 228 228 238 
139.048680848 -3.6249712904 -14.9543390389 167 147 141 
141.181665998 -13.3897711241 -16.7728570346 96 96 98 
138.986318398 -18.1444526412 -15.666483387 161 160 164 
141.419026832 -7.99952814281 -18.1422829418 196 194 197 
138.649180405 -7.78992599651 -13.9668978548 141 124 123 
135.983468679 1.4364013645 -29.3024069745 212 214 231 
138.167168576 -9.23364675326 -13.4702193585 155 138 134 
143.435145981 -7.88233768821 -20.3936572873 165 144 140 
134.904549023 -7.19063671058 -8.10670701674 200 198 212 
133.412532816 -0.452191946438 -27.0921344481 215 215 223 
137.66507028 -18.7650459631 -13.8842977256 149 152 163 
141.242959023 -10.4677755304 -17.3866769195 161 145 150 
136.845672659 1.25688699632 -29.4123804586 200 202 217 
136.804235353 1.27466528102 -29.4874333089 200 202 217 
136.497557687 -0.162963775384 -32.0103713489 229 232 239 
143.535159234 -9.08834305005 -20.0437629644 140 115 110 
144.299584213 -7.87310551498 -21.2568850568 168 147 144 
141.514662143 -10.6511117138 -17.673044372 107 94 96 
138.789643148 -6.27637847721 -14.7726126939 146 136 141 
136.987903523 0.241633890051 -30.9712706742 194 197 207 
137.17347277 -4.40281693791 -13.3338133512 161 164 168 
140.424727405 -16.9302727639 -17.8703528564 148 141 149 
137.834147976 -4.52065620843 -14.2481156435 199 199 207 
144.547747276 -9.05370890129 -21.2046579188 101 86 91 
144.052438444 -10.213638262 -22.2555575726 231 232 235 
142.46712322 -8.96309737957 -19.0190911344 140 123 116 
142.545304634 -16.6137576412 -12.3310494571 236 236 238 
136.310039505 -0.680919880141 -31.8411234369 68 73 92 
138.686304705 -17.5959393292 -16.8689944304 147 144 150 
131.603126881 0.394133213713 -23.6493491018 219 218 225 
141.885484787 -6.69086039656 -17.0883845778 190 191 196 
135.576008532 -3.83181777863 -9.44496188914 94 97 104 
144.039863239 -9.48369584591 -21.8792748764 162 159 170 
135.516689577 -8.54548942174 -9.80508112001 171 151 150 
143.838147309 -15.5444476726 -21.8626924966 181 169 170 
143.959082794 -8.30369546917 -20.9147296234 165 141 138 
143.958186498 -8.30373055695 -20.9162126043 165 141 138 
138.724671283 -12.9397747218 -15.1477723709 131 126 132 
137.929632876 -19.0875714081 -13.8656553366 195 199 211 
142.833911086 -9.45699850003 -18.9001751323 150 132 128 
143.562496935 -8.46105015523 -20.41324365 161 137 135 
138.606481563 -11.0334260518 -14.7896042768 102 100 108 
138.83284519 -11.7371684247 -15.412643255 140 134 138 
142.063165619 -7.20603843973 -13.5633493765 67 71 74 
135.851976673 -0.864120253603 -31.0999653581 32 41 75 
137.136655227 -3.28640178219 -13.5293697515 171 173 180 
143.230150481 -9.68625660156 -19.7063153416 127 109 107 
143.947727949 -8.16739649985 -20.9020822438 132 108 107 
138.012969013 -5.97545756228 -12.8387552679 56 65 72 
143.80359844 -15.2775114706 -21.8740460093 172 160 162 
143.172103135 -9.80078757353 -19.812703978 166 148 146 
143.132569752 -8.75859021239 -19.8547143718 136 115 110 
136.300326732 -1.60873909339 -30.7988163172 97 97 105 
131.113638395 0.0760803798602 -23.4174352741 183 186 191 
141.298686822 -3.1032692438 -16.8289961422 228 226 229 
141.812367473 -9.14110758278 -18.1329022167 120 107 109 
138.727431095 -7.1021256362 -11.9575165183 99 102 109 
144.302108211 -7.76105914942 -21.1891262537 143 122 119 
136.54521168 -0.00242881244267 -32.0580402472 198 201 208 
132.80815267 0.367419348894 -23.2065310719 132 131 139 
141.848568307 -13.5825327524 -17.7540261599 155 156 160 
140.109429575 -8.84871053894 -17.5329029446 154 153 154 
140.103219958 -8.83877215729 -17.5418147882 154 153 154 
139.539796439 -10.3245250493 -15.6097546853 140 124 122 
139.544982265 -10.331000902 -15.5949447635 140 124 122 
132.478289848 0.53486178666 -23.5238841878 149 148 156 
140.576408113 -17.1500196093 -17.941761472 171 160 158 
136.128637194 -8.27392938445 -10.2731914558 165 145 144 
138.212682785 -13.7310154653 -13.0849051759 157 161 169 
138.011683573 -13.9680328584 -12.4080701555 176 179 184 
140.52360883 -7.35755669098 -16.3722751529 190 191 195 
141.615663585 -10.9901062167 -17.3760029454 112 102 106 
140.600032368 -16.9827403674 -18.1824047812 149 138 134 
139.310496469 -14.7601970592 -15.2028509105 164 154 162 
138.302912129 0.923172505752 -32.1779356969 179 181 201 
140.454503391 -17.2230884343 -17.9416114787 161 154 154 
142.813217162 -9.8074739419 -19.268096266 135 119 114 
135.670588708 -0.386292769115 -30.9987134418 187 190 197 
140.602647749 -16.707239168 -18.4189667302 146 135 133 
137.17084457 0.448425133852 -32.728100958 211 211 223 
145.479806038 -13.5383181337 -23.4041123829 217 220 228 
136.874004805 -0.375713804796 -32.6264386 240 240 245 
144.411696645 -9.71270377022 -22.4716713144 226 230 239 
144.761123869 -8.48921475277 -21.8117052048 153 131 132 
133.120317038 -1.31188215709 -22.617381582 67 68 89 
145.104252709 -7.40526009901 -22.1088559961 147 128 129 
145.871777733 -12.6619005379 -23.1544743249 229 232 241 
144.654197757 -10.8838554736 -21.3632858672 122 118 123 
145.263128895 -14.9590029641 -23.7235823045 137 124 134 
145.297434547 -9.95858421067 -22.9438766732 164 145 142 
145.952621392 -10.4228931897 -23.0034564568 94 78 86 
144.638229159 -3.80789390856 -20.5141330164 199 200 204 
135.858780887 -0.542579767461 -31.7314783312 234 234 241 
138.448302545 0.240903452094 -32.2509850744 29 32 49 
145.66304915 -5.60761294942 -21.578085081 125 126 120 
142.414964337 -3.19302035237 -20.5330373758 150 151 156 
137.128706032 0.0110958863994 -32.7050274065 155 39 65 
137.122222795 0.0141417931483 -32.7134601924 155 39 65 
144.928123591 -10.803378345 -21.6512344021 148 141 152 
144.807643366 -10.7258765379 -21.8376034114 148 141 152 
131.916433581 -0.9374975919 -23.0662860298 111 102 134 
141.876948251 -8.5005978917 -18.4207339285 167 142 134 
144.852720045 -11.1185406293 -21.5128375717 227 227 235 
136.299751755 -0.732908367806 -31.8388482226 48 52 75 
141.900634708 -14.5958497586 -21.0450052552 163 150 158 
146.253046052 -10.9055399233 -23.3318801958 117 115 117 
136.860599904 0.707052711004 -32.6928014411 49 50 68 
145.887216806 -10.0186089574 -23.5493269093 158 137 144 
136.961443669 0.653549984405 -32.9181932809 187 189 204 
144.399595176 -12.9010459968 -21.2987764683 210 210 220 
145.794997302 -7.24188876133 -22.9667835976 127 116 120 
144.494036128 -11.1436413671 -21.1221754138 207 206 217 
137.159672353 -0.208661884635 -32.7774709211 240 221 219 
136.950914989 -0.512479736075 -32.7242542178 251 248 251 
145.450018798 -10.3719841258 -22.8460213087 100 84 87 
145.450018798 -10.3719841258 -22.8460213087 100 84 87 
145.901594346 -10.35386262 -23.3776377579 95 81 89 
144.742467558 -12.9178469235 -21.6372319825 224 224 232 
146.767503078 -8.89538107602 -24.4254326966 149 128 123 
145.534235301 -9.25972757963 -22.5669192133 159 140 139 
146.300511395 -10.4273017493 -23.4565056136 109 96 101 
145.172555612 -10.3393342767 -22.8735861298 94 79 82 
145.172555612 -10.3393342767 -22.8735861298 94 79 82 
145.728819773 -10.3861161488 -23.0766174511 89 74 79 
136.68603396 0.0323486628521 -32.2971002137 206 206 216 
137.460271122 -0.448082540588 -32.6027984271 114 56 74 
143.742733311 -10.4827142504 -20.6354801445 91 80 82 
144.078328967 -3.31341057952 -20.7007357601 88 89 94 
144.831491009 -6.67084060593 -21.1728705368 223 220 216 
138.821907228 0.651311629493 -31.7416215718 49 53 65 
144.268249828 -3.84358041672 -21.638945498 108 110 109 
135.252020006 0.37935117292 -30.3742612006 182 181 199 
135.592869325 0.223677532379 -30.7104902857 224 223 236 
137.472592874 -0.205174077251 -32.8266699015 79 26 36 
136.655111269 1.21981350591 -29.2403284737 29 30 50 
144.957607468 -5.51973092253 -22.1769854953 97 98 92 
145.230697372 -7.57183821144 -21.1423378172 179 155 151 
143.955047321 -9.80108859396 -22.0724268375 214 213 220 
146.361445984 -8.24499406257 -23.5267759563 129 111 109 
138.434971879 1.17931906749 -32.009786585 220 222 235 
145.413214253 -9.52988694705 -22.5815089512 157 141 141 
146.175143495 -8.27471466097 -23.2100506642 127 108 102 
145.984014627 -5.89800296896 -23.3688435763 48 42 44 
143.63716732 -10.1408021291 -19.9500501873 161 148 144 
143.568132302 -8.86110440036 -20.6627341274 168 150 147 
138.151875175 0.160393027021 -32.4471060718 166 170 190 
135.54029707 0.798192786253 -30.7887966302 9 12 31 
137.498018984 0.185996589197 -32.7980346525 217 200 211 
145.826091913 -9.69036071839 -22.9639198444 131 110 105 
137.651028594 1.22603573593 -32.223136313 11 12 33 
143.659921475 -9.26646047994 -19.9322631835 171 154 146 
144.957131316 -12.7485212197 -22.7436740771 221 221 231 
143.789084112 -8.78925790145 -20.4026673749 139 121 117 
143.678985087 -8.73379015468 -20.6230159318 139 121 117 
138.3298384 1.32880551334 -32.1413634594 221 222 239 
139.20236621 0.142737695276 -31.5887414742 171 174 189 
144.376065439 -8.71865974807 -21.4961843513 135 123 121 
146.154267334 -2.15977986078 -23.0755287266 137 121 124 
142.746208065 -9.42252007867 -19.0844827967 153 135 133 
143.704619293 -9.88811971211 -20.525045645 125 112 112 
139.051737879 0.566171784366 -31.5899411594 115 118 132 
141.964695117 -6.09787216105 -18.5559284295 68 67 72 
143.545629259 -7.70839040471 -20.1498219561 159 142 135 
144.747723507 -10.3535910742 -22.5625775011 111 100 109 
141.549338384 -0.938791894167 -29.363250199 188 188 198 
144.905647029 -8.83189618059 -22.2506717477 124 112 111 
143.180609794 -10.5717433413 -20.453379694 183 173 182 
146.542485192 -11.0979087447 -23.1002925422 164 164 171 
137.34189631 -0.279196987644 -32.6939826963 129 87 92 
146.593661779 -8.46578636063 -23.2990236481 159 139 138 
144.433675679 -3.4632917874 -20.1387561896 80 81 86 
143.181679652 -4.27888908723 -19.7675329618 110 113 118 
144.548629399 -6.70948098854 -21.0619063783 221 216 218 
144.508523652 -8.76740288446 -21.9535611195 102 86 96 
146.512152715 -8.57086755245 -23.1586306897 138 118 117 
137.374549317 -0.207074554614 -32.8143704743 169 121 123 
132.649900147 0.26352673803 -23.5031011632 50 52 67 
137.712923933 1.14665881294 -32.1474216822 63 64 85 
136.182133212 -1.5094335186 -30.6761090744 72 71 89 
137.803564057 1.14110795416 -32.4801269241 89 90 111 
138.619840968 1.26902673374 -31.9402576333 163 165 177 
137.250694458 -1.55388359572 -31.8611259124 90 89 104 
137.250694458 -1.55388359572 -31.8611259124 90 89 104 
145.34502919 -9.86132587632 -22.3501704016 146 135 137 
139.737684669 -5.58980138081 -19.9282092878 66 66 75 
138.288597481 0.35198453614 -32.3598957182 58 60 80 
144.888021271 -10.9369777208 -21.4512937591 165 162 172 
143.748463681 -9.04318236758 -20.443309426 126 108 106 
144.439393607 -10.2359874526 -22.7380091249 214 206 215 
144.081470326 -8.10862574491 -20.7614479312 164 147 140 
135.040095174 -0.478383386541 -27.9704507656 148 138 155 
143.968072011 -8.17348446715 -20.8584342714 135 118 111 
137.394375222 -0.0672766272538 -32.6941388713 140 38 52 
144.462731138 -10.2480907924 -22.0240881919 212 209 215 
143.655690129 -9.09974411361 -20.6238420079 128 110 108 
135.718401851 1.07264941793 -29.6377640049 21 19 40 
142.728528909 -9.53424137444 -19.2679506647 177 159 157 
146.300583038 -10.8746986234 -23.3132732423 104 101 105 
138.548858847 1.19200279776 -31.9984878109 124 126 138 
141.528455751 -0.846059211342 -29.4464375497 66 65 78 
143.041116774 -15.6255215691 -21.2793652501 175 160 163 
145.174304215 -8.37910259345 -22.565158105 172 149 146 
136.851033114 0.403506045366 -32.468973903 169 169 182 
133.849886409 -0.0760636944779 -28.0940384635 231 229 240 
143.610164209 -8.37195639471 -20.2966484533 136 119 112 
143.00998709 -7.95083132321 -18.8364758409 143 126 119 
143.794538248 -9.50065627717 -21.4882887952 231 221 229 
146.090571547 -6.03456123363 -23.192279603 202 196 195 
135.970950055 -0.0113242659517 -33.4243205045 217 217 227 
139.088869195 1.01483833626 -32.77151918 24 26 47 
138.993473618 0.972058080328 -35.3029921547 223 227 239 
139.290711545 0.781421300422 -35.548578549 59 62 80 
139.369598305 0.538257438381 -34.9784754733 217 222 240 
139.190715549 1.39297012614 -35.3075356714 225 228 243 
138.967781578 1.26032726529 -35.2254163131 40 43 58 
139.38798573 1.06559382473 -35.4984713761 213 217 228 
139.38798573 1.06559382473 -35.4984713761 213 217 228 
154.047436682 -10.1100344393 -32.7616690395 94 77 82 
139.208793655 0.711147788677 -35.3854805565 44 47 65 
135.384164734 0.603039998264 -30.8210840252 41 42 62 
140.132613721 -8.08840169667 -17.1078618772 151 151 155 
141.014331516 -0.250440683561 -32.8976533214 52 51 58 
137.501392917 0.0855342945269 -32.849212306 124 47 58 
139.096393254 0.586845458217 -34.9739022089 120 130 141 
137.394598682 0.279923577096 -33.1220574417 134 137 154 
139.457098251 0.778315343157 -35.7580056684 28 30 49 
135.402684388 -0.658107596607 -30.7962966138 230 204 221 
136.84795138 0.964978596391 -32.2877954145 6 7 28 
139.05166425 0.731468965475 -34.7113059189 87 92 106 
133.150814913 0.248605888862 -38.1970606181 195 195 205 
141.152194576 -0.142216981994 -32.5786753763 219 217 226 
139.240955729 1.14309197717 -35.5736805011 216 220 231 
141.518854532 -0.309828235226 -32.4002113908 131 133 144 
136.455867961 -0.163881495238 -32.1050198701 227 227 235 
139.17528084 0.776551082543 -35.2680834553 217 221 239 
139.091712156 0.559952609263 -31.7875800913 91 94 109 
131.635876946 -14.9519565719 -4.31319597409 70 68 85 
138.147594949 0.0852881636304 -32.3443840976 100 111 117 
137.367185108 -1.5261939501 -31.8149106823 220 220 232 
137.283449402 -0.609248783891 -32.7350672662 75 54 73 
137.270302263 -0.618509262156 -32.7367034634 75 54 73 
139.356135948 0.64096481609 -34.42180136 180 188 201 
139.356135948 0.64096481609 -34.42180136 180 188 201 
138.714807337 0.994096394727 -31.8164401358 189 192 201 
139.455598269 1.22311679982 -35.2093742762 37 40 54 
137.409977835 -1.49072601166 -32.1369401479 217 215 230 
134.298341746 -0.0651500850992 -35.912821705 206 206 214 
137.346471266 0.2900332252 -32.9376792018 182 185 195 
133.23551874 -9.18907942702 -6.59128318692 129 110 112 
130.428812612 -16.9472590135 -5.12466246231 131 118 133 
130.365436019 -16.8359431788 -5.05637210103 169 157 171 
135.607277763 -0.312113765934 -31.3688180035 219 217 233 
138.244160797 -10.8697347754 -14.1941613271 171 170 176 
143.720887957 -6.69077887903 27.4927627151 206 204 210 
130.220803595 -6.04763046211 -4.10822940451 131 115 122 
120.219161443 -4.44480124501 0.900382557248 95 82 97 
137.796172215 -17.5608529624 4.3304177188 112 114 137 
132.478821183 -14.9873870993 -9.54902413988 158 148 156 
131.821947464 -13.5975025172 -4.48466279978 164 164 179 
119.216778992 -6.18369426056 1.03321567042 87 75 92 
142.892902723 -6.28289113918 -21.7861983332 81 80 86 
132.900284708 -16.2464581244 -7.76759624304 176 166 174 
135.651979152 -9.74898251864 -9.73455049469 133 118 123 
123.565115776 -2.10796706174 14.280916005 186 184 189 
128.976873629 -1.47555272773 -53.9449218336 200 197 203 
132.538590274 -11.5241605576 -6.04823952871 88 87 105 
125.929401133 -0.00950388710449 -18.8723513582 177 180 199 
130.86802293 -11.1138522063 -4.8093014301 112 99 109 
131.404959421 -37.2712674783 78.0233367146 211 212 216 
131.5435258 -8.44072211212 -4.3089830129 135 120 128 
123.200222129 -1.38276344701 13.8232935905 195 191 197 
126.03539806 -12.4742620125 25.4103497239 102 93 105 
130.418005141 -16.4463797242 -4.37957264673 153 142 154 
125.606308623 -2.39162825917 24.7826851165 84 79 85 
128.77429832 -0.423027862459 -20.1441493035 77 80 99 
151.865322166 -7.55813042081 -30.3544343416 155 139 142 
134.603388486 -1.20564083592 -27.9129515769 215 211 232 
130.491336757 -6.72551784156 -4.14551206925 156 143 151 
137.155277448 -5.88664161557 -11.5747258863 116 121 127 
129.400572111 0.972881832757 -19.8334152884 28 29 50 
137.531442677 -4.89285436593 -14.0225097931 211 210 218 
139.625735373 -10.8514018166 -15.7040997025 119 105 109 
138.460012224 -7.08931087289 -12.7701430443 199 199 200 
130.8653047 -14.7325527127 -5.16503304403 98 86 101 
133.492865816 -9.45460861443 -6.83369888249 128 112 115 
131.955851114 -7.706000228 -4.87829291224 216 216 219 
135.229461249 -8.24582836685 -8.92824273258 152 137 141 
125.240662092 -7.26394329048 24.8492672553 141 135 145 
131.920444688 -19.7942392119 -6.97197830196 162 161 162 
131.877327197 -19.7274716361 -7.13672413835 162 161 162 
138.105257456 -11.6808809914 -12.1653336285 160 169 176 
131.28826427 -10.9116306291 -4.38492516454 115 102 112 
121.794153511 -21.6424842076 10.810960321 68 69 92 
138.490846691 -13.18623607 -13.3154089776 193 200 202 
132.781015406 -18.3699904307 -8.1252063189 140 134 141 
138.195765409 -10.7997290471 -13.6887648029 110 100 99 
139.193710784 -13.7896098929 -15.6775008798 187 177 176 
137.038050915 -2.89343814039 -12.7237642312 49 40 49 
134.354833889 -18.763088081 -10.3844982963 139 146 156 
125.146597188 -8.6004215818 24.5166968441 98 93 108 
137.920269092 -11.3548918756 -12.3059954101 110 113 122 
130.634633437 -19.9556528683 -5.15295924269 151 144 152 
138.85897344 -6.77730355952 -15.263909081 139 129 123 
139.049752483 -6.53571415696 -15.2434651515 154 144 133 
138.879374394 -12.4544273154 -15.6134635052 146 136 137 
139.084334817 -3.3740240231 -15.0425112236 165 146 140 
139.897564781 1.28773894651 -36.5222488817 216 219 233 
130.380250236 -16.5087671861 -4.78219102365 136 126 137 
135.0269342 -18.2508581325 -11.0632120655 146 143 143 
121.98820455 -10.8788106429 12.6363028651 90 84 98 
120.663496885 -6.1216056995 2.33007904392 202 190 191 
136.308409064 -14.4338918635 -10.4275010205 132 141 151 
128.73602997 0.718070126648 -20.0814053124 170 172 193 
136.153113338 -19.0435946943 -11.6843648443 145 149 162 
140.173115509 -10.8559350542 -15.5833929847 150 141 153 
133.550227204 1.26826231645 -25.6496602448 34 35 53 
134.372522329 -7.12907989355 -7.16606419961 154 159 162 
140.863495363 -15.2168784981 -17.6280789572 157 141 148 
137.136707426 -4.18564558306 -13.3115032699 223 226 231 
121.68207253 -5.85597964654 12.0288901672 87 85 96 
147.862042151 -12.7765659627 -25.4067515084 215 216 223 
135.813633462 -10.9273852471 -10.4255928579 101 93 99 
137.885757783 -17.5334385817 -14.5610649625 181 174 182 
138.251240617 -9.91320046039 -13.4864597482 157 136 137 
132.940655216 1.17074880312 -23.6549453715 73 71 91 
140.610792872 -9.70929598819 -16.6707752878 145 133 134 
131.139334414 -0.410032454598 -22.7464227064 217 220 226 
131.967792712 -13.5046252532 -4.80977111844 101 108 124 
132.508180196 -10.9635934197 -6.09810181608 136 123 135 
139.429018484 -12.186814526 -15.6623266689 166 155 158 
138.944627538 -13.7666818281 -15.7070922607 177 166 170 
134.627200371 -7.97052848003 -8.05962394843 122 106 107 
127.614417857 0.568211116471 -20.324600333 39 46 68 
131.667020081 -4.05064946339 -4.83147297587 83 83 86 
139.507200802 -5.09222254955 -15.1386704377 170 155 150 
138.377562846 -9.55588068602 -13.6266765936 149 135 140 
134.94701029 -16.5584626603 -10.8498641155 170 159 168 
139.363386165 -7.32723458181 -15.4514538566 145 130 127 
137.950186382 -8.26313714191 -12.9933664783 146 125 122 
136.113624494 -13.9354680385 -10.244701205 78 82 95 
139.281456737 -12.6741026111 -15.5569919583 172 162 163 
123.490652439 -8.44532740837 13.9690349871 131 130 149 
118.095776779 -11.326286061 -0.970298550564 47 47 68 
117.220599681 0.583266334762 -10.6450953976 76 67 84 
134.401027482 -8.36170277988 -8.03812140596 137 117 120 
142.323542101 0.303510762136 -35.8177049797 145 149 161 
130.958992368 -17.0301369126 -5.52802604148 139 127 139 
140.323089478 -14.8499298011 -15.7075121064 115 112 120 
135.821856309 -18.170890061 -11.6460239227 149 145 145 
131.583139737 0.357228044015 -23.4386209787 218 220 229 
137.56571776 -11.3304911701 -12.5631019807 111 110 122 
130.401402681 -20.2642317739 -5.12647252991 154 142 154 
141.808821777 -10.4058737144 -17.8638032569 166 146 147 
132.222670242 -6.29251230523 -4.11970873691 101 100 114 
134.915503132 0.5758160459 -28.1228420989 67 63 80 
137.415739246 -3.74472997184 -13.3539207828 208 211 216 
139.108060002 -11.7104579499 -15.7922558809 145 135 136 
140.651406992 -16.6807716134 -17.8669740415 136 125 127 
142.593047846 -9.19297074585 -19.4252766477 169 151 149 
142.593047846 -9.19297074585 -19.4252766477 169 151 149 
137.557503296 -8.33159329547 -13.2419151713 137 116 113 
139.758072594 -13.775650433 -15.7130407816 114 100 103 
137.741616213 -4.49644868239 -14.0340700496 228 228 236 
157.56867631 -11.058848579 17.9323018637 84 78 86 
138.738594532 -7.32726051222 -14.2376261238 96 95 100 
138.776485397 -11.6802972388 -14.7414474912 100 95 105 
130.711603335 -9.82908470143 -4.54357123312 104 92 104 
139.67579183 -10.1207214692 -15.714054981 149 133 136 
142.24508854 -8.24935403238 -19.051215305 151 132 126 
138.655585741 -8.81831601898 -13.7244765223 129 109 111 
133.000384657 0.0118346195959 -23.0330830306 164 163 171 
139.849093428 -12.0428590628 -15.6640420188 145 139 144 
139.67148841 -6.57607098772 -15.4502348863 116 102 106 
129.386148561 0.513237686782 -19.4984107101 193 194 212 
128.978217155 0.898297901865 -19.861631779 201 203 217 
138.090651018 -3.37196804937 -13.8289372065 180 181 186 
139.290150351 -12.6786582896 -15.5300477372 171 161 163 
137.923051077 -18.0657232815 -14.6546478599 161 157 164 
138.980718205 -3.24027808639 -14.840380835 147 134 132 
132.913340029 -5.77595364158 -5.0435991837 72 74 87 
130.711753978 -22.7709318044 -1.89023137247 161 149 161 
136.365335311 1.08546629216 -29.6064879414 17 20 39 
135.380259427 0.000721883339455 -30.7209087334 115 78 89 
135.685282612 -0.513869271417 -30.5144849104 219 222 233 
131.167280008 -12.9617826266 -5.08137967767 116 102 115 
141.782416371 -3.41544871465 -19.6907032905 99 98 106 
143.884173835 -3.39844799841 -20.7665310176 84 85 90 
143.892543674 -3.38931126041 -20.7731661151 84 85 90 
141.984226461 -12.9306514422 -17.6583243117 173 176 177 
135.364075915 -0.0981562074311 -30.5888486793 146 42 58 
144.141360378 -8.37193179414 -20.9591733806 161 137 135 
139.283598626 1.22808192889 -26.9208725202 52 54 69 
135.173755059 -19.1826211185 -11.0992608591 187 195 212 
137.56571776 -11.3304911701 -12.5631019807 111 110 122 
141.225436785 -12.7988233044 -17.6696074983 139 142 143 
133.338188494 -0.372698397832 -26.8638484379 180 180 192 
132.159875936 -21.1453284661 -7.01911748976 190 197 222 
141.161373742 -12.7112457116 -17.8990155893 138 139 139 
141.306807155 -6.33475455823 -17.3182925442 188 189 194 
131.742678918 -7.64668054708 -3.93793288857 75 72 75 
136.660075939 1.22466654023 -29.2101591475 27 28 45 
144.523018409 -8.18602082365 -21.3082669712 128 107 104 
137.784631085 -10.6852480835 -13.8337802074 128 118 117 
130.29806765 0.349990271192 -21.903669824 204 208 215 
138.326222357 -18.8917736333 -14.8713011166 184 190 209 
138.551906951 -6.99778256776 -13.7386437465 201 202 204 
143.130981555 -9.89130200719 -19.9197101987 130 112 110 
139.013413818 -3.25067342035 -14.8212994942 160 142 136 
137.360091418 -5.45867607864 -12.2237777693 207 211 222 
139.857535479 -9.12902369732 -17.0811456455 222 212 217 
137.415832546 -14.5672032346 -12.3934500156 136 135 150 
145.394781608 -18.1251698308 -24.2332615981 113 112 119 
142.1480139 -10.5084201263 -18.2061060619 143 129 135 
134.652180367 -0.571024853858 -28.1565849582 229 221 230 
142.85778957 -8.90497045221 -19.3473421066 162 145 138 
127.824013224 0.0551240577742 -20.1238354763 209 218 228 
143.814385236 -10.2435797549 -20.4741873498 155 139 142 
136.658134956 0.172419423487 -32.2405096631 231 234 243 
135.882653548 -0.0899073066232 -31.333760946 222 225 232 
133.035099923 1.35769139714 -24.4388564346 120 121 141 
138.921290561 -18.6347465891 -15.4098802102 209 213 216 
133.03943161 1.35644672856 -24.4281033252 120 121 141 
144.506029868 -9.1035088085 -22.506930382 51 45 53 
137.986162129 0.827803184873 -32.2450526929 56 57 77 
145.437757573 -9.30086682409 -22.8844235105 160 139 136 
144.14688645 -3.72154064108 -21.3489571952 199 200 204 
135.372499801 -0.103818094485 -30.57312242 157 45 76 
139.06120784 -14.2520676335 -15.8905367419 167 159 161 
140.742457839 -12.5797307853 -16.5272113143 122 124 129 
138.91537778 -18.2402263524 -16.0698880037 229 230 235 
145.984507666 -13.3031714822 -23.2307006751 219 224 232 
138.729221438 -9.93627582073 -13.9200624395 163 142 140 
145.456047175 -3.71244975956 -21.5377171036 198 199 203 
136.105397547 1.49597829739 -29.419594798 31 32 53 
145.325956619 -11.4023843633 -22.70486908 232 233 240 
138.15135602 -11.4710209519 -12.946625937 153 161 172 
143.297655699 -14.1376460931 -20.3380214666 221 219 224 
145.463740803 -11.0537892153 -22.4729375955 208 213 224 
144.70930501 -3.71602501839 -21.1268602677 198 199 203 
145.382005734 -7.40674119889 -21.1685845857 167 145 140 
137.901692386 1.3843791313 -32.0464464267 53 54 75 
137.653868026 -4.94702794482 -13.5991096379 204 205 211 
145.353959904 -9.34131621372 -22.4358156573 91 79 80 
137.42780469 0.683834970778 -32.7559759035 168 169 188 
146.001774415 -3.58644403815 -23.3208488434 214 215 219 
130.309600572 -6.25664389881 -3.99764843828 160 148 151 
139.142644724 -13.4609766107 -15.5598325942 176 165 167 
138.426369028 -14.2936680561 -13.3518158556 196 196 205 
138.426369028 -14.2936680561 -13.3518158556 196 196 205 
159.548706561 -17.098252107 63.774131388 162 163 169 
137.760028694 0.636071769304 -32.7044436656 105 105 129 
135.145202083 1.79344182731 -35.395903426 127 128 149 
145.72837838 -5.47575844112 -23.342647541 117 115 112 
136.264482196 -18.9967071569 -12.3927198058 187 194 212 
137.425040363 -1.50464752881 -32.0484384281 225 222 239 
137.46292292 -1.51330337335 -31.9856531829 225 222 239 
142.591391109 -7.73635232647 -18.9507461122 171 154 147 
138.269269225 -10.5444292382 -14.0717063888 167 153 151 
136.690679292 0.165435376199 -32.1291023069 240 240 250 
139.616727134 -13.2181705297 -15.7971580316 114 103 104 
142.75326024 -9.66770207449 -20.0293148663 170 154 153 
142.767670162 -9.66935082328 -20.0114350088 170 154 153 
137.457552378 -10.6691005129 -12.515594634 161 149 150 
136.278807707 -19.0169424887 -12.3205368898 187 194 212 
141.513872802 -12.6722356435 -17.6440251818 101 101 103 
141.501077593 -12.8062400319 -17.6541416573 101 101 103 
138.838265675 -6.94574183493 -15.1545983345 168 153 151 
140.996910521 0.60239317236 -36.7305520111 52 55 74 
135.278022788 0.182117441364 -30.4667792225 153 153 167 
131.321265543 0.413326736872 -23.1121716332 195 198 206 
143.133547754 -9.1640210752 -20.0536796844 166 148 143 
135.430050218 -0.517457530024 -30.6936837024 232 204 214 
142.909043951 -10.5699571057 -19.4687853003 107 97 96 
144.825236417 -8.94755370045 -22.27720938 61 52 55 
142.047018225 -10.6280779698 -18.2835961401 91 84 89 
130.385415453 0.782695981849 -20.8004983039 56 57 80 
139.413116287 -6.36406562221 -15.2448067554 169 157 155 
139.000342906 -11.1777094918 -15.3923626062 148 138 140 
125.725740083 -0.17097061289 -18.7169581514 177 177 195 
131.399974204 -11.0402719152 -4.42392407776 157 144 154 
146.24480265 -12.9767994621 -23.4217492152 75 78 87 
138.980852877 -3.26207293108 -14.7147146001 156 143 152 
140.459783142 -8.78983002636 -17.4788875429 193 194 197 
140.488550183 -8.80673126989 -17.3908028968 193 194 197 
137.259595256 -7.20568000945 -10.769466388 158 158 167 
141.539463069 -0.94055719239 -29.377758933 188 188 198 
140.507444262 -8.95960270873 -18.0375056013 187 187 191 
138.751492182 -9.45331841255 -14.8511773502 124 110 112 
146.351732998 -12.9221955477 -23.2266573565 101 102 112 
139.529490708 -1.89398495262 -30.3489064788 61 61 72 
136.981150682 -18.7374223991 -13.2205563743 119 123 133 
144.048532491 -8.48419024594 -20.7034455417 128 110 106 
144.056534451 -8.4870894516 -20.6982537762 128 110 106 
138.703446364 -13.3910416323 -15.0817498539 116 114 122 
140.209857832 -13.7230239213 -15.4007882693 148 140 148 
127.856424175 0.156767729382 -19.8698046976 131 133 151 
142.778508355 -7.4619053226 -19.0528884907 182 164 158 
146.174604136 -7.52737671113 -23.6561595851 172 151 146 
138.073114672 -10.8685786322 -13.3474304248 128 116 122 
139.289189978 -13.6505730712 -15.7098102591 187 173 173 
137.572026403 0.695946197928 -32.750813697 114 115 136 
143.467416208 -7.63975713492 -20.0136817618 129 113 106 
136.675528088 -8.33424415961 -10.3255907463 148 127 130 
144.642997465 -10.8044832206 -21.3643960406 123 116 123 
138.861608378 -11.8903074617 -15.5233547658 141 133 135 
140.381640388 -17.0691363209 -17.9889854476 79 75 80 
146.549254184 -13.0256887486 -23.1165430603 175 178 187 
145.542814701 -9.97067565167 -22.8501523858 177 157 152 
140.442671456 -9.73855425333 -16.3255018129 143 132 133 
140.223424096 -7.96058475192 -17.1680937741 165 164 171 
138.874368185 -0.227296146436 -31.4867817237 170 171 183 
144.365705501 -8.55415377586 -21.402974534 122 109 106 
138.670659968 -18.7857420869 -15.2205125107 211 216 221 
140.050592062 -8.78655016075 -17.4806537784 157 155 157 
138.881740961 -13.8288177484 -15.3268090238 145 138 138 
139.980792724 -3.53589401377 -15.2110217019 110 102 103 
137.325147937 0.0107072621533 -32.3842059019 151 43 68 
140.408982075 0.133395051339 -30.5491343961 125 128 147 
135.657877139 0.70279295251 -30.7328538517 70 73 92 
146.300642937 -10.8747288632 -23.3131762217 104 101 105 
140.443185099 -17.5405441083 -17.9932301555 157 155 157 
135.700443434 -0.393278786472 -30.9177321326 192 191 204 
133.480681468 -7.38197127739 -6.34528997006 166 167 179 
133.319586086 1.06768607139 -25.126388141 48 49 68 
139.838581764 -13.4698957592 -15.687089809 147 135 140 
142.185962291 -13.1473000879 -18.6099722558 126 127 128 
146.612354973 -10.4626855191 -23.7239654427 99 89 94 
138.052366109 1.27941426078 -30.2825271818 13 14 36 
145.822181243 -12.4812505695 -22.7945758279 232 235 244 
146.738162744 -13.7837680511 -23.5090163244 219 222 231 
137.049338223 -0.919339959474 -32.5609344479 67 76 107 
155.304689783 -6.96330169763 -34.7334833748 146 124 130 
145.078090222 -12.6348532527 -21.6803555524 233 233 241 
147.14118487 -10.2916300339 -25.0121417329 92 80 87 
144.982886048 -5.90647930369 -24.1569578402 212 213 206 
132.929027514 0.93447234653 -24.4851879959 14 15 37 
142.924154885 -14.5086917455 -19.0687770752 47 46 51 
143.290504489 -14.007202108 -19.7929024174 232 231 236 
134.09795095 0.737070584007 -27.8978963757 60 53 77 
143.54788814 -12.0087829571 -19.5209508911 168 171 176 
146.887669734 -5.43189555947 -23.8757511555 127 126 123 
146.386654632 -3.35644178437 -22.7188666292 79 80 84 
144.867731728 -3.45000417258 -20.9317988968 86 87 91 
146.113227528 -1.62162878273 -24.3653007891 222 221 226 
146.292089651 -10.1034254586 -23.015900018 159 138 145 
146.385211745 -2.35003778604 -24.5900000384 151 152 156 
146.708659157 -9.98215225151 -24.2387873929 157 136 142 
132.207604802 -6.37317115175 -4.46355444452 57 56 66 
138.49620507 1.27955460692 -31.9654795634 201 203 215 
145.969291087 -2.59974173266 -23.5461606055 136 124 132 
135.355273653 -0.509942397265 -30.456708295 131 52 78 
147.362729584 -10.8965825206 -25.1973793849 206 209 218 
134.55617515 -1.19687251611 -27.5085989405 88 90 119 
146.200484139 -2.45244850766 -24.1958661618 230 227 232 
145.987643158 -2.28082576784 -23.5300506327 157 141 144 
147.931376059 -10.3363393231 -25.5104302604 100 86 87 
142.065392086 -3.70832381629 -19.6640814678 217 216 224 
133.045093376 -0.00555978523715 -26.3108074144 204 201 212 
147.218970419 -10.260738371 -25.2344864689 95 81 87 
147.264989141 -4.75605104403 -23.7435060039 184 183 181 
145.672440579 -6.00696643726 -23.6201929285 217 215 208 
146.736419352 -10.3304057038 -24.4718458988 95 83 85 
147.508824807 -10.299416233 -25.3487622977 104 89 92 
143.682199201 -9.80585793636 -22.9466775533 162 162 172 
140.928198562 -7.41006119447 -18.5296363417 216 215 220 
147.716590093 -2.26117395292 -25.2476982028 110 102 108 
146.449411523 -10.3868088903 -23.9059850643 95 85 91 
135.652937055 0.713678426334 -27.5409421807 65 65 81 
136.009473727 -0.460246340211 -32.0454953304 192 192 200 
145.955126737 -6.27235499611 -23.4362114896 123 115 109 
145.979224043 -6.2716669293 -23.3950705525 123 115 109 
136.68769756 -0.802246494149 -32.0022175278 172 183 212 
135.701797732 0.0948585390954 -31.1990710244 235 235 247 
136.310397136 -1.53244747801 -30.7627688251 67 67 81 
135.322538579 -0.50044569055 -27.6343628383 129 118 134 
143.73390341 -10.0525140663 -21.3341539165 141 131 136 
146.740102428 -3.14555429988 -24.0500481978 101 102 106 
146.108444115 -12.9575932999 -23.3547464772 168 171 178 
147.469695982 -7.79864983344 -24.9189626049 174 154 153 
142.45829764 -4.09883182747 -20.0172583636 214 213 219 
146.228965432 -12.9592658542 -23.4615885507 77 80 89 
145.085699517 -3.24877625334 -22.3152736724 100 101 105 
147.541241373 -7.8381883152 -25.4613973632 144 123 120 
139.932977334 0.5289381226 -30.7475368123 91 94 109 
139.21272374 0.142109464587 -31.5720681773 173 176 192 
141.635030949 -7.49445597583 -17.8065538 183 179 184 
139.594141251 0.829526652616 -35.6799533822 204 207 224 
135.435310417 1.38215608799 -28.8150964357 75 77 90 
148.084303663 -8.16651901016 -25.7778949111 160 140 139 
148.744367388 -10.011279979 -25.52908639 136 120 118 
139.051713111 0.566172601321 -31.5899911954 118 122 134 
143.219662682 -4.20519196268 -20.568855168 119 126 129 
140.428841186 0.666058237988 -36.540216766 169 173 184 
146.981909194 -9.90558929369 -24.551010303 165 145 146 
146.184118309 -3.30324488656 -23.9654054175 150 151 156 
145.16182776 -10.2860413769 -22.2636982893 169 156 164 
143.984921167 -9.9679328538 -22.0505979828 165 163 171 
143.997146408 -6.54504250945 -20.4439487754 84 83 88 
143.362119363 -8.75191973801 -19.6288482407 168 151 144 
147.157871098 -8.4452036608 -24.7182332669 138 117 114 
135.459725539 0.160941499898 -30.6961756261 199 193 206 
148.223614113 -7.54721148164 -25.5416197431 165 147 143 
147.118434406 -7.50717201894 -24.4255700059 130 115 112 
148.705511329 -10.9483238276 -25.9105647735 209 208 212 
142.712367763 -14.5157715236 -19.5508046638 112 110 115 
145.969309722 -8.48374977783 -23.2895376943 138 117 112 
146.169212487 -2.57176915646 -24.1354548802 228 222 228 
145.208236757 -8.97440933671 -23.0181905584 140 121 118 
146.108279596 -15.019910102 -25.1498136567 164 155 158 
148.329969143 -2.09980625566 -25.1887057707 152 136 139 
137.099450232 -0.350496738804 -32.664007737 169 136 152 
143.129130481 -16.2784235882 -21.0416902675 174 162 164 
142.363605304 -4.14140341252 -19.5921157861 221 220 227 
146.609750059 -12.8858038614 -24.2807389343 92 94 106 
146.399838959 -10.1095505595 -23.6704344712 157 137 142 
139.287927958 1.32168120963 -35.4228103405 60 63 78 
146.823627163 -7.81351178926 -24.1607211302 165 145 144 
139.128355826 0.851710585456 -35.3562589586 221 224 238 
138.747469835 -0.272959126793 -31.8517047196 123 127 139 
147.933808762 -14.0211504389 -21.5747947422 156 159 168 
142.938871156 -13.5661762235 -19.7439067658 109 108 113 
142.798191415 -3.81120878174 -21.1600962756 172 163 170 
135.154006459 -1.17060997915 -27.4701261255 159 153 165 
145.748658941 -10.5087506253 -22.9151145373 118 102 107 
135.265148309 -0.276103276609 -27.9515082863 139 128 145 
140.560653561 0.644065833766 -36.3531082433 197 200 211 
140.529142726 0.482828055255 -33.238457835 215 223 236 
139.762086813 0.461728347773 -34.4400823444 215 223 236 
142.699860768 -0.494056591987 -34.4247410557 55 63 75 
140.658406805 1.63652422072 -36.4947053466 120 123 138 
141.387063285 0.261676228461 -36.7183766643 194 198 211 
138.101408192 -0.399708067134 -32.4266137729 170 170 180 
138.282010618 -0.433752537693 -32.0726964365 170 170 180 
141.535732757 1.75070768677 -36.373928607 33 35 50 
139.822238299 0.824559241617 -36.4887014418 45 47 66 
139.998504438 1.44789813049 -36.4571073547 234 237 252 
140.160019956 1.33783791056 -36.6945549333 46 50 63 
139.709353235 1.08677661154 -36.3814304256 208 211 225 
141.097424883 0.517458545528 -36.4002533045 213 216 235 
141.084857177 0.650565977325 -36.732743879 83 86 101 
142.029591119 1.62259667377 -36.1922523353 195 199 211 
142.061912178 1.61688860198 -36.1503141027 195 199 211 
139.812165718 1.28225862452 -36.4305400969 51 54 67 
139.799042976 1.28122450045 -36.4510149707 51 54 67 
139.630523688 1.54231112672 -33.1305536392 216 218 233 
141.083298241 0.681257994109 -36.1951255607 79 82 99 
142.501282275 -0.113837199869 -35.4413403415 51 54 73 
143.072563089 -0.138809764198 -35.1298755737 39 41 57 
142.131164227 0.936561096694 -36.1065713577 219 223 235 
143.300471941 0.897396457907 -35.1060144006 119 121 133 
140.923871769 1.42737291362 -36.8019272843 44 47 62 
139.168982877 1.07699194498 -35.5091082633 118 122 133 
139.462823754 0.826804420438 -35.8692347832 200 203 219 
141.922886811 1.30755264433 -36.2516414831 152 156 168 
140.373883713 0.663787987469 -36.6152261453 169 173 184 
141.432222285 1.59194507094 -36.5187506289 50 53 68 
137.386116172 -0.445109948659 -32.574758602 128 53 72 
141.942038748 1.1914387065 -34.8331997207 208 212 221 
144.63760437 0.0763512717772 -33.9797143637 177 177 187 
141.711561251 -0.797759748697 -32.7101878214 124 133 142 
139.59097203 1.48156638982 -36.6061941637 47 50 65 
137.961753433 0.30198436823 -32.7039443361 120 121 142 
139.836329479 1.36117563528 -36.421080687 76 79 94 
137.838349555 -14.4712731219 -12.4148002294 187 190 195 
138.396851441 -3.69581357674 -13.6398060969 55 56 61 
136.517174811 -10.6964584833 -11.5915173932 171 156 161 
132.985922791 -18.3853203845 -8.40478263088 164 157 164 
134.656130248 -8.2191394447 -8.45728407929 152 132 137 
131.321914817 -14.7764003154 -4.84746663958 71 69 90 
136.772501326 -3.29156165728 -13.1786012998 175 175 181 
122.751372579 -14.8087319919 13.2843824367 204 204 215 
137.859107729 -6.72919760983 -12.0342335585 181 186 192 
146.639370009 -8.56682556273 -23.5653489122 136 115 113 
132.723167284 -9.43375226176 -6.19220197645 149 133 136 
136.806847836 -5.49302809505 -12.7149543107 81 84 91 
138.534608558 -13.6520179509 -13.0836628974 87 96 101 
135.932883812 -14.6051206248 -10.5769028433 129 137 149 
128.984420207 -0.0979758705737 -19.9315348025 62 65 84 
131.355654053 -11.097214829 -4.52734282211 137 124 135 
138.658654155 -14.0974009727 -13.1679190938 164 167 174 
132.878129028 -6.60964039935 -11.9769020769 180 181 193 
133.17445333 -13.8464461259 -6.31615700311 86 93 112 
125.123703497 -2.36485406953 24.8988112545 167 162 168 
134.002904788 -12.4052667181 -17.380891101 94 97 116 
134.906112185 -13.9239956634 -8.36902360571 76 78 91 
148.308725558 -7.23686957423 -13.1868087674 171 170 178 
138.689014679 -9.43197617995 -14.3179627445 131 121 137 
139.075899532 -3.36535544826 -15.2345166404 166 147 141 
139.427411279 -4.86733174464 -1.89501984977 72 75 82 
139.536117742 -8.89010213569 -15.4733192377 125 113 113 
120.441874888 -17.4002713357 2.77543544158 122 120 131 
138.940465149 -9.83258310036 -15.494467319 154 138 139 
138.084497005 -11.4347106406 -12.0545580242 110 113 122 
130.425246705 -1.04652145635 -18.6989013327 78 77 105 
139.43640368 -14.0839482 -15.783920682 147 135 142 
138.826059852 -12.895461895 -15.5250043354 142 131 140 
139.142694885 -7.50177981739 -15.3274262904 159 148 145 
122.686050622 -16.5652741736 13.5442619017 106 96 107 
138.805576895 -13.0982347301 -15.4054424318 150 144 149 
120.608795859 -2.80881719807 2.53628462381 108 93 112 
120.705489944 -5.91079999835 2.30135548051 185 175 176 
140.117376398 -16.2706005087 -17.9192679733 158 146 156 
136.017492647 -8.38996710829 -11.2776045496 137 118 116 
136.775331868 -8.3093307002 -11.51225959 165 146 145 
122.366086521 -9.6739325331 12.9704396059 106 94 107 
135.718177284 -0.35595712631 -27.544424814 113 110 129 
140.288766697 -3.68255378818 -15.3980290585 85 83 88 
136.677273581 -14.4500722343 -10.420736677 74 79 98 
139.413302809 -8.01279232053 -15.4300626514 175 160 157 
136.990066448 -16.7766006103 -13.3654913709 146 139 147 
137.961197922 -18.1179961834 -14.562622845 168 164 172 
130.458145637 -19.3808865717 -5.39844079715 126 114 126 
138.901841051 -9.81988915625 -15.5662131578 142 131 135 
143.029952422 -6.64080551778 -16.3465330279 177 178 183 
130.957042042 -11.4643070274 -4.8835546335 125 110 123 
130.841503852 -11.069741661 -4.92569623429 122 110 122 
131.952121689 -21.2250580954 -7.70055829696 157 164 190 
127.625025032 0.569540621155 -20.2857701849 39 46 68 
139.569273993 -3.09238011329 -15.1491637339 125 111 104 
134.1303133 -16.313918737 -4.52303645743 219 209 223 
136.440563097 -0.0508566517986 -32.1446398153 231 231 241 
130.831927355 -20.2228299052 -5.52748337079 209 197 209 
146.57777015 1.25587909181 -32.3612041181 202 202 214 
136.693967798 -10.5395770355 -11.7924997455 139 123 129 
122.682111609 -19.1056218167 12.8549154532 146 143 158 
134.260793583 -15.1242295577 -8.17729259619 89 91 109 
118.820790457 -11.7437209874 0.880786494228 101 96 111 
136.631405549 -6.6508854303 -12.1333008106 156 165 172 
135.099879857 1.39718044122 -27.882026728 31 33 48 
140.281908043 -8.68630857892 -17.1922220097 198 197 199 
146.844380516 -8.9314893308 -24.2774830194 148 127 124 
136.843600464 -3.39748653294 -13.094016208 155 158 165 
140.434030879 -10.9430001067 -16.7415546699 115 117 126 
131.307706061 0.815713091194 -21.0532704884 41 42 64 
139.642966079 -5.65042767102 -15.3302357068 114 97 93 
140.524455208 -9.09034752872 -17.8805827219 224 227 227 
137.281016678 -7.34295775958 -12.0537577754 224 220 218 
132.571880416 0.432048234924 -23.3872842919 54 53 61 
134.340019387 -0.643273867815 -27.9124775781 140 137 160 
134.752475336 -0.752040088529 -28.0349668987 123 116 125 
145.445645487 -10.0188731425 -22.6730515532 161 144 144 
133.242413191 -21.0599535589 -8.4016361568 188 195 213 
143.600155579 -7.37258391783 -19.8885693477 144 132 131 
137.856909095 -11.228307317 -12.8763114132 112 114 124 
140.310869053 -3.37454403441 -18.0707658038 80 83 88 
140.19438569 -8.86816789481 -17.7102837622 156 154 156 
