9.29948902130127 -2.462254047393799 22.329376220703125 255 255 255
12.424297332763672 -5.829060077667236 59.311283111572266 255 255 255
8.5302734375 -4.176126956939697 27.251649856567383 255 255 255
-4.485795497894287 -1.4870495796203613 32.472938537597656 255 255 255
-4.266844272613525 -1.762379765510559 28.72677230834961 255 255 255
13.573439598083496 13.739962577819824 97.90966796875 255 255 255
369.5256042480469 -60.56161880493164 860.1187744140625 255 255 255
17.605968475341797 16.138635635375977 88.90982055664062 255 255 255
117.04904174804688 12.943975448608398 93.35883331298828 255 255 255
112.10777282714844 2.967082977294922 66.55500030517578 255 255 255
111.04872131347656 -11.097517967224121 -59.296573638916016 255 255 255
-7.088132381439209 6.053415298461914 37.452239990234375 255 255 255
-5.410257816314697 -2.5293965339660645 28.73149871826172 255 255 255
7.737390995025635 -1.2267552614212036 22.90581703186035 255 255 255
8.173975944519043 -3.5937461853027344 39.83982467651367 255 255 255
9.01913833618164 4.3054680824279785 31.827987670898438 255 255 255
-6.96182107925415 6.477384090423584 36.425235748291016 255 255 255
35.52964782714844 8.14759349822998 95.30010986328125 255 255 255
27.949129104614258 11.52578067779541 99.76504516601562 255 255 255
31.45815658569336 7.249074459075928 99.07489776611328 255 255 255
25.002893447875977 9.73410701751709 98.90647888183594 255 255 255
32.91996383666992 9.0459623336792 91.63905334472656 255 255 255
21.375539779663086 12.894584655761719 97.99971771240234 255 255 255
31.887910842895508 8.389697074890137 96.7958755493164 255 255 255
25.194791793823242 15.686116218566895 87.25611114501953 255 255 255
27.908491134643555 15.47034740447998 89.37129974365234 255 255 255
35.94613265991211 11.656418800354004 95.89309692382812 255 255 255
-1407.9327392578125 -580.4330444335938 5431.6484375 255 255 255
-4.368566989898682 -0.22968798875808716 29.76150894165039 255 255 255
-15.48153018951416 1.8322728872299194 69.81993865966797 255 255 255
9.863846778869629 -2.387113571166992 63.41416931152344 255 255 255
7.491803169250488 -4.021281719207764 33.2440071105957 255 255 255
-7.052579402923584 -1.2055790424346924 69.73145294189453 255 255 255
-10.833182334899902 11.014195442199707 73.17294311523438 255 255 255
35.93037033081055 11.133346557617188 90.27889251708984 255 255 255
34.86756896972656 14.769731521606445 88.28199005126953 255 255 255
34.17326736450195 10.090126991271973 91.28105163574219 255 255 255
43.12135696411133 14.422234535217285 84.47480010986328 255 255 255
38.286354064941406 11.328903198242188 90.85436248779297 255 255 255
69.03810119628906 13.863076210021973 75.96973419189453 255 255 255
66.98135375976562 14.565095901489258 83.03826904296875 255 255 255
66.02068328857422 15.352113723754883 83.31660461425781 255 255 255
97.13074493408203 8.973122596740723 44.43368911743164 255 255 255
94.12760162353516 13.53929615020752 54.57146453857422 255 255 255
-3.7078001499176025 5.2676801681518555 43.074092864990234 255 255 255
8.125256538391113 -2.610501766204834 18.9031925201416 255 255 255
130.86175537109375 12.212478637695312 70.55274200439453 255 255 255
113.08781433105469 5.894467830657959 71.32361602783203 255 255 255
109.66126251220703 8.302988052368164 75.14679718017578 255 255 255
27.648357391357422 9.293313980102539 97.48287200927734 255 255 255
21.50441551208496 14.912047386169434 83.37647247314453 255 255 255
33.6529541015625 13.683178901672363 79.44782257080078 255 255 255
67.00837707519531 -7.703780651092529 71.0430908203125 255 255 255
42.84502029418945 13.674532890319824 78.49533081054688 255 255 255
-911.6240844726562 -933.6928100585938 3284.032958984375 255 255 255
2.146636724472046 13.005038261413574 106.62769317626953 255 255 255
18.97463607788086 17.435775756835938 102.68462371826172 255 255 255
11.109090805053711 12.369179725646973 101.04434204101562 255 255 255
11.323030471801758 12.022884368896484 98.22936248779297 255 255 255
12.392319679260254 12.63148307800293 98.95555877685547 255 255 255
10.490254402160645 9.177638053894043 99.0191879272461 255 255 255
3.709890365600586 13.405840873718262 100.61809539794922 255 255 255
3.837864637374878 10.872020721435547 102.65338897705078 255 255 255
2.1863925457000732 12.094724655151367 109.33414459228516 255 255 255
6.859811782836914 18.587053298950195 101.20098114013672 255 255 255
11.548186302185059 10.878701210021973 97.67415618896484 255 255 255
3.0622808933258057 8.581108093261719 105.69380950927734 255 255 255
7.7567458152771 -3.2136621475219727 73.50012969970703 255 255 255
-8.398935317993164 3.1099295616149902 43.84770965576172 255 255 255
8.436820030212402 2.347505569458008 30.399005889892578 255 255 255
73.193359375 -6.456606388092041 -24.953327178955078 255 255 255
55.32586669921875 -15.479150772094727 -29.640514373779297 255 255 255
73.09527587890625 -9.876349449157715 -34.403907775878906 255 255 255
82.32638549804688 -6.013474941253662 -35.525630950927734 255 255 255
49.7927131652832 -10.858965873718262 -18.698190689086914 255 255 255
81.92860412597656 -6.816498756408691 -24.751380920410156 255 255 255
12.489750862121582 11.69530963897705 99.71443939208984 255 255 255
-12.467399597167969 22.442148208618164 129.42469787597656 255 255 255
0.3421686589717865 19.48393440246582 122.95117950439453 255 255 255
4.3931884765625 10.016627311706543 104.77165985107422 255 255 255
61.65055847167969 -73.05903625488281 342.8871154785156 255 255 255
0.022327067330479622 25.59564971923828 144.3623504638672 255 255 255
4.542219638824463 7.998676300048828 105.48167419433594 255 255 255
21.912412643432617 9.579476356506348 95.8294448852539 255 255 255
-5.135389804840088 5.896663665771484 38.84017562866211 255 255 255
11.779067993164062 4.415256977081299 35.355186462402344 255 255 255
-3.4492127895355225 1.34860360622406 69.20021057128906 255 255 255
-4.785979270935059 5.966843128204346 38.17291259765625 255 255 255
-5.078854560852051 4.825354099273682 40.16515350341797 255 255 255
-6.038488388061523 5.850656986236572 38.060726165771484 255 255 255
4.264170169830322 5.859434604644775 28.058610916137695 255 255 255
-6.321087837219238 6.768983364105225 35.91411209106445 255 255 255
-5.562594413757324 4.655824661254883 36.54921340942383 255 255 255
-3.7830190658569336 5.8247761726379395 36.82008743286133 255 255 255
10.269488334655762 3.3995816707611084 61.81929016113281 255 255 255
7.991734504699707 5.346737384796143 69.33271026611328 255 255 255
9.790221214294434 3.1945745944976807 61.61266326904297 255 255 255
9.022980690002441 5.745964050292969 66.61831665039062 255 255 255
-4.629032611846924 11.684657096862793 67.39937591552734 255 255 255
-1.5790843963623047 7.376495838165283 69.07770538330078 255 255 255
-8.627528190612793 1.6530487537384033 70.01850891113281 255 255 255
12.794508934020996 3.930009126663208 62.528995513916016 255 255 255
-0.8777032494544983 2.8393120765686035 68.72796630859375 255 255 255
-1.3575079441070557 7.345913410186768 68.32694244384766 255 255 255
-9.229092597961426 1.3766534328460693 71.10678100585938 255 255 255
-4.692119121551514 7.353519916534424 68.29266357421875 255 255 255
9.042266845703125 11.928474426269531 64.91242980957031 255 255 255
2.5241122245788574 13.205543518066406 115.28573608398438 255 255 255
6.845373630523682 11.983076095581055 63.166996002197266 255 255 255
9.635519027709961 11.814725875854492 64.62297058105469 255 255 255
25.556074142456055 12.947072982788086 121.58531951904297 255 255 255
9.868793487548828 8.82548999786377 100.26486206054688 255 255 255
-12.014925003051758 -1.6614066362380981 -4.2144951820373535 255 255 255
-13.444279670715332 -4.533597946166992 11.073948860168457 255 255 255
-6.8321638107299805 -2.26155686378479 -4.87355375289917 255 255 255
44.27751541137695 -7.9886064529418945 -31.478586196899414 255 255 255
52.87216567993164 -4.349294662475586 -24.14989471435547 255 255 255
58.525753021240234 9.356157302856445 86.18528747558594 255 255 255
34.80286407470703 14.767267227172852 88.06181335449219 255 255 255
3.964351177215576 8.860586166381836 102.7352294921875 255 255 255
9.439445495605469 11.257601737976074 69.45796203613281 255 255 255
9.788756370544434 8.307236671447754 71.94119262695312 255 255 255
4.77960205078125 14.007723808288574 75.43937683105469 255 255 255
7.435056209564209 -1.8238983154296875 33.655784606933594 255 255 255
-4.164601802825928 -1.74332857131958 29.046222686767578 255 255 255
7.276638031005859 1.263798475265503 34.49451446533203 255 255 255
29.985105514526367 -13.71069622039795 -26.288555145263672 255 255 255
38.65622329711914 -3.2230377197265625 -21.79385757446289 255 255 255
112.92288208007812 8.395675659179688 82.06087493896484 255 255 255
117.21062469482422 13.396672248840332 103.8048095703125 255 255 255
56.87330627441406 11.257246017456055 86.82569122314453 255 255 255
94.34706115722656 10.720294952392578 54.93338394165039 255 255 255
105.42921447753906 11.193893432617188 43.01026153564453 255 255 255
100.01649475097656 15.217041969299316 65.00691223144531 255 255 255
98.69788360595703 8.679035186767578 39.90678024291992 255 255 255
2.236140251159668 -1.3835941553115845 -13.407402992248535 255 255 255
45.32218933105469 11.339371681213379 97.57115173339844 255 255 255
56.3936882019043 9.894781112670898 87.45624542236328 255 255 255
-5.35402774810791 -1.7873207330703735 29.22510528564453 255 255 255
-4.420351982116699 10.615842819213867 119.1707763671875 255 255 255
-5.421080589294434 -3.255404233932495 34.7733268737793 255 255 255
4.736798286437988 6.206149101257324 27.995393753051758 255 255 255
-43.16313552856445 -123.02225494384766 461.71917724609375 255 255 255
7.637319564819336 -3.034968852996826 34.915653228759766 255 255 255
-2.6981360912323 11.886622428894043 65.83993530273438 255 255 255
-1.007295846939087 11.418769836425781 66.2803726196289 255 255 255
10.193751335144043 2.890479326248169 63.12553405761719 255 255 255
12.498122215270996 2.0610482692718506 62.014156341552734 255 255 255
-1.9143319129943848 6.686790943145752 32.86577224731445 255 255 255
11.584147453308105 16.28362464904785 91.1935806274414 255 255 255
3.889572858810425 8.300030708312988 105.62992095947266 255 255 255
17.058502197265625 13.787816047668457 101.15653228759766 255 255 255
15.041114807128906 15.56513786315918 103.51177215576172 255 255 255
109.03961944580078 6.630924224853516 72.24483489990234 255 255 255
124.8643798828125 12.55625057220459 59.74655532836914 255 255 255
110.60995483398438 3.665175676345825 63.2767219543457 255 255 255
97.36824035644531 13.981009483337402 57.13050842285156 255 255 255
122.9741439819336 0.3709772527217865 31.415607452392578 255 255 255
101.66838836669922 11.908121109008789 58.168582916259766 255 255 255
95.54820251464844 6.6848249435424805 51.897865295410156 255 255 255
66.17962646484375 -51.431861877441406 -93.25423431396484 255 255 255
8.690567970275879 -64.60432434082031 -148.26304626464844 255 255 255
92.41348266601562 -41.59263610839844 -146.30191040039062 255 255 255
51.08488845825195 -64.07652282714844 -197.63995361328125 255 255 255
95.27576446533203 -6.958791732788086 -40.36101531982422 255 255 255
81.88948822021484 -38.895755767822266 -85.52291107177734 255 255 255
105.51676177978516 -24.323148727416992 -84.96748352050781 255 255 255
-20.04720115661621 28.828632354736328 143.15721130371094 255 255 255
2.5789871215820312 17.51636505126953 97.15693664550781 255 255 255
57.97245788574219 9.38553237915039 84.90071868896484 255 255 255
37.37704849243164 14.556636810302734 85.68553924560547 255 255 255
12.736629486083984 13.339075088500977 97.49480438232422 255 255 255
-5.651985168457031 5.843633651733398 38.642982482910156 255 255 255
6.5574870109558105 -0.11539968103170395 26.0137996673584 255 255 255
-0.05166180431842804 8.377063751220703 42.52961349487305 255 255 255
8.024086952209473 -4.874165058135986 60.758216857910156 255 255 255
80.44407653808594 10.476412773132324 76.94829559326172 255 255 255
91.5474624633789 20.229413986206055 90.80693817138672 255 255 255
114.95394134521484 9.380232810974121 78.42465209960938 255 255 255
77.75434875488281 17.927244186401367 82.2635498046875 255 255 255
6.745938777923584 16.163665771484375 89.51730346679688 255 255 255
9.344637870788574 7.5021653175354 100.51608276367188 255 255 255
7.5763750076293945 14.681463241577148 84.33494567871094 255 255 255
43.22883987426758 0.9334426522254944 72.4934310913086 255 255 255
-5.47987699508667 4.236805438995361 25.762596130371094 255 255 255
7.167618751525879 -3.1823480129241943 31.920570373535156 255 255 255
-6.107118606567383 0.3274192214012146 33.8283576965332 255 255 255
8.496421813964844 1.630331039428711 32.48731231689453 255 255 255
-11.802886009216309 -4.623151779174805 60.72570037841797 255 255 255
9.119527816772461 -2.671900987625122 25.855239868164062 255 255 255
-3.7798047065734863 -1.4776060581207275 29.139719009399414 255 255 255
-3.87986421585083 1.3923016786575317 20.446584701538086 255 255 255
-3.9864368438720703 0.11879701912403107 23.409923553466797 255 255 255
-7.253000259399414 -1.6356686353683472 28.200437545776367 255 255 255
16.66187286376953 -8.185417175292969 47.5355224609375 255 255 255
-7.8866190910339355 -3.1830716133117676 27.81000518798828 255 255 255
5.79329252243042 -1.2987619638442993 27.62466812133789 255 255 255
9.658730506896973 -1.7939679622650146 25.552997589111328 255 255 255
-2.6326615810394287 2.6280970573425293 22.450637817382812 255 255 255
-6.018802165985107 -3.6207199096679688 30.143484115600586 255 255 255
-11.9326171875 -6.33376932144165 78.13585662841797 255 255 255
-1.532774567604065 21.147750854492188 128.18380737304688 255 255 255
8.51506233215332 11.837624549865723 95.62691497802734 255 255 255
60.40031814575195 10.502569198608398 83.01131439208984 255 255 255
307.2449645996094 -141.7643585205078 -45.24360275268555 255 255 255
58.01853942871094 10.858264923095703 83.39644622802734 255 255 255
4.0873589515686035 -1.1402920484542847 2.4625306129455566 255 255 255
11.591456413269043 -4.796875 34.62713623046875 255 255 255
-3.633561372756958 -1.4905925989151 29.48406219482422 255 255 255
6.744376182556152 4.957745552062988 35.48270797729492 255 255 255
10.628761291503906 -1.1668084859848022 28.14613914489746 255 255 255
10.09580135345459 -4.745434761047363 47.99134826660156 255 255 255
-5.023940086364746 17.2756404876709 93.96749114990234 255 255 255
12.562116622924805 12.015883445739746 101.94541931152344 255 255 255
35.53023147583008 11.25925350189209 90.12713623046875 255 255 255
7.842617034912109 -1.929519534111023 41.199222564697266 255 255 255
8.120612144470215 -3.76786208152771 56.20289611816406 255 255 255
94.92456817626953 11.57863998413086 49.434627532958984 255 255 255
91.9698715209961 11.692183494567871 61.072513580322266 255 255 255
101.125 15.093419075012207 63.818538665771484 255 255 255
94.25785827636719 8.263835906982422 53.445655822753906 255 255 255
122.69463348388672 10.231415748596191 51.16799545288086 255 255 255
17.8439998626709 16.04782485961914 89.87076568603516 255 255 255
17.722436904907227 16.041683197021484 89.02974700927734 255 255 255
19.99728012084961 15.635796546936035 91.6711654663086 255 255 255
22.863834381103516 14.372223854064941 100.83322143554688 255 255 255
51.664764404296875 8.395051002502441 71.82283782958984 255 255 255
53.674400329589844 -18.768672943115234 -34.865814208984375 255 255 255
39.79914093017578 -16.153629302978516 -15.336932182312012 255 255 255
55.740272521972656 -9.163084030151367 -21.907320022583008 255 255 255
27.793657302856445 8.50363540649414 96.24357604980469 255 255 255
22.01424217224121 15.419136047363281 87.2927474975586 255 255 255
27.94386863708496 9.345364570617676 98.26970672607422 255 255 255
28.40586280822754 15.244986534118652 87.06261444091797 255 255 255
29.419530868530273 15.934207916259766 86.24732971191406 255 255 255
33.29300308227539 15.231306076049805 88.154052734375 255 255 255
37.21306610107422 11.73835277557373 90.48739624023438 255 255 255
21.13470458984375 10.81935977935791 99.58732604980469 255 255 255
18.93809700012207 15.652474403381348 89.18209075927734 255 255 255
35.959327697753906 11.479416847229004 88.98139190673828 255 255 255
116.53507995605469 3.250152587890625 54.74058151245117 255 255 255
93.76460266113281 8.45999526977539 57.66063690185547 255 255 255
2.7472450733184814 14.448801040649414 107.7458267211914 255 255 255
3.818958044052124 9.654004096984863 103.19660949707031 255 255 255
25.61910629272461 13.365697860717773 117.7950210571289 255 255 255
25.778648376464844 11.726505279541016 127.38018035888672 255 255 255
10.664046287536621 18.305143356323242 98.38372802734375 255 255 255
20.54315185546875 -18.41590118408203 299.05108642578125 255 255 255
9.299379348754883 -2.7803590297698975 26.13405990600586 255 255 255
-0.9498192667961121 6.70567512512207 32.590904235839844 255 255 255
8.625528335571289 -2.484832763671875 26.706205368041992 255 255 255
13.42834186553955 3.9809505939483643 41.201454162597656 255 255 255
10.788616180419922 -1.1974215507507324 28.375141143798828 255 255 255
-7.37441873550415 4.499215126037598 27.131698608398438 255 255 255
-4.779477596282959 4.696682929992676 25.14832878112793 255 255 255
-5.121748447418213 -2.888772964477539 28.466432571411133 255 255 255
-3.2222447395324707 2.051090717315674 25.810609817504883 255 255 255
13.142812728881836 -3.8365509510040283 35.15909194946289 255 255 255
-4.403792858123779 5.404096603393555 68.2736587524414 255 255 255
10.840738296508789 6.922300338745117 59.8563117980957 255 255 255
-15.807356834411621 0.8059032559394836 73.79423522949219 255 255 255
-1.834661841392517 18.962282180786133 118.55562591552734 255 255 255
-0.314449667930603 13.052325248718262 69.2840576171875 255 255 255
26.03250503540039 -17.037517547607422 289.8599548339844 255 255 255
-0.5405944585800171 10.68292236328125 71.40312194824219 255 255 255
19.74935531616211 15.299927711486816 89.79920196533203 255 255 255
23.344209671020508 9.971736907958984 102.39353942871094 255 255 255
12.747859954833984 17.015090942382812 92.45539093017578 255 255 255
13.246492385864258 13.019857406616211 98.60795593261719 255 255 255
30.212406158447266 9.04377269744873 96.8940658569336 255 255 255
34.95711898803711 10.447887420654297 90.98070526123047 255 255 255
28.803955078125 9.245134353637695 96.37347412109375 255 255 255
12.729087829589844 13.83302116394043 97.74644470214844 255 255 255
21.44629669189453 10.800888061523438 96.66191101074219 255 255 255
93.3128433227539 10.657071113586426 63.38285446166992 255 255 255
91.4020767211914 11.93833065032959 61.0140495300293 255 255 255
-0.7954216003417969 1.7726541757583618 72.20857238769531 255 255 255
33.8899040222168 6.715176105499268 96.66065979003906 255 255 255
51.72573471069336 -3.927931547164917 73.11264038085938 255 255 255
84.70091247558594 7.614391803741455 90.81212615966797 255 255 255
45.53707504272461 -3.471306562423706 73.14805603027344 255 255 255
42.18040466308594 11.850296974182129 73.27935791015625 255 255 255
42.552452087402344 12.36956787109375 78.46908569335938 255 255 255
57.348106384277344 -1.2432001829147339 70.7353515625 255 255 255
2.669271945953369 16.027603149414062 83.48664855957031 255 255 255
125.90626525878906 -72.75353240966797 511.6273193359375 255 255 255
-0.13033941388130188 12.036723136901855 75.0862808227539 255 255 255
2.9716973304748535 17.24447250366211 96.0295181274414 255 255 255
-4.0813798904418945 -0.5021504163742065 28.031850814819336 255 255 255
-8.793298721313477 -27.6934871673584 153.7577362060547 255 255 255
1.4142320156097412 5.938943862915039 28.16323471069336 255 255 255
7.729635715484619 -3.0223052501678467 -32.816566467285156 255 255 255
17.67777442932129 -7.687631607055664 -31.652158737182617 255 255 255
-26.857595443725586 24.898527145385742 159.03456115722656 255 255 255
11.57470417022705 11.889192581176758 99.21000671386719 255 255 255
32.50217819213867 10.65914535522461 90.75431823730469 255 255 255
100.6455307006836 -7.771103858947754 -41.00379180908203 255 255 255
74.26202392578125 -11.878472328186035 -60.53258514404297 255 255 255
89.62196350097656 -12.042016983032227 -45.22185516357422 255 255 255
172.32366943359375 -35.60808181762695 -94.36430358886719 255 255 255
-1.8184525966644287 -1.6497819423675537 96.86756896972656 255 255 255
-4.8171706199646 -0.2240440994501114 6.943704128265381 255 255 255
4.459702491760254 -0.16752223670482635 7.975144863128662 255 255 255
-3.6667916774749756 1.1083215475082397 18.32084846496582 255 255 255
111.6369857788086 6.224921703338623 74.97547149658203 255 255 255
125.58863830566406 8.605241775512695 64.4159927368164 255 255 255
111.86993408203125 5.046684741973877 62.067867279052734 255 255 255
110.48666381835938 2.4453532695770264 63.427181243896484 255 255 255
107.79232788085938 9.231203079223633 74.90309143066406 255 255 255
137.6696014404297 6.201043605804443 62.26576232910156 255 255 255
111.92184448242188 2.293020009994507 78.42304229736328 255 255 255
27.465951919555664 16.429731369018555 87.81173706054688 255 255 255
24.72957420349121 15.297457695007324 89.6568832397461 255 255 255
36.01762390136719 8.106766700744629 90.11067199707031 255 255 255
26.755701065063477 10.441641807556152 98.19497680664062 255 255 255
35.44164276123047 11.44034481048584 88.56758880615234 255 255 255
38.92503356933594 11.925084114074707 95.39464569091797 255 255 255
147.63304138183594 0.23351611196994781 64.65330505371094 255 255 255
19.5200138092041 15.620033264160156 91.396240234375 255 255 255
14.241426467895508 16.222332000732422 92.85672760009766 255 255 255
-0.0101871807128191 14.129144668579102 74.56491088867188 255 255 255
13.104269027709961 15.559208869934082 87.70220947265625 255 255 255
-11.385711669921875 21.575471878051758 110.79287719726562 255 255 255
17.326841354370117 15.608397483825684 90.13797760009766 255 255 255
9.99428939819336 15.31710147857666 81.29997253417969 255 255 255
3.6016628742218018 20.753089904785156 123.94979095458984 255 255 255
16.014833450317383 16.25385856628418 103.89571380615234 255 255 255
11.386584281921387 10.006134033203125 79.43782043457031 255 255 255
-3.885141134262085 17.033180236816406 124.96776580810547 255 255 255
12.72579574584961 16.242544174194336 90.14110565185547 255 255 255
9.939301490783691 14.47866153717041 76.64240264892578 255 255 255
11.302721977233887 16.104034423828125 91.64703369140625 255 255 255
-0.0847245305776596 13.001155853271484 79.46859741210938 255 255 255
6.832815647125244 17.775741577148438 94.21321868896484 255 255 255
0.007772673387080431 7.056541442871094 78.23783874511719 255 255 255
-0.7443493008613586 7.363768577575684 72.173095703125 255 255 255
43.9091682434082 15.437750816345215 87.04104614257812 255 255 255
49.56404113769531 14.866517066955566 83.73664855957031 255 255 255
28.8342342376709 8.576177597045898 96.52915954589844 255 255 255
21.217453002929688 15.749468803405762 92.7311782836914 255 255 255
5.323533058166504 6.501520156860352 33.314918518066406 255 255 255
5.935668468475342 -1.6924511194229126 31.191843032836914 255 255 255
-0.8374382257461548 12.679961204528809 69.38188171386719 255 255 255
11.065801620483398 16.689516067504883 89.34445190429688 255 255 255
8.695211410522461 10.191150665283203 96.68899536132812 255 255 255
11.611892700195312 13.883288383483887 96.91925048828125 255 255 255
-13.172165870666504 21.476070404052734 138.9725341796875 255 255 255
-5.12608003616333 11.786397933959961 92.72512817382812 255 255 255
-84.53279113769531 58.825233459472656 412.1598815917969 255 255 255
42.39360046386719 13.391529083251953 77.63240814208984 255 255 255
11.35647201538086 10.367645263671875 79.43572998046875 255 255 255
278.7880554199219 -347.21551513671875 1338.0115966796875 255 255 255
1.0560530424118042 0.29115182161331177 131.72299194335938 255 255 255
122.0203628540039 -0.4933437407016754 29.09446907043457 255 255 255
125.77263641357422 -0.40722447633743286 31.09479522705078 255 255 255
105.6807861328125 9.007560729980469 63.87791442871094 255 255 255
93.36790466308594 8.541485786437988 61.57493591308594 255 255 255
92.6334228515625 8.700702667236328 60.78058624267578 255 255 255
147.52935791015625 3.3659307956695557 28.897714614868164 255 255 255
102.53890991210938 13.52133560180664 57.67417907714844 255 255 255
164.6890869140625 -50.60565948486328 -106.53872680664062 255 255 255
117.79937744140625 8.208672523498535 53.34420394897461 255 255 255
113.14533233642578 4.054579734802246 61.90032958984375 255 255 255
110.08458709716797 3.935302972793579 63.4496955871582 255 255 255
5.805717468261719 8.65078353881836 44.455299377441406 255 255 255
-1.4965848922729492 4.2623491287231445 68.85687255859375 255 255 255
-2.115015983581543 8.504852294921875 44.49074935913086 255 255 255
-4.978620529174805 7.141929626464844 42.06161880493164 255 255 255
1.832473635673523 16.1837158203125 85.28382110595703 255 255 255
5.538119316101074 19.012409210205078 97.08099365234375 255 255 255
-7.77446174621582 -6.434564590454102 70.29669952392578 255 255 255
-0.6965599060058594 -1.7823350429534912 71.84886169433594 255 255 255
6.2433929443359375 -1.3101412057876587 30.319353103637695 255 255 255
-8.412614822387695 -2.926114559173584 70.5447006225586 255 255 255
-6.077765941619873 7.528518199920654 44.46470260620117 255 255 255
-75.50588989257812 -381.5676574707031 1571.60888671875 255 255 255
63.34184646606445 10.451112747192383 90.36539459228516 255 255 255
-0.07528246939182281 11.374022483825684 75.05644989013672 255 255 255
11.552910804748535 16.262617111206055 91.14251708984375 255 255 255
21.22338104248047 11.696467399597168 96.75774383544922 255 255 255
25.40569496154785 13.963044166564941 123.03795623779297 255 255 255
19.747983932495117 14.726848602294922 104.31373596191406 255 255 255
20.622787475585938 12.101311683654785 100.5710220336914 255 255 255
26.85191535949707 9.176056861877441 101.68856048583984 255 255 255
20.992507934570312 15.785642623901367 88.7218017578125 255 255 255
33.47557830810547 6.598578929901123 95.94328308105469 255 255 255
26.128564834594727 15.264188766479492 89.52989196777344 255 255 255
27.981922149658203 9.330527305603027 97.1780776977539 255 255 255
16.42699432373047 -170.6240997314453 691.6371459960938 255 255 255
12.395256996154785 -4.08105993270874 47.27305221557617 255 255 255
-5.937984466552734 -0.4566551744937897 35.32325744628906 255 255 255
-1.5133413076400757 -0.5084396004676819 69.27737426757812 255 255 255
-5.834515571594238 -1.835598111152649 29.81949806213379 255 255 255
42.303810119628906 12.192137718200684 73.05294799804688 255 255 255
36.363948822021484 13.525217056274414 78.5380630493164 255 255 255
34.31513977050781 11.51827621459961 89.75881958007812 255 255 255
50.09964370727539 -2.6915383338928223 69.18780517578125 255 255 255
34.244022369384766 10.448071479797363 93.65592956542969 255 255 255
27.09829330444336 15.008593559265137 87.40203094482422 255 255 255
72.2845458984375 9.583213806152344 93.94589233398438 255 255 255
28.79007339477539 15.197051048278809 86.43852233886719 255 255 255
10.056731224060059 16.08116340637207 91.00309753417969 255 255 255
6.088303565979004 17.591257095336914 93.50308990478516 255 255 255
-34.287391662597656 23.731019973754883 184.1851806640625 255 255 255
97.983154296875 19.40854263305664 86.61204528808594 255 255 255
112.39289093017578 8.32326602935791 68.150634765625 255 255 255
118.39952087402344 12.121720314025879 84.65839385986328 255 255 255
113.50035095214844 7.503801345825195 66.57244110107422 255 255 255
109.32432556152344 12.035823822021484 95.8836669921875 255 255 255
-1.080697774887085 0.4414314925670624 -4.231925010681152 255 255 255
-15.435220718383789 -41.6396598815918 197.02886962890625 255 255 255
8.85014533996582 -2.019385576248169 49.031585693359375 255 255 255
10.416656494140625 17.214231491088867 94.85962677001953 255 255 255
-6.246391773223877 -0.9121357798576355 69.71876525878906 255 255 255
-0.6390789747238159 21.03176498413086 120.66845703125 255 255 255
29.833871841430664 15.293513298034668 87.28253936767578 255 255 255
35.25764083862305 10.59460735321045 91.77947998046875 255 255 255
35.9202766418457 2.816643238067627 74.49152374267578 255 255 255
41.72636795043945 9.90372371673584 73.85242462158203 255 255 255
58.69576644897461 -6.276907920837402 72.44731140136719 255 255 255
32.368534088134766 7.353388786315918 95.76923370361328 255 255 255
-0.4857672154903412 7.534473419189453 37.410560607910156 255 255 255
8.473262786865234 -2.0172815322875977 37.56755447387695 255 255 255
-3.7451529502868652 -2.2219936847686768 29.72443389892578 255 255 255
9.264435768127441 -2.305333375930786 37.72800064086914 255 255 255
7.938314437866211 3.7287261486053467 28.224836349487305 255 255 255
4.3781232833862305 5.988072872161865 28.546430587768555 255 255 255
-14.131925582885742 -2.744288921356201 66.46217346191406 255 255 255
-4.5037336349487305 -0.604163408279419 30.575471878051758 255 255 255
-18.58222198486328 9.51341438293457 77.01444244384766 255 255 255
10.694430351257324 -5.816028118133545 60.90868377685547 255 255 255
4.960129261016846 7.052567958831787 35.02408981323242 255 255 255
-4.322083950042725 -1.7263280153274536 28.76082992553711 255 255 255
11.016088485717773 18.304258346557617 98.38121795654297 255 255 255
22.053688049316406 14.054143905639648 99.74481201171875 255 255 255
-11.598506927490234 18.117212295532227 116.08251953125 255 255 255
18.57577896118164 20.459747314453125 123.32487487792969 255 255 255
-42.5852165222168 38.63957977294922 265.4158020019531 255 255 255
48.52109146118164 11.238967895507812 72.79852294921875 255 255 255
29.005281448364258 11.678296089172363 92.44611358642578 255 255 255
34.216922760009766 14.942649841308594 87.45198059082031 255 255 255
44.663116455078125 11.541629791259766 96.93919372558594 255 255 255
38.83560562133789 7.363308906555176 98.6414566040039 255 255 255
7.857314109802246 16.061981201171875 86.58988952636719 255 255 255
-0.14956551790237427 8.323949813842773 75.7388687133789 255 255 255
-3.2895009517669678 11.4922513961792 67.76228332519531 255 255 255
9.092162132263184 8.735240936279297 73.26197814941406 255 255 255
-6.633608818054199 1.9067364931106567 40.219879150390625 255 255 255
6.286178112030029 -1.4336820840835571 28.0333194732666 255 255 255
1.4593310356140137 5.515833854675293 26.407583236694336 255 255 255
6.980154991149902 11.31450366973877 64.19281768798828 255 255 255
50.56278991699219 14.885725021362305 91.12872314453125 255 255 255
34.59314727783203 11.807060241699219 95.15160369873047 255 255 255
26.30690574645996 10.001946449279785 98.69379425048828 255 255 255
31.937467575073242 -16.783763885498047 -25.365570068359375 255 255 255
-5.177685260772705 0.6931561231613159 10.17341136932373 255 255 255
-7.200931549072266 -3.4521701335906982 2.460031509399414 255 255 255
-9.81114673614502 -1.3426741361618042 -4.980518817901611 255 255 255
-10.719653129577637 -1.7679784297943115 -4.075720310211182 255 255 255
118.80175018310547 12.88776683807373 101.2304916381836 255 255 255
79.26380920410156 9.855632781982422 76.92970275878906 255 255 255
134.8216552734375 16.717052459716797 81.85258483886719 255 255 255
80.50455474853516 17.779592514038086 80.00904083251953 255 255 255
100.05492401123047 12.876965522766113 97.08478546142578 255 255 255
-6.389404773712158 4.196389198303223 41.14065933227539 255 255 255
11.912271499633789 11.923922538757324 98.77486419677734 255 255 255
18.180137634277344 15.582500457763672 89.95426177978516 255 255 255
20.02050018310547 15.79554557800293 90.51652526855469 255 255 255
17.707387924194336 16.147029876708984 88.9323501586914 255 255 255
14.237534523010254 16.029722213745117 90.97820281982422 255 255 255
25.85349464416504 10.677556037902832 96.19176483154297 255 255 255
58.4536018371582 8.792632102966309 86.98880004882812 255 255 255
79.03052520751953 -52.38127517700195 -109.23177337646484 255 255 255
30.273305892944336 -87.7183609008789 -242.61422729492188 255 255 255
81.06166076660156 -35.97268295288086 -82.8223648071289 255 255 255
73.53352355957031 -38.73283767700195 -82.48164367675781 255 255 255
83.68975830078125 -13.780454635620117 -64.29579162597656 255 255 255
13.036242485046387 13.248268127441406 97.8046646118164 255 255 255
24.68077278137207 14.246347427368164 108.69104766845703 255 255 255
135.8475341796875 -10.581939697265625 7.438213348388672 255 255 255
113.34242248535156 11.609522819519043 50.32560729980469 255 255 255
-9.894486427307129 -3.6193954944610596 -13.970536231994629 255 255 255
110.79541778564453 2.2179980278015137 65.26416015625 255 255 255
127.04606628417969 -1.0825401544570923 31.677141189575195 255 255 255
122.97340393066406 7.514946460723877 69.03182220458984 255 255 255
113.59013366699219 15.488349914550781 76.8719253540039 255 255 255
14.028797149658203 15.379305839538574 100.87544250488281 255 255 255
13.17834758758545 10.326841354370117 102.36295318603516 255 255 255
11.551941871643066 11.359219551086426 97.68411254882812 255 255 255
5.427478313446045 17.09934425354004 95.39399719238281 255 255 255
8.6951265335083 14.094836235046387 96.83465576171875 255 255 255
-18.272153854370117 25.637880325317383 161.5111541748047 255 255 255
32.71824645996094 13.026694297790527 125.15755462646484 255 255 255
5.212642192840576 7.285895824432373 109.21401977539062 255 255 255
11.429604530334473 11.472492218017578 97.23905181884766 255 255 255
11.170713424682617 9.213010787963867 99.69020080566406 255 255 255
5.116816520690918 17.194631576538086 96.61155700683594 255 255 255
10.021127700805664 16.32701873779297 90.7589340209961 255 255 255
-0.7219181656837463 19.732643127441406 121.4094009399414 255 255 255
-18.576974868774414 -5.88035249710083 59.889060974121094 255 255 255
-6.211446285247803 4.894034385681152 43.21295928955078 255 255 255
2.4525413513183594 13.896169662475586 108.97401428222656 255 255 255
39.838626861572266 9.761909484863281 80.8790283203125 255 255 255
37.42545700073242 6.790183067321777 92.01642608642578 255 255 255
20.660219192504883 -2.798631429672241 -21.038097381591797 255 255 255
17.70771026611328 -7.452167510986328 -31.13241195678711 255 255 255
15.390909194946289 -9.285683631896973 -29.848331451416016 255 255 255
8.5486421585083 -2.7965645790100098 72.24698638916016 255 255 255
3.3444888591766357 4.577847003936768 21.61952018737793 255 255 255
5.603286266326904 -1.671887755393982 26.9553279876709 255 255 255
6.1077423095703125 -1.1932270526885986 27.456804275512695 255 255 255
44.51597595214844 14.21900463104248 84.76728820800781 255 255 255
56.431861877441406 8.854239463806152 75.2853012084961 255 255 255
59.7933235168457 11.20088005065918 91.60137939453125 255 255 255
48.73925018310547 14.680771827697754 83.50533294677734 255 255 255
366.2179260253906 -144.05641174316406 235.71006774902344 255 255 255
49.0426139831543 13.796463966369629 78.07913970947266 255 255 255
87.40123748779297 8.579837799072266 70.0229263305664 255 255 255
57.58375549316406 9.430079460144043 84.2188949584961 255 255 255
37.0666389465332 10.767217636108398 91.0523681640625 255 255 255
38.58190155029297 7.9994707107543945 92.46114349365234 255 255 255
41.88676834106445 -0.7089933156967163 71.15780639648438 255 255 255
41.6140022277832 11.533998489379883 92.57528686523438 255 255 255
-6.660969257354736 8.367496490478516 56.85434341430664 255 255 255
-2.6700503826141357 7.574310302734375 68.65528869628906 255 255 255
-14.662768363952637 -2.4822843074798584 69.88239288330078 255 255 255
-20.511240005493164 -5.06466817855835 80.47755432128906 255 255 255
9.256439208984375 6.169897556304932 42.00776672363281 255 255 255
9.758617401123047 6.330713748931885 43.26676559448242 255 255 255
-4.724853992462158 9.227761268615723 68.06088256835938 255 255 255
2.8559906482696533 7.94610595703125 45.715694427490234 255 255 255
-72.93304443359375 34.389347076416016 242.18182373046875 255 255 255
19.816484451293945 21.56328010559082 123.18498992919922 255 255 255
9.41855525970459 3.8712751865386963 72.25948333740234 255 255 255
-3.201948642730713 2.664201021194458 68.97753143310547 255 255 255
-0.22147434949874878 3.449758529663086 76.07502746582031 255 255 255
4.529942989349365 8.149497985839844 101.76152801513672 255 255 255
-0.5503464341163635 20.88113021850586 119.6689224243164 255 255 255
-0.4346180558204651 8.460406303405762 70.23747253417969 255 255 255
-0.23472002148628235 12.714775085449219 71.37619018554688 255 255 255
-0.6740016341209412 3.6613001823425293 72.65487670898438 255 255 255
21.266334533691406 30.61713409423828 165.32505798339844 255 255 255
-1.123307704925537 10.691267013549805 67.23821258544922 255 255 255
-0.5578986406326294 12.023845672607422 70.29497528076172 255 255 255
438.1678161621094 -115.88127899169922 73.22525787353516 255 255 255
-5.364786624908447 -1.7714325189590454 29.425771713256836 255 255 255
100.70277404785156 -9.94400405883789 -45.28614807128906 255 255 255
-448.76617431640625 -469.08984375 -884.239013671875 255 255 255
75.44928741455078 -40.13789749145508 -84.26107025146484 255 255 255
114.68451690673828 -15.998034477233887 -43.637577056884766 255 255 255
66.47616577148438 -20.435218811035156 -86.9117660522461 255 255 255
-17.84401512145996 -2.355278968811035 -22.30317497253418 255 255 255
-10.654767990112305 -3.431668996810913 -14.711164474487305 255 255 255
-63.00209426879883 -87.02051544189453 300.7742614746094 255 255 255
7.852773189544678 -2.3344027996063232 26.675579071044922 255 255 255
7.962979793548584 -4.82960319519043 33.65583419799805 255 255 255
-6.594455718994141 5.832388401031494 35.97151184082031 255 255 255
10.463079452514648 -3.044620990753174 27.90926170349121 255 255 255
13.932929039001465 3.7213470935821533 37.930694580078125 255 255 255
-2.2928056716918945 1.7485886812210083 21.431777954101562 255 255 255
15.30654239654541 3.768684148788452 39.36429977416992 255 255 255
-5.174339294433594 -2.7428970336914062 29.216276168823242 255 255 255
8.769532203674316 1.6041592359542847 33.19061279296875 255 255 255
6.202884674072266 -1.2123357057571411 27.8226375579834 255 255 255
57.38911056518555 9.795771598815918 102.39946746826172 255 255 255
52.89875030517578 11.004926681518555 76.73314666748047 255 255 255
30.215208053588867 12.56411075592041 81.5884780883789 255 255 255
36.722389221191406 10.219883918762207 95.05205535888672 255 255 255
34.79014205932617 10.145515441894531 94.73738861083984 255 255 255
37.375770568847656 11.01342487335205 94.77335357666016 255 255 255
50.431663513183594 9.422220230102539 70.97905731201172 255 255 255
28.3187255859375 15.10921573638916 87.87451171875 255 255 255
63.05402374267578 14.298723220825195 104.4569091796875 255 255 255
41.20606231689453 8.164007186889648 94.6390151977539 255 255 255
37.531009674072266 9.334504127502441 92.57676696777344 255 255 255
37.501792907714844 8.34671688079834 92.10258483886719 255 255 255
13.684818267822266 17.356380462646484 92.9433364868164 255 255 255
13.95663833618164 17.698144912719727 99.82849884033203 255 255 255
6.484444618225098 10.35116195678711 104.97300720214844 255 255 255
25.832096099853516 11.425107955932617 101.85311126708984 255 255 255
7.7414774894714355 -3.458871841430664 74.08439636230469 255 255 255
-91.50390625 -138.97706604003906 521.470947265625 255 255 255
11.558746337890625 10.026932716369629 80.79454803466797 255 255 255
0.21862724423408508 15.016797065734863 79.37993621826172 255 255 255
12.808186531066895 15.925373077392578 90.97627258300781 255 255 255
23.249303817749023 11.45108413696289 101.25919342041016 255 255 255
14.977816581726074 16.154794692993164 90.19651794433594 255 255 255
112.39506530761719 -12.670889854431152 -43.99168014526367 255 255 255
127.80725860595703 -7.602465629577637 -48.355613708496094 255 255 255
93.49336242675781 -7.635492324829102 -42.391822814941406 255 255 255
115.2578125 -13.186799049377441 -44.77933120727539 255 255 255
21.358739852905273 11.148082733154297 96.50534057617188 255 255 255
20.966453552246094 11.619274139404297 99.53255462646484 255 255 255
7.185975551605225 16.415857315063477 90.18209838867188 255 255 255
6.243072986602783 16.804452896118164 92.82996368408203 255 255 255
20.473875045776367 13.078129768371582 99.31712341308594 255 255 255
12.789538383483887 13.919161796569824 98.3640365600586 255 255 255
3.549539566040039 10.7451810836792 102.23463439941406 255 255 255
18.999788284301758 20.25434112548828 121.58431243896484 255 255 255
18.869760513305664 17.7844295501709 107.67247009277344 255 255 255
11.624080657958984 13.905189514160156 97.21598815917969 255 255 255
27.49167251586914 9.357739448547363 95.24569702148438 255 255 255
33.974884033203125 6.675928592681885 97.29898834228516 255 255 255
-1.209039330482483 -3.261436700820923 88.5369644165039 255 255 255
-8.325324058532715 12.669482231140137 68.97774505615234 255 255 255
33.953948974609375 -3.5032927989959717 -23.566537857055664 255 255 255
34.283721923828125 -13.807197570800781 -23.703197479248047 255 255 255
20.111082077026367 -11.71330451965332 139.00758361816406 255 255 255
15.435637474060059 -12.801691055297852 255.12353515625 255 255 255
85.352783203125 -11.90414810180664 -37.739776611328125 255 255 255
85.50907897949219 -11.046953201293945 -36.57853317260742 255 255 255
81.41065979003906 -7.399656295776367 -24.163623809814453 255 255 255
78.65473937988281 -12.367987632751465 -24.23334312438965 255 255 255
84.82390594482422 -11.056212425231934 -38.56651306152344 255 255 255
77.83494567871094 -10.645184516906738 -34.62717819213867 255 255 255
76.07623291015625 -12.706088066101074 -23.205656051635742 255 255 255
77.94853210449219 -10.59532642364502 -34.57439041137695 255 255 255
72.67486572265625 -4.538647174835205 -22.425582885742188 255 255 255
10.64566707611084 10.706954002380371 79.592529296875 255 255 255
-10.388811111450195 20.14126205444336 109.29161071777344 255 255 255
-3.418508529663086 2.4855480194091797 21.741968154907227 255 255 255
-3.1238746643066406 3.0627994537353516 24.752147674560547 255 255 255
-3.426793336868286 3.398059129714966 22.83757781982422 255 255 255
-3.883500814437866 -1.2352900505065918 29.88733673095703 255 255 255
9.432136535644531 -2.0166544914245605 25.680925369262695 255 255 255
13.49032974243164 12.564967155456543 98.72061157226562 255 255 255
8.091544151306152 16.66912078857422 96.02386474609375 255 255 255
11.659784317016602 13.1513671875 99.87957000732422 255 255 255
-33.0328369140625 25.81375503540039 182.6328582763672 255 255 255
119.21577453613281 -11.127925872802734 -40.80072021484375 255 255 255
119.55072784423828 -15.005966186523438 -46.640960693359375 255 255 255
112.54459381103516 -13.394963264465332 -45.88435363769531 255 255 255
114.711181640625 -14.421350479125977 -40.010498046875 255 255 255
116.8633804321289 -19.269195556640625 -54.44642639160156 255 255 255
115.35845947265625 -13.197340965270996 -44.731773376464844 255 255 255
9.955838203430176 16.40180206298828 91.46736145019531 255 255 255
0.3838717043399811 14.148576736450195 79.18257141113281 255 255 255
6.918764114379883 -5.951313018798828 -11.420992851257324 255 255 255
3.113161087036133 -8.41286563873291 -37.642311096191406 255 255 255
34.62892532348633 -3.3879201412200928 -22.096189498901367 255 255 255
29.818893432617188 -13.82379150390625 -28.637174606323242 255 255 255
-10.812604904174805 -4.798733711242676 50.112789154052734 255 255 255
-19.780019760131836 -8.927817344665527 -3.5328662395477295 255 255 255
-8.531973838806152 -3.645453929901123 -6.0058417320251465 255 255 255
12.558676719665527 16.153379440307617 90.60025024414062 255 255 255
33.012779235839844 6.961059093475342 94.13882446289062 255 255 255
59.083038330078125 -7.076706886291504 72.16323852539062 255 255 255
46.61589813232422 14.017409324645996 86.35002136230469 255 255 255
56.327484130859375 10.302858352661133 84.84861755371094 255 255 255
64.26042938232422 11.41687297821045 93.40203857421875 255 255 255
60.93806076049805 10.630902290344238 91.61286926269531 255 255 255
19.438764572143555 15.68514347076416 90.64558410644531 255 255 255
27.243370056152344 10.974580764770508 99.05972290039062 255 255 255
21.91575050354004 10.654107093811035 98.78553009033203 255 255 255
20.549718856811523 15.84719181060791 89.14337921142578 255 255 255
30.095462799072266 7.8965983390808105 97.87890625 255 255 255
-4.406954288482666 4.975252628326416 24.71855926513672 255 255 255
-4.07024621963501 -0.4005780816078186 29.030075073242188 255 255 255
8.347887992858887 0.7875903248786926 24.128868103027344 255 255 255
114.56816101074219 9.671285629272461 78.57955932617188 255 255 255
110.48902130126953 16.82242202758789 79.69963836669922 255 255 255
112.2666015625 9.330854415893555 89.04842376708984 255 255 255
-4.469571113586426 6.804038047790527 38.23354721069336 255 255 255
2.2220399379730225 8.081232070922852 40.88389587402344 255 255 255
-3.275444507598877 4.628199100494385 68.66677856445312 255 255 255
-6.032172679901123 -3.2345528602600098 27.616159439086914 255 255 255
-5.11901330947876 -2.394399881362915 28.383792877197266 255 255 255
-5.712459087371826 -3.721714973449707 28.655555725097656 255 255 255
-4.342513084411621 -0.5410408973693848 30.025962829589844 255 255 255
9.951576232910156 9.194730758666992 82.51464080810547 255 255 255
8.80097484588623 1.6442521810531616 75.11219024658203 255 255 255
-7.75918436050415 0.9884729981422424 39.7529296875 255 255 255
112.36563873291016 -69.40369415283203 926.0061645507812 255 255 255
57.70354461669922 9.435826301574707 84.19252014160156 255 255 255
33.039798736572266 8.377439498901367 97.75811004638672 255 255 255
34.036781311035156 6.059760093688965 94.04280853271484 255 255 255
94.46827697753906 13.433982849121094 54.17162322998047 255 255 255
113.09957885742188 5.316259860992432 56.97200393676758 255 255 255
98.75799560546875 7.5655694007873535 46.931217193603516 255 255 255
158.1099853515625 -21.072799682617188 -70.47811889648438 255 255 255
97.01249694824219 8.645456314086914 48.54663848876953 255 255 255
103.56575012207031 8.206823348999023 26.75001335144043 255 255 255
124.12047576904297 -2.320770740509033 27.007593154907227 255 255 255
-1.4679219722747803 8.803001403808594 47.67833709716797 255 255 255
18.11058235168457 10.426427841186523 92.05931091308594 255 255 255
12.301616668701172 13.170124053955078 100.57891845703125 255 255 255
11.760475158691406 12.33217716217041 98.80094146728516 255 255 255
13.359919548034668 15.204355239868164 87.25941467285156 255 255 255
264.12322998046875 -39.679298400878906 185.39805603027344 255 255 255
40.33033752441406 9.908843994140625 72.84868621826172 255 255 255
35.845237731933594 14.673791885375977 85.58294677734375 255 255 255
36.616756439208984 7.945831775665283 91.28803253173828 255 255 255
6.683948516845703 18.114957809448242 97.01715850830078 255 255 255
-3.4549028873443604 2.4988925457000732 21.778438568115234 255 255 255
-2.078902006149292 4.824336051940918 21.36867904663086 255 255 255
-1.6735540628433228 8.927560806274414 48.136810302734375 255 255 255
6.208578586578369 -1.4601811170578003 28.171972274780273 255 255 255
-0.10222820192575455 8.306235313415527 42.32892608642578 255 255 255
-5.19005012512207 -3.222013235092163 34.106056213378906 255 255 255
-7.48754358291626 2.9028854370117188 42.51192855834961 255 255 255
9.965338706970215 -1.6111204624176025 29.068222045898438 255 255 255
-13.85477352142334 -0.20367659628391266 65.36967468261719 255 255 255
-3.770642042160034 5.306131839752197 43.698333740234375 255 255 255
-0.5120803117752075 7.569082260131836 37.682098388671875 255 255 255
-5.223488807678223 -2.3343405723571777 26.56745147705078 255 255 255
11.462441444396973 3.5933845043182373 36.49424362182617 255 255 255
95.16976165771484 12.933544158935547 45.7476806640625 255 255 255
148.7723388671875 -30.15304946899414 -79.9236068725586 255 255 255
55.88059997558594 13.956629753112793 88.41402435302734 255 255 255
27.969398498535156 15.224811553955078 86.77007293701172 255 255 255
