-81.86967468261719 -13.3343505859375 -21.393152236938477 255 255 255
7.208608627319336 -3.090710163116455 7.548308372497559 255 255 255
25.6831111907959 -16.266935348510742 48.60047149658203 255 255 255
5.987361907958984 -7.527450084686279 -41.034053802490234 255 255 255
5.142239570617676 -2.104534387588501 11.85678482055664 255 255 255
-3.3577675819396973 -11.35529613494873 -59.74033737182617 255 255 255
4.855903625488281 -8.406333923339844 -63.56700897216797 255 255 255
7.452991962432861 -16.112422943115234 -52.36899948120117 255 255 255
4.467310905456543 -8.2619047164917 -58.061275482177734 255 255 255
19.808517456054688 -6.07843017578125 -34.50831604003906 255 255 255
-4.260986804962158 -12.268445014953613 -74.44303894042969 255 255 255
-7.22982931137085 -18.38155174255371 -68.96742248535156 255 255 255
33.734745025634766 -23.650365829467773 60.426429748535156 255 255 255
35.92665100097656 -24.587574005126953 69.47908782958984 255 255 255
3.6555752754211426 -17.511404037475586 -87.98129272460938 255 255 255
-2.1399500370025635 -21.027626037597656 -79.72087097167969 255 255 255
13.056069374084473 -15.990887641906738 -93.6187973022461 255 255 255
-5.87357234954834 -27.83156967163086 -101.06302642822266 255 255 255
0.020767172798514366 -19.175979614257812 -119.91325378417969 255 255 255
-11.613568305969238 -26.902812957763672 -102.1995849609375 255 255 255
-4.1314616203308105 -9.362933158874512 -60.554786682128906 255 255 255
10.360093116760254 -16.74422836303711 -32.18549346923828 255 255 255
5.368485450744629 -9.472240447998047 -55.54368209838867 255 255 255
-5.297794342041016 -11.339821815490723 -43.306427001953125 255 255 255
-0.09195950627326965 -18.001178741455078 -123.24110412597656 255 255 255
-3.0851845741271973 -21.07921028137207 -121.23170471191406 255 255 255
-2.4762520790100098 -20.330904006958008 -104.96641540527344 255 255 255
-3.5033581256866455 -30.61453628540039 -95.95616149902344 255 255 255
2.5392274856567383 -16.35866355895996 -112.5265121459961 255 255 255
-1.8273062705993652 -17.298885345458984 -105.2346420288086 255 255 255
2.0607717037200928 -23.714067459106445 -92.41472625732422 255 255 255
3.8140127658843994 -16.239051818847656 -86.4653091430664 255 255 255
5.6988348960876465 -9.244261741638184 -54.62606430053711 255 255 255
0.8177700042724609 -18.318363189697266 -128.13511657714844 255 255 255
-4.7858710289001465 -33.286476135253906 -91.31659698486328 255 255 255
6.043707847595215 -26.469520568847656 -88.40580749511719 255 255 255
5.881595611572266 -25.396604537963867 -111.8788070678711 255 255 255
2.9405524730682373 -1.3028342723846436 -17.832239151000977 255 255 255
-5.150156497955322 -23.51776695251465 -105.77516174316406 255 255 255
0.5734807252883911 -23.271780014038086 -93.30427551269531 255 255 255
-2.883047342300415 -15.107686996459961 -99.15809631347656 255 255 255
-3.308133840560913 -15.928377151489258 -105.66414642333984 255 255 255
-3.1485841274261475 -15.082510948181152 -101.89144897460938 255 255 255
-3.0531527996063232 -1.5550541877746582 -0.7167677879333496 255 255 255
10.191011428833008 -5.700804233551025 27.570375442504883 255 255 255
5.845600128173828 -12.372525215148926 -71.91085052490234 255 255 255
2.0785434246063232 -23.658138275146484 -92.36344909667969 255 255 255
-3.6796860694885254 -14.746626853942871 -99.22234344482422 255 255 255
-0.5223171710968018 -16.610990524291992 -114.13977813720703 255 255 255
5.667688846588135 -12.162630081176758 -68.80068969726562 255 255 255
4.178099632263184 -10.676796913146973 -64.79645538330078 255 255 255
-7.267917633056641 -18.376171112060547 -79.16825866699219 255 255 255
3.979217052459717 -18.035213470458984 -88.11732482910156 255 255 255
10.88039493560791 -24.644712448120117 -54.89091873168945 255 255 255
-2.0671706199645996 -15.701310157775879 -108.83209228515625 255 255 255
4.820485591888428 -19.01559066772461 -104.47010803222656 255 255 255
-1.673668622970581 -16.05714988708496 -112.63886260986328 255 255 255
4.501495838165283 -16.654260635375977 -107.82479858398438 255 255 255
0.09037037193775177 -22.776660919189453 -88.32015991210938 255 255 255
0.7934518456459045 28.84202766418457 250.1786346435547 255 255 255
3.870966911315918 -16.271751403808594 -106.94226837158203 255 255 255
-11.522831916809082 -28.691064834594727 -101.1053695678711 255 255 255
3.4324419498443604 -12.554672241210938 -86.9996337890625 255 255 255
-6.900235176086426 -4.7989606857299805 7.556480884552002 255 255 255
5.5870771408081055 -16.19955825805664 -90.27720642089844 255 255 255
-1.2210988998413086 -19.8214168548584 -82.46673583984375 255 255 255
-4.469802379608154 -15.988666534423828 -66.9037857055664 255 255 255
-3.179772138595581 -15.363978385925293 -101.37167358398438 255 255 255
-3.1043951511383057 -3.0500450134277344 -28.714811325073242 255 255 255
-3.2719075679779053 -5.07780647277832 -31.731473922729492 255 255 255
-3.9740071296691895 -7.617634296417236 -25.594100952148438 255 255 255
-12.75666332244873 -12.037946701049805 -98.99860382080078 255 255 255
-0.35401108860969543 -17.780027389526367 -117.26741027832031 255 255 255
-0.8142864108085632 -17.959489822387695 -120.97847747802734 255 255 255
-2.922677755355835 -24.80630111694336 -104.39972686767578 255 255 255
-0.4987214505672455 -17.970239639282227 -111.36149597167969 255 255 255
6.481395721435547 -22.684938430786133 -106.15276336669922 255 255 255
6.371386528015137 -22.587194442749023 -106.84764862060547 255 255 255
3.9391732215881348 -20.084508895874023 -97.43611145019531 255 255 255
3.1318359375 -1.8229804039001465 -16.75446128845215 255 255 255
-4.85381555557251 -14.159562110900879 -44.60651779174805 255 255 255
-4.773651599884033 -14.201478958129883 -44.7209587097168 255 255 255
4.2607855796813965 -7.873478889465332 -29.638715744018555 255 255 255
-5.595195770263672 -12.601936340332031 -43.27240753173828 255 255 255
0.06570407748222351 -19.99921226501465 -87.68175506591797 255 255 255
1.1226187944412231 -23.377803802490234 -93.0706787109375 255 255 255
-1.8146402835845947 -18.323116302490234 -124.51751708984375 255 255 255
7.0759782791137695 -23.765037536621094 -108.09803009033203 255 255 255
7.0906195640563965 -23.81828498840332 -107.56831359863281 255 255 255
16.910594940185547 -21.132080078125 -102.12310028076172 255 255 255
-5.711629390716553 -21.652196884155273 -68.94631958007812 255 255 255
-3.1687536239624023 -2.5264644622802734 -21.37291145324707 255 255 255
-3.7177274227142334 -2.8622069358825684 -18.55068016052246 255 255 255
-4.340512752532959 -6.6941142082214355 -21.008121490478516 255 255 255
6.256912708282471 -26.618616104125977 -113.92962646484375 255 255 255
6.6272783279418945 -17.542505264282227 -123.15856170654297 255 255 255
-1.5776456594467163 -21.85386085510254 -128.57347106933594 255 255 255
5.256633758544922 -25.263952255249023 -123.52127075195312 255 255 255
13.833697319030762 -25.01890754699707 -129.46142578125 255 255 255
-3.6042444705963135 -23.05517578125 -131.92977905273438 255 255 255
5.953808307647705 -25.697998046875 -114.68804168701172 255 255 255
-3.2816402912139893 -31.061304092407227 -95.7840347290039 255 255 255
14.415702819824219 -22.177438735961914 58.71437072753906 255 255 255
1.3141953945159912 -11.25589370727539 -81.05064392089844 255 255 255
-3.5656421184539795 -16.45604133605957 -85.09114074707031 255 255 255
-3.0640838146209717 -11.061158180236816 -79.31668853759766 255 255 255
21.53820037841797 -32.71879959106445 -145.26901245117188 255 255 255
18.667306900024414 -25.58453941345215 -148.1066131591797 255 255 255
13.467662811279297 -22.643966674804688 -131.63502502441406 255 255 255
-22.320594787597656 -16.33903694152832 -107.53471374511719 255 255 255
8.252423286437988 -22.91703987121582 -158.89987182617188 255 255 255
27.4206600189209 -30.316884994506836 -171.03187561035156 255 255 255
18.887807846069336 -26.71329116821289 -145.7230682373047 255 255 255
12.33503532409668 -34.809120178222656 -182.57371520996094 255 255 255
-4.25669002532959 -32.45713424682617 -94.51821899414062 255 255 255
10.653786659240723 -20.052383422851562 -134.6936798095703 255 255 255
37.7643928527832 -35.83966064453125 -172.0645751953125 255 255 255
51.49226379394531 -23.129968643188477 -152.61203002929688 255 255 255
266.15692138671875 -76.96293640136719 -58.261940002441406 255 255 255
48.208438873291016 -35.90754699707031 -164.6338348388672 255 255 255
21.62190818786621 -33.2887077331543 -142.64501953125 255 255 255
20.38338851928711 -32.019630432128906 -144.70394897460938 255 255 255
16.06787872314453 -17.933290481567383 -105.4422378540039 255 255 255
7.805999279022217 -30.205265045166016 -123.10657501220703 255 255 255
44.67201232910156 -34.32958984375 -165.0458984375 255 255 255
21.428022384643555 -24.617712020874023 -167.7118682861328 255 255 255
16.59519386291504 -24.438669204711914 -166.84674072265625 255 255 255
87.70257568359375 -33.52716827392578 -143.00538635253906 255 255 255
48.34885025024414 -34.065372467041016 -163.2386474609375 255 255 255
19.59104347229004 -32.63814163208008 -145.4001922607422 255 255 255
17.428550720214844 -24.415740966796875 -166.47491455078125 255 255 255
23.93461799621582 -22.0933895111084 -132.06463623046875 255 255 255
-1.6440091133117676 -21.16521644592285 -145.59739685058594 255 255 255
5.477476596832275 -26.828975677490234 -133.07391357421875 255 255 255
5.4379754066467285 -7.680477142333984 -45.08208465576172 255 255 255
19.84002685546875 -23.58571434020996 -148.0155029296875 255 255 255
49.89340591430664 -36.75633239746094 -119.27286529541016 255 255 255
47.590240478515625 -36.95897674560547 -168.1121063232422 255 255 255
15.44245433807373 -28.831274032592773 -119.77172088623047 255 255 255
-2.495692491531372 -22.571565628051758 -132.68304443359375 255 255 255
28.519493103027344 -27.28824806213379 -153.25653076171875 255 255 255
18.748382568359375 -25.488969802856445 -173.1241455078125 255 255 255
14.476882934570312 -25.06838035583496 -172.4080810546875 255 255 255
15.719548225402832 -31.12212371826172 -177.43426513671875 255 255 255
-4.307379722595215 -19.199373245239258 -126.52440643310547 255 255 255
-0.48592209815979004 -19.118873596191406 -136.15420532226562 255 255 255
40.056217193603516 -32.106201171875 -166.1769256591797 255 255 255
18.481327056884766 -29.009723663330078 -145.85848999023438 255 255 255
-10.280683517456055 -18.241064071655273 -122.8046646118164 255 255 255
-14.335770606994629 -26.328304290771484 -99.98381805419922 255 255 255
12.63018798828125 -21.695764541625977 -144.24462890625 255 255 255
-1.4057016372680664 -19.266441345214844 -137.3804168701172 255 255 255
-1.5447897911071777 -22.623525619506836 -131.74313354492188 255 255 255
-8.002896308898926 -10.557064056396484 -21.515230178833008 255 255 255
9.074728012084961 -6.167323589324951 -41.16249084472656 255 255 255
5.646599292755127 -7.528956890106201 -52.70848846435547 255 255 255
6.075033187866211 -8.313642501831055 -57.14174270629883 255 255 255
-2.9559550285339355 -11.621986389160156 -58.16777038574219 255 255 255
-3.8565258979797363 -13.693902969360352 -58.184814453125 255 255 255
-6.270182132720947 -10.256163597106934 -44.96918869018555 255 255 255
-2.903735637664795 -24.824939727783203 -104.42019653320312 255 255 255
9.388014793395996 -22.71307945251465 -128.51634216308594 255 255 255
1.7008572816848755 -18.527021408081055 -128.9332733154297 255 255 255
1.6861909627914429 -27.17310333251953 -94.26271057128906 255 255 255
-3.1832051277160645 -23.176923751831055 -133.16038513183594 255 255 255
-12.571135520935059 -24.80419158935547 -103.01527404785156 255 255 255
10.960506439208984 -18.573043823242188 -125.51982116699219 255 255 255
15.545867919921875 -28.874040603637695 -119.4896469116211 255 255 255
0.13948453962802887 -17.596923828125 -119.25184631347656 255 255 255
4.166209697723389 -15.498003959655762 -101.50982666015625 255 255 255
-1.9292080402374268 -18.306148529052734 -122.20929718017578 255 255 255
6.42331600189209 -26.404441833496094 -121.59689331054688 255 255 255
7.875698566436768 -22.670684814453125 -128.37081909179688 255 255 255
-1.3646318912506104 -20.720718383789062 -126.26557922363281 255 255 255
5.614763259887695 -22.17645835876465 -61.296485900878906 255 255 255
2.020326614379883 -25.61884307861328 -94.72343444824219 255 255 255
0.6184853911399841 -22.35634994506836 -95.10260009765625 255 255 255
3.8625526428222656 -15.159463882446289 -100.30435180664062 255 255 255
3.7934763431549072 -19.147863388061523 -90.674072265625 255 255 255
9.029680252075195 -32.7446174621582 -71.66394805908203 255 255 255
-4.233329772949219 -9.98982048034668 -54.8362922668457 255 255 255
3.3837785720825195 -10.293140411376953 -73.84793853759766 255 255 255
4.915019512176514 -10.953328132629395 -68.40149688720703 255 255 255
-7.162642478942871 -4.523653030395508 -32.1174430847168 255 255 255
-1.9757146835327148 -5.146937370300293 -24.220458984375 255 255 255
-7.187127113342285 -10.273545265197754 -71.33170318603516 255 255 255
-1.1139963865280151 -4.968393802642822 -53.791587829589844 255 255 255
-6.526521682739258 -19.758268356323242 -74.25773620605469 255 255 255
4.380033016204834 -21.442411422729492 -94.74688720703125 255 255 255
25.528945922851562 -27.33698081970215 -153.43475341796875 255 255 255
19.337156295776367 -23.72708511352539 -163.57418823242188 255 255 255
43.743404388427734 -25.51674461364746 -150.4158477783203 255 255 255
-6.826491832733154 -23.794130325317383 -134.69192504882812 255 255 255
-1.5505931377410889 -19.06277084350586 -128.40866088867188 255 255 255
8.139015197753906 -19.336688995361328 -132.66017150878906 255 255 255
20.17379379272461 -31.865995407104492 -144.59307861328125 255 255 255
4.161832809448242 -8.81555461883545 -64.38072967529297 255 255 255
-2.6511096954345703 -18.312162399291992 -97.76053619384766 255 255 255
2.8951096534729004 -12.546128273010254 -91.75383758544922 255 255 255
45.25102996826172 -36.79058074951172 -168.84695434570312 255 255 255
17.106847763061523 -25.71971893310547 -176.670654296875 255 255 255
18.02153778076172 -24.133804321289062 -149.49220275878906 255 255 255
28.60898780822754 -31.05706214904785 -173.41043090820312 255 255 255
53.060855865478516 -38.18758773803711 -168.68150329589844 255 255 255
-4.966447830200195 -14.312095642089844 -88.99661254882812 255 255 255
-3.8359129428863525 -12.274688720703125 -87.71806335449219 255 255 255
5.99095344543457 -8.520430564880371 -6.419594764709473 255 255 255
36.25028610229492 -31.790090560913086 -146.67300415039062 255 255 255
21.436662673950195 -32.06965255737305 -144.2637481689453 255 255 255
18.799779891967773 -29.869319915771484 -144.6127471923828 255 255 255
3.7811765670776367 -15.81723690032959 -103.56117248535156 255 255 255
-1.6449646949768066 -13.936090469360352 -97.33710479736328 255 255 255
-6.034232139587402 -22.054161071777344 -94.19482421875 255 255 255
3.794945478439331 -15.814627647399902 -103.5158920288086 255 255 255
3.0361366271972656 -18.98284149169922 -97.10836791992188 255 255 255
-3.0196521282196045 -29.51747703552246 -99.70829772949219 255 255 255
-2.8149614334106445 -23.5123291015625 -131.62380981445312 255 255 255
6.276979446411133 -27.33846092224121 -124.07841491699219 255 255 255
10.18989086151123 -28.438785552978516 -120.22797393798828 255 255 255
5.592655181884766 -27.22871971130371 -122.78221130371094 255 255 255
27.7049560546875 -33.41510009765625 -136.68408203125 255 255 255
7.314884185791016 -21.099205017089844 -126.6322250366211 255 255 255
-1.235904335975647 -27.964828491210938 -109.65538024902344 255 255 255
8.185298919677734 -21.264732360839844 -138.81597900390625 255 255 255
14.820432662963867 -21.0396728515625 -122.1574935913086 255 255 255
3.964258909225464 -19.55952262878418 -137.1408233642578 255 255 255
7.65009069442749 -23.040565490722656 -159.71759033203125 255 255 255
39.872318267822266 -24.40340232849121 -150.33897399902344 255 255 255
13.12686824798584 -34.17182540893555 -182.1563720703125 255 255 255
19.829702377319336 -23.90630340576172 -162.54275512695312 255 255 255
16.324005126953125 -31.49652862548828 -177.2884521484375 255 255 255
33.78657913208008 -35.13670349121094 -172.67405700683594 255 255 255
37.64369201660156 -33.6916618347168 -117.23393249511719 255 255 255
27.769262313842773 -29.87117576599121 -171.3240509033203 255 255 255
13.290129661560059 -33.793582916259766 -181.63809204101562 255 255 255
20.26598358154297 -32.93259811401367 -177.69790649414062 255 255 255
27.604393005371094 -33.599246978759766 -175.12445068359375 255 255 255
5.989256858825684 -4.574824810028076 -37.02151107788086 255 255 255
21.30333709716797 3.385044813156128 24.065481185913086 255 255 255
9.930301666259766 -3.9683456420898438 -17.13312530517578 255 255 255
31.36876106262207 -22.344955444335938 -134.20608520507812 255 255 255
18.7560977935791 -29.452072143554688 -141.55026245117188 255 255 255
14.328700065612793 -28.818817138671875 -123.70764923095703 255 255 255
6.424551486968994 -25.317115783691406 -90.92278289794922 255 255 255
-15.080029487609863 -69.11499786376953 21.209278106689453 255 255 255
15.31310749053955 -28.796531677246094 -120.06256103515625 255 255 255
23.794260025024414 0.28779080510139465 28.93601417541504 255 255 255
0.8719819784164429 1.233530879020691 -1.0765266418457031 255 255 255
-2.1964311599731445 -10.47536849975586 -75.08431243896484 255 255 255
29.35065460205078 -25.35564422607422 -154.87811279296875 255 255 255
21.919931411743164 -24.71660804748535 -151.13055419921875 255 255 255
23.12248992919922 -27.24231719970703 -150.96409606933594 255 255 255
13.69039535522461 -24.016300201416016 -164.8504180908203 255 255 255
29.49649429321289 -32.356781005859375 -129.38446044921875 255 255 255
10.719826698303223 -25.563758850097656 -127.92955017089844 255 255 255
-1.510080099105835 -19.12523078918457 -136.52008056640625 255 255 255
0.46021443605422974 -12.664939880371094 -85.89835357666016 255 255 255
8.847945213317871 -26.984283447265625 -123.40487670898438 255 255 255
20.84109878540039 -22.485557556152344 -154.25782775878906 255 255 255
-9.350749969482422 -17.909006118774414 -70.894287109375 255 255 255
7.119324684143066 -20.691673278808594 -82.8007583618164 255 255 255
-3.063828468322754 -21.74581527709961 -80.67477416992188 255 255 255
-5.227765083312988 -14.487544059753418 -84.34803009033203 255 255 255
-4.808625221252441 -18.5822811126709 -74.67157745361328 255 255 255
15.312049865722656 -33.95468521118164 -178.7740020751953 255 255 255
32.8165283203125 -18.865015029907227 44.93733215332031 255 255 255
33.26066970825195 -19.076690673828125 45.75474166870117 255 255 255
20.81832504272461 -34.595436096191406 -179.14529418945312 255 255 255
-0.201019749045372 -18.333084106445312 -118.55023193359375 255 255 255
6.398101806640625 -22.579050064086914 -106.55003356933594 255 255 255
7.580389022827148 -19.23531150817871 -133.66427612304688 255 255 255
21.45328712463379 -27.06082534790039 -120.16801452636719 255 255 255
19.503576278686523 -31.365896224975586 -145.0598907470703 255 255 255
9.609922409057617 -24.066864013671875 -166.84634399414062 255 255 255
14.45436954498291 -29.38929557800293 -108.43939971923828 255 255 255
-61.326171875 -21.536720275878906 -39.779605865478516 255 255 255
-10.958282470703125 -29.971988677978516 -92.24837493896484 255 255 255
12.014355659484863 -20.527000427246094 -136.17396545410156 255 255 255
10.40654182434082 -19.235336303710938 -130.95419311523438 255 255 255
308.4301452636719 -164.25596618652344 237.91348266601562 255 255 255
-4.3799357414245605 -17.144287109375 -67.81402587890625 255 255 255
-11.02577018737793 -13.78532600402832 -62.84150314331055 255 255 255
-14.92133617401123 -22.04339599609375 -55.160423278808594 255 255 255
878.53076171875 -407.2723388671875 87.2957763671875 255 255 255
46.03197479248047 -31.964128494262695 -144.06883239746094 255 255 255
37.7136344909668 -25.209688186645508 -160.54258728027344 255 255 255
-4.341110706329346 -23.797258377075195 -132.83148193359375 255 255 255
9.045780181884766 -27.824724197387695 -124.96160888671875 255 255 255
13.943745613098145 -21.896770477294922 -133.1288604736328 255 255 255
-11.584007263183594 -17.382781982421875 -110.67817687988281 255 255 255
-4.047910690307617 -19.608640670776367 -139.37103271484375 255 255 255
-0.04131648689508438 -18.410905838012695 -119.37310028076172 255 255 255
18.506465911865234 -27.049644470214844 -123.92774200439453 255 255 255
-2.6457622051239014 -17.804485321044922 -114.88279724121094 255 255 255
-10.141685485839844 -22.829992294311523 -106.18391418457031 255 255 255
-5.188340187072754 -20.87274932861328 -139.91729736328125 255 255 255
30.978670120239258 -31.976181030273438 -149.44403076171875 255 255 255
2.2976460456848145 -17.16943359375 -68.1484375 255 255 255
28.497535705566406 -31.4487247467041 -134.33181762695312 255 255 255
20.8886661529541 -34.12749481201172 -143.7720947265625 255 255 255
24.118633270263672 -29.990482330322266 -179.5263214111328 255 255 255
21.03746795654297 -24.946853637695312 -171.37448120117188 255 255 255
46.419368743896484 -36.82355499267578 -168.39901733398438 255 255 255
15.354035377502441 -29.199604034423828 -180.16802978515625 255 255 255
17.872400283813477 -32.31959915161133 -180.90264892578125 255 255 255
16.58700180053711 -31.944822311401367 -177.80885314941406 255 255 255
45.19908905029297 -32.81424331665039 -164.9689178466797 255 255 255
13.13471794128418 -33.642765045166016 -181.03411865234375 255 255 255
20.498485565185547 -35.07595443725586 -179.65760803222656 255 255 255
13.720867156982422 -33.95508575439453 -181.63819885253906 255 255 255
-0.1242092177271843 -20.04771614074707 -85.57276916503906 255 255 255
0.6125030517578125 -22.222543716430664 -94.24580383300781 255 255 255
18.259950637817383 -29.704431533813477 -145.5078582763672 255 255 255
137.57077026367188 -25.87442398071289 -108.01411437988281 255 255 255
17.931913375854492 -27.08014678955078 -149.28382873535156 255 255 255
69.31912994384766 -27.436920166015625 -161.15618896484375 255 255 255
7.456272125244141 -21.115245819091797 -67.68350219726562 255 255 255
-4.319464683532715 -9.17398452758789 -60.22809600830078 255 255 255
5.41211462020874 -16.742794036865234 -88.55325317382812 255 255 255
22.738182067871094 -6.948282718658447 -30.357952117919922 255 255 255
5.985809326171875 -25.329790115356445 -111.80219268798828 255 255 255
6.270050525665283 -24.327795028686523 -102.53267669677734 255 255 255
12.472618103027344 -30.39544105529785 -123.33787536621094 255 255 255
6.430349349975586 -23.55442237854004 -162.6451873779297 255 255 255
10.562173843383789 -19.845983505249023 -133.57972717285156 255 255 255
12.006685256958008 -21.28911018371582 -147.96958923339844 255 255 255
19.702482223510742 -23.738502502441406 -163.52630615234375 255 255 255
40.59149932861328 -25.291227340698242 -159.25677490234375 255 255 255
47.17771911621094 -32.43942642211914 -139.6982879638672 255 255 255
48.11330795288086 -32.247352600097656 -163.10787963867188 255 255 255
116.8200912475586 -35.86376190185547 -133.05194091796875 255 255 255
51.62074279785156 -38.37575149536133 -167.0963592529297 255 255 255
18.8465518951416 -23.351083755493164 -139.1512451171875 255 255 255
26.858186721801758 -23.736896514892578 -161.68638610839844 255 255 255
25.975648880004883 -28.90747833251953 -150.3368377685547 255 255 255
27.27145004272461 -33.317039489746094 -139.6638641357422 255 255 255
18.471580505371094 -24.94748878479004 -169.20863342285156 255 255 255
22.135499954223633 -24.92901039123535 -169.43869018554688 255 255 255
249.36721801757812 -77.8067855834961 -69.8287353515625 255 255 255
73.32521057128906 -35.84100341796875 -118.01981353759766 255 255 255
26.628925323486328 -33.161170959472656 -137.17552185058594 255 255 255
-7.36238956451416 -23.755678176879883 -134.38243103027344 255 255 255
-7.206593990325928 -23.738950729370117 -134.61856079101562 255 255 255
-5.605345726013184 -10.282365798950195 -71.419677734375 255 255 255
-9.198674201965332 4.400901794433594 16.702882766723633 255 255 255
0.6061971187591553 -24.182083129882812 -78.86499786376953 255 255 255
3.6984047889709473 -12.622644424438477 -87.92056274414062 255 255 255
1.3580055236816406 -27.476701736450195 -95.10559844970703 255 255 255
19.757755279541016 -31.344785690307617 -144.8295440673828 255 255 255
-8.685733795166016 -18.48973846435547 -128.78329467773438 255 255 255
10.933728218078613 -19.662567138671875 -133.0533447265625 255 255 255
-7.966054916381836 -34.649200439453125 -96.11134338378906 255 255 255
-5.6420578956604 -23.858993530273438 -127.6980209350586 255 255 255
-7.63865327835083 -23.898998260498047 -133.65725708007812 255 255 255
13.150569915771484 -21.9019775390625 -137.4087371826172 255 255 255
13.97348403930664 -21.717178344726562 -134.6551513671875 255 255 255
23.010602951049805 -25.087108612060547 -170.2082977294922 255 255 255
3.6264383792877197 -10.881123542785645 -73.22923278808594 255 255 255
3.7694828510284424 -17.586278915405273 -87.23836517333984 255 255 255
-5.205585479736328 -17.258056640625 -71.79779052734375 255 255 255
27.201824188232422 -25.174043655395508 -170.33961486816406 255 255 255
62.050994873046875 -32.56435775756836 -156.1920928955078 255 255 255
36.42146301269531 -24.668399810791016 -152.62745666503906 255 255 255
31.346981048583984 -30.84602928161621 -150.7677764892578 255 255 255
12.660039901733398 -21.518766403198242 -150.0938720703125 255 255 255
48.2531623840332 -32.20028305053711 -163.1746063232422 255 255 255
18.70111846923828 -24.326210021972656 -166.5406951904297 255 255 255
19.868776321411133 -22.666183471679688 -139.6311798095703 255 255 255
5.3905510902404785 -22.51400375366211 -89.43234252929688 255 255 255
-2.445780038833618 -22.87263298034668 -133.1014404296875 255 255 255
9.067703247070312 -22.41457176208496 -137.80345153808594 255 255 255
11.580946922302246 -14.995731353759766 -82.73152160644531 255 255 255
9.07847785949707 -30.098417282104492 -123.52063751220703 255 255 255
6.869938373565674 -19.362659454345703 -135.3721160888672 255 255 255
-8.159486770629883 -19.837244033813477 -69.93605041503906 255 255 255
-7.252725601196289 -21.93119239807129 -66.2791976928711 255 255 255
-4.29657506942749 -15.959525108337402 -57.6251220703125 255 255 255
50.81553268432617 -142.2843475341797 193.74066162109375 255 255 255
-8.200688362121582 -24.49830436706543 -120.25831604003906 255 255 255
-43.9200553894043 -31.640100479125977 -187.97247314453125 255 255 255
-43.64199447631836 -32.21631622314453 -187.44989013671875 255 255 255
-37.676856994628906 -32.278968811035156 -198.2592010498047 255 255 255
-38.53343963623047 -31.06380844116211 -183.1515655517578 255 255 255
16.74326515197754 -24.79328155517578 -168.7911834716797 255 255 255
-5.236379146575928 -12.877828598022461 -45.198299407958984 255 255 255
2904.44970703125 -745.227783203125 707.4697875976562 255 255 255
594.1937866210938 -365.0161437988281 827.9172973632812 255 255 255
236.8971405029297 -16.212020874023438 -6.960438251495361 255 255 255
12.179060935974121 -35.14740753173828 -182.51649475097656 255 255 255
13.118839263916016 -34.43947219848633 -181.52345275878906 255 255 255
21.66750717163086 -31.502328872680664 -141.81529235839844 255 255 255
-8.279203414916992 -19.034563064575195 -72.45658874511719 255 255 255
-4.620209217071533 -18.610660552978516 -69.26407623291016 255 255 255
-12.989151000976562 -20.693035125732422 -31.418903350830078 255 255 255
2.8875136375427246 -11.707618713378906 -82.03601837158203 255 255 255
79.50871276855469 -34.909393310546875 -151.28269958496094 255 255 255
0.08389537036418915 -19.967533111572266 -84.12454223632812 255 255 255
5.8655686378479 -25.80025291442871 -114.50721740722656 255 255 255
6.320143699645996 -22.629241943359375 -123.95037841796875 255 255 255
37.87660217285156 -27.84650993347168 -154.68751525878906 255 255 255
8.875648498535156 -2.973954677581787 6.296665191650391 255 255 255
16.952924728393555 -15.12427806854248 48.18107223510742 255 255 255
6.802701950073242 3.3361170291900635 20.065658569335938 255 255 255
-3.645247220993042 -12.80607795715332 -59.563350677490234 255 255 255
64.16861724853516 -99.8842544555664 196.40911865234375 255 255 255
12.017254829406738 -32.14316940307617 -183.85179138183594 255 255 255
13.6819429397583 -28.04564094543457 -184.12095642089844 255 255 255
32.82787322998047 -30.993133544921875 -102.98604583740234 255 255 255
21.884645462036133 -31.991512298583984 -178.68507385253906 255 255 255
22.712038040161133 -28.612911224365234 -174.5132598876953 255 255 255
-5.671940326690674 -15.93177318572998 -69.74136352539062 255 255 255
-4.686951637268066 -6.909057140350342 -51.921199798583984 255 255 255
-0.8026865720748901 -23.83963966369629 -165.2963104248047 255 255 255
76.3764877319336 -19.278249740600586 -136.97763061523438 255 255 255
-10.424988746643066 -30.65250587463379 -100.8913803100586 255 255 255
8.114011764526367 -20.903940200805664 -124.63075256347656 255 255 255
6.443386554718018 -19.388944625854492 -135.74404907226562 255 255 255
-6.708327293395996 -24.035181045532227 -132.73765563964844 255 255 255
14.781879425048828 -30.666170120239258 -119.69959259033203 255 255 255
-1.4751555919647217 -18.992921829223633 -134.1961212158203 255 255 255
14.079572677612305 -27.138580322265625 -122.32177734375 255 255 255
-2.4545247554779053 -22.305538177490234 -128.98789978027344 255 255 255
80.58561706542969 -238.21371459960938 653.6279296875 255 255 255
-4.174470901489258 -24.22100257873535 -132.98260498046875 255 255 255
8.47305965423584 -22.75511360168457 -139.302490234375 255 255 255
-4.066555500030518 -23.582775115966797 -133.12355041503906 255 255 255
1277.0263671875 -371.499755859375 541.7788696289062 255 255 255
42.34003829956055 -27.971046447753906 -151.34884643554688 255 255 255
232.28079223632812 -58.87688064575195 -59.11996078491211 255 255 255
-9.046507835388184 -30.53907012939453 -186.1249542236328 255 255 255
72.06914520263672 -22.46917724609375 -135.6680908203125 255 255 255
38.34788131713867 -31.9880428314209 -147.96144104003906 255 255 255
1.2207587957382202 -25.79339027404785 -93.43083953857422 255 255 255
8.39034366607666 -21.902482986450195 -127.4677505493164 255 255 255
-3.256619453430176 -8.158276557922363 -38.06594467163086 255 255 255
-2.640580415725708 -7.625903606414795 -59.52906799316406 255 255 255
9.065347671508789 -7.418772220611572 -49.897705078125 255 255 255
-10.937045097351074 -28.15296745300293 -101.94725036621094 255 255 255
-4.236695766448975 -8.281718254089355 -54.11614990234375 255 255 255
161.7853240966797 -227.11056518554688 628.972900390625 255 255 255
-4.066830158233643 -11.556541442871094 -70.92528533935547 255 255 255
15.999245643615723 -8.128756523132324 -43.446624755859375 255 255 255
-3.3222193717956543 -30.107872009277344 -98.23657989501953 255 255 255
6.486787796020508 -28.26854133605957 -112.42102813720703 255 255 255
8.304828643798828 -22.94599723815918 -139.2386016845703 255 255 255
18.10177993774414 -23.75000762939453 -163.30909729003906 255 255 255
21.23114585876465 -25.067813873291016 -171.8133087158203 255 255 255
12.314125061035156 -35.0748176574707 -182.38943481445312 255 255 255
7.2491984367370605 -26.24108123779297 -180.22482299804688 255 255 255
12.992342948913574 -35.060760498046875 -182.0983428955078 255 255 255
16.841991424560547 -22.1528263092041 -153.0304718017578 255 255 255
29.81230354309082 -31.143491744995117 -105.51863861083984 255 255 255
31.37078285217285 -31.409067153930664 -150.30702209472656 255 255 255
-7.4151930809021 -11.830084800720215 -24.627458572387695 255 255 255
45.7632942199707 -26.736804962158203 -150.97950744628906 255 255 255
13.775612831115723 -31.855566024780273 -178.98106384277344 255 255 255
29.797643661499023 -34.46574401855469 -175.20758056640625 255 255 255
16.45867156982422 -21.53473472595215 -142.3461456298828 255 255 255
8.152287483215332 -23.85641098022461 -130.93719482421875 255 255 255
15.803777694702148 -30.152318954467773 -146.2493438720703 255 255 255
-15.50361442565918 -20.338348388671875 -125.53471374511719 255 255 255
-13.74567699432373 -24.18987274169922 -119.08488464355469 255 255 255
5.8355560302734375 -25.27851104736328 -104.18517303466797 255 255 255
8.127586364746094 -21.094297409057617 -137.1886444091797 255 255 255
20.294692993164062 -32.89647674560547 -144.15847778320312 255 255 255
634.7351684570312 -358.79736328125 676.7972412109375 255 255 255
1258.26318359375 -552.068359375 -18.54290008544922 255 255 255
1349.1414794921875 -71.09320068359375 506.26629638671875 255 255 255
11.365842819213867 -33.00123596191406 -181.59844970703125 255 255 255
9.141100883483887 -29.675867080688477 -187.30670166015625 255 255 255
22.285146713256836 -26.232282638549805 -176.30511474609375 255 255 255
15.144097328186035 -25.870954513549805 -176.7724151611328 255 255 255
-1.7139320373535156 -20.880752563476562 -133.90475463867188 255 255 255
7.324800968170166 -27.882768630981445 -124.8642349243164 255 255 255
7.620821952819824 -28.492355346679688 -126.01671600341797 255 255 255
-5.982663631439209 -35.38368225097656 -92.86157989501953 255 255 255
6.835916519165039 -12.210311889648438 -75.27446746826172 255 255 255
34.31776809692383 -19.610254287719727 47.73112487792969 255 255 255
9.461538314819336 -3.3140573501586914 5.169070243835449 255 255 255
-1.9475061893463135 -0.2920804023742676 8.935168266296387 255 255 255
7.994568824768066 -19.005029678344727 -119.87736511230469 255 255 255
19.27810287475586 -19.19869041442871 -10.001544952392578 255 255 255
11.635204315185547 0.31843388080596924 -0.00013030889385845512 255 255 255
-27.03230857849121 -0.30191570520401 16.01662826538086 255 255 255
-6.7277021408081055 -11.736381530761719 -70.5378189086914 255 255 255
-1.7207531929016113 -23.293437957763672 -133.72927856445312 255 255 255
10.501405715942383 -18.82161521911621 -127.01544952392578 255 255 255
7.025459289550781 -26.39695167541504 -125.48394775390625 255 255 255
-1.715369701385498 -21.294668197631836 -135.0942840576172 255 255 255
7.634971618652344 -19.041412353515625 -130.9390106201172 255 255 255
17.949960708618164 -31.278949737548828 -180.89227294921875 255 255 255
12.256759643554688 -22.749448776245117 -159.45147705078125 255 255 255
209.8049774169922 -42.03636932373047 -73.18738555908203 255 255 255
665.4832763671875 -289.6963806152344 158.4404296875 255 255 255
51.518333435058594 -26.19292449951172 -158.30271911621094 255 255 255
7.579880714416504 -19.194026947021484 -132.8395538330078 255 255 255
18.474384307861328 -30.241085052490234 -121.51180267333984 255 255 255
17.19269561767578 -30.460235595703125 -120.61459350585938 255 255 255
60.54431915283203 -31.277952194213867 -153.89361572265625 255 255 255
974.0571899414062 -443.5645446777344 493.6174621582031 255 255 255
17.361175537109375 -23.355724334716797 -161.53111267089844 255 255 255
71.79440307617188 -33.30795669555664 -153.05545043945312 255 255 255
17.9685115814209 -24.183847427368164 -165.8103790283203 255 255 255
-4.395426273345947 -22.036462783813477 -84.02739715576172 255 255 255
-4.950294017791748 -22.52093505859375 -81.795654296875 255 255 255
3.1217191219329834 -14.08069133758545 -94.99325561523438 255 255 255
42.5741081237793 -24.19257164001465 -159.80368041992188 255 255 255
16.31533432006836 -29.000701904296875 -171.40237426757812 255 255 255
22.703571319580078 -33.31687927246094 -141.44287109375 255 255 255
-3.643477439880371 -25.926715850830078 -180.23846435546875 255 255 255
68.47151947021484 -38.660240173339844 -113.9262466430664 255 255 255
21.180171966552734 -33.497554779052734 -178.7962646484375 255 255 255
48.055931091308594 -24.727182388305664 -148.49020385742188 255 255 255
13.878293991088867 -34.65041732788086 -182.51907348632812 255 255 255
14.2999849319458 -34.3875732421875 -181.73171997070312 255 255 255
17.562280654907227 -33.57356643676758 -177.6031951904297 255 255 255
10.782678604125977 -32.331275939941406 -179.17160034179688 255 255 255
35.33359146118164 -31.208749771118164 -149.9746856689453 255 255 255
43.63920593261719 -36.88539505004883 -170.6983184814453 255 255 255
13.687982559204102 -35.148860931396484 -182.01148986816406 255 255 255
72.96691131591797 -26.635560989379883 -139.85472106933594 255 255 255
17.463397979736328 -35.91714859008789 -181.06455993652344 255 255 255
14.400313377380371 -35.47062683105469 -182.5302276611328 255 255 255
31.868024826049805 -34.476661682128906 -173.313232421875 255 255 255
15.738194465637207 -35.28163528442383 -182.47023010253906 255 255 255
-2.4656870365142822 -26.3917236328125 -182.81900024414062 255 255 255
16.483572006225586 -27.059492111206055 -151.5525665283203 255 255 255
44.35858917236328 -32.92515563964844 -144.27420043945312 255 255 255
-4.935679912567139 -25.57113265991211 -178.116455078125 255 255 255
14.186025619506836 -31.62013816833496 -184.95401000976562 255 255 255
30.4751033782959 -23.992652893066406 -117.9702377319336 255 255 255
16.03234100341797 -21.049339294433594 -142.53207397460938 255 255 255
22.533618927001953 -27.280628204345703 -148.95669555664062 255 255 255
19.36539649963379 -30.71010398864746 -118.29923248291016 255 255 255
-10.620088577270508 -20.64639663696289 -112.51436614990234 255 255 255
-2.0536773204803467 -18.206697463989258 -124.29299926757812 255 255 255
15.812501907348633 -34.054237365722656 -180.97271728515625 255 255 255
13.99901008605957 -33.180519104003906 -181.33546447753906 255 255 255
19.852277755737305 -33.54248046875 -147.05819702148438 255 255 255
47.68736267089844 -37.48635482788086 -117.47122955322266 255 255 255
-3.408705472946167 -3.7741944789886475 -32.12186050415039 255 255 255
2.5215237140655518 -6.238802909851074 -32.10380554199219 255 255 255
7.171640396118164 -11.40158462524414 -28.25686264038086 255 255 255
27.759347915649414 -34.43501281738281 -138.541748046875 255 255 255
52.7342414855957 -32.6605224609375 -161.24681091308594 255 255 255
-9.816939353942871 -26.031902313232422 -83.50534057617188 255 255 255
4.6766676902771 -18.49626922607422 -104.9274673461914 255 255 255
1.933681845664978 -12.745555877685547 -89.84272766113281 255 255 255
2.033320426940918 -11.954270362854004 -85.41246032714844 255 255 255
3.264927625656128 -19.453868865966797 -132.96937561035156 255 255 255
-4.764958381652832 -33.62919998168945 -93.40374755859375 255 255 255
12.57927417755127 -35.24836349487305 -182.59759521484375 255 255 255
2434.193603515625 -1226.167724609375 3198.5322265625 255 255 255
20.03308868408203 -25.654836654663086 -150.80210876464844 255 255 255
551.1925048828125 -282.1238098144531 611.9237670898438 255 255 255
41.60380172729492 -25.37845802307129 -168.2129669189453 255 255 255
52.426151275634766 -34.8524169921875 -162.37677001953125 255 255 255
63.507083892822266 -40.816253662109375 -164.53045654296875 255 255 255
46.56242370605469 -37.21685791015625 -167.65032958984375 255 255 255
28.9788875579834 -23.915813446044922 -154.18133544921875 255 255 255
39.8108024597168 -31.866676330566406 -146.65550231933594 255 255 255
30.027496337890625 -31.225454330444336 -151.4905242919922 255 255 255
14.085299491882324 -26.155054092407227 -126.27558135986328 255 255 255
-4.835484981536865 -7.698913097381592 -36.52299118041992 255 255 255
9.558995246887207 -6.557031631469727 -40.12220001220703 255 255 255
-3.3569772243499756 -21.351900100708008 -79.84832000732422 255 255 255
-5.081486225128174 -19.69308853149414 -69.21332550048828 255 255 255
-3.5463500022888184 -12.28804874420166 -87.43251037597656 255 255 255
-6.4115166664123535 -26.717304229736328 -184.06028747558594 255 255 255
13.841423988342285 -29.27605438232422 -121.15250396728516 255 255 255
11.131759643554688 -31.7338924407959 -121.72650146484375 255 255 255
-6.9101128578186035 -23.753257751464844 -133.48056030273438 255 255 255
-45.878665924072266 -22.907611846923828 -79.5671615600586 255 255 255
-38.3718147277832 -22.945676803588867 -92.00308990478516 255 255 255
12.065910339355469 -21.160688400268555 -147.86044311523438 255 255 255
24.36347007751465 -29.13495445251465 -122.36846923828125 255 255 255
4.700656890869141 -28.421947479248047 -160.0517120361328 255 255 255
9.389925003051758 -25.092866897583008 -178.44920349121094 255 255 255
-11.273265838623047 -26.001474380493164 -179.0069122314453 255 255 255
33.54668426513672 -32.19944763183594 -147.9749755859375 255 255 255
803.5004272460938 -410.99737548828125 106.8174819946289 255 255 255
35.21615219116211 -19.95814323425293 48.860984802246094 255 255 255
7.325361251831055 -1.881801962852478 7.900070667266846 255 255 255
-4.906385898590088 -16.17774200439453 -53.85258483886719 255 255 255
22.48737907409668 -26.491960525512695 -6.758928298950195 255 255 255
2110.5615234375 -118.44193267822266 864.1315307617188 255 255 255
105.2925796508789 -28.21953773498535 -130.11865234375 255 255 255
9.991865158081055 -32.50656509399414 -115.49370574951172 255 255 255
-13.938495635986328 -20.886905670166016 -127.87728118896484 255 255 255
15.556952476501465 -25.828821182250977 -176.7332763671875 255 255 255
16.907901763916016 -26.545503616333008 -177.50262451171875 255 255 255
-4.538499355316162 -26.35145378112793 -182.3541717529297 255 255 255
-5.760513782501221 -31.297597885131836 -164.89520263671875 255 255 255
107.21139526367188 -36.02598190307617 -105.93998718261719 255 255 255
-4.130481243133545 -2.539443016052246 -20.38027572631836 255 255 255
-5.520936965942383 -8.189753532409668 -19.11138343811035 255 255 255
5.449023723602295 2.944169759750366 11.378240585327148 255 255 255
-1.6378065347671509 -0.34318703413009644 -10.664399147033691 255 255 255
-2.2344727516174316 -3.029141664505005 -6.220120906829834 255 255 255
10.711871147155762 1.0698243379592896 8.012162208557129 255 255 255
-3.6495254039764404 -6.502135753631592 9.698272705078125 255 255 255
-2.734530448913574 -2.8890109062194824 -5.194249629974365 255 255 255
-5.254174709320068 -9.299806594848633 -12.119000434875488 255 255 255
-7.249885559082031 -4.698325157165527 -25.242563247680664 255 255 255
17.371318817138672 -14.948987007141113 43.08220291137695 255 255 255
-2.1045618057250977 -4.232141494750977 -13.440879821777344 255 255 255
15.731794357299805 -12.97701358795166 96.78288269042969 255 255 255
-3.094230890274048 -2.507848024368286 -6.858854293823242 255 255 255
-3.7942702770233154 -0.4063141644001007 -4.820247173309326 255 255 255
24.005773544311523 2.39599609375 36.01991653442383 255 255 255
-17.176904678344727 3.021789789199829 29.39075469970703 255 255 255
-8.603129386901855 1.5368154048919678 9.748332023620605 255 255 255
6.971115589141846 3.438523530960083 48.984130859375 255 255 255
24.200408935546875 -22.310184478759766 44.116939544677734 255 255 255
-3.9357376098632812 -1.9163750410079956 -16.467327117919922 255 255 255
-8.057025909423828 -7.958602428436279 -24.885770797729492 255 255 255
0.27207785844802856 0.19601033627986908 -9.492589950561523 255 255 255
-2.39389967918396 -4.582143306732178 -4.098718166351318 255 255 255
-2.4131336212158203 -4.756374835968018 -4.924681186676025 255 255 255
-2.325146198272705 -5.104969024658203 -3.713941812515259 255 255 255
-4.93679141998291 -2.2705512046813965 -2.497514486312866 255 255 255
8.664989471435547 -2.911715507507324 5.8473591804504395 255 255 255
1.4350587129592896 8.621158599853516 59.4245491027832 255 255 255
-5.329133033752441 -7.04200553894043 11.28591251373291 255 255 255
-0.7128455638885498 -0.557469367980957 -11.085829734802246 255 255 255
4.122134208679199 0.0017102390993386507 -8.711183547973633 255 255 255
8.63029670715332 -4.870623588562012 13.199353218078613 255 255 255
7.0517578125 -1.8620840311050415 7.359930992126465 255 255 255
-3.6465742588043213 1.8459594249725342 15.513861656188965 255 255 255
11.031305313110352 -1.0215874910354614 12.776474952697754 255 255 255
-3.8143744468688965 -4.549498081207275 8.13736629486084 255 255 255
-2.8137989044189453 -5.04757833480835 20.972061157226562 255 255 255
8.344636917114258 -4.675335884094238 9.000456809997559 255 255 255
5.970077037811279 3.9614782333374023 13.005563735961914 255 255 255
-3.952982187271118 1.3246575593948364 11.160947799682617 255 255 255
-3.298785924911499 1.5710890293121338 1.2912280559539795 255 255 255
-3.9016387462615967 0.5276297926902771 0.914607048034668 255 255 255
20.33515167236328 -20.60199546813965 52.31342697143555 255 255 255
7.225257873535156 -0.4727524220943451 10.159653663635254 255 255 255
-3.2648072242736816 -2.5368311405181885 -6.489670753479004 255 255 255
-2.1463944911956787 -4.800967216491699 -4.500455379486084 255 255 255
10.637907028198242 1.4212887287139893 8.71526050567627 255 255 255
-2.8570735454559326 -0.28548699617385864 -10.223212242126465 255 255 255
7.386779308319092 -1.864479660987854 8.1287841796875 255 255 255
7.144895076751709 -1.9084230661392212 7.252623081207275 255 255 255
11.077326774597168 -0.07553119957447052 12.485429763793945 255 255 255
-20.99481201171875 -21.05987548828125 54.2050895690918 255 255 255
17.226041793823242 -8.8986234664917 45.01953887939453 255 255 255
8.133858680725098 -3.548598051071167 6.813231468200684 255 255 255
6.220024108886719 2.3486502170562744 13.377899169921875 255 255 255
8.792093276977539 -4.010955810546875 13.902316093444824 255 255 255
13.934715270996094 -5.694191932678223 29.56647491455078 255 255 255
10.446677207946777 -4.569400310516357 17.525522232055664 255 255 255
5.624493598937988 -2.9469053745269775 34.85054397583008 255 255 255
15.150382041931152 -8.653039932250977 66.27428436279297 255 255 255
-1.863057017326355 -5.339992046356201 15.877854347229004 255 255 255
19.20693016052246 2.0963499546051025 34.246673583984375 255 255 255
12.835060119628906 3.423305034637451 26.399673461914062 255 255 255
-3.905665636062622 1.3163540363311768 3.219611644744873 255 255 255
10.019031524658203 3.0852530002593994 20.729955673217773 255 255 255
11.250164985656738 -2.1760547161102295 83.91832733154297 255 255 255
4.655688285827637 3.046630859375 46.101200103759766 255 255 255
-9.142931938171387 0.2031193971633911 9.830121040344238 255 255 255
-4.083641052246094 1.3168786764144897 5.3881425857543945 255 255 255
5.878805637359619 -2.4640421867370605 16.68241310119629 255 255 255
9.38679027557373 -3.279871940612793 6.623456001281738 255 255 255
8.233220100402832 -2.9428839683532715 6.69483757019043 255 255 255
-3.575625419616699 -6.7210917472839355 -6.585773468017578 255 255 255
9.520617485046387 1.824789047241211 10.094331741333008 255 255 255
-2.967867612838745 -0.04349520057439804 -9.669960021972656 255 255 255
5.850872993469238 -1.0149976015090942 9.381239891052246 255 255 255
9.519410133361816 9.31262493133545 55.09767532348633 255 255 255
4.423332691192627 3.108255386352539 11.445413589477539 255 255 255
10.320743560791016 5.834921360015869 39.146270751953125 255 255 255
-4.088796615600586 3.322273015975952 22.104267120361328 255 255 255
-1.9406906366348267 -2.1516284942626953 20.62088966369629 255 255 255
6.392530918121338 -2.2712864875793457 14.408823013305664 255 255 255
-2.7174432277679443 -0.173160582780838 -9.469226837158203 255 255 255
-3.960146188735962 -2.3699791431427 -6.556417465209961 255 255 255
-3.6746413707733154 0.049609117209911346 -8.909028053283691 255 255 255
-1.041879653930664 -4.401188373565674 16.82240104675293 255 255 255
8.900040626525879 6.557829856872559 55.83598709106445 255 255 255
-2.5759122371673584 0.9630441069602966 -2.2596020698547363 255 255 255
-3.5277373790740967 -2.117027521133423 -4.88184928894043 255 255 255
14.214877128601074 1.7121927738189697 8.824013710021973 255 255 255
-2.610816240310669 -4.717421054840088 -5.575920581817627 255 255 255
8.516053199768066 -1.7556657791137695 6.383049964904785 255 255 255
9.221375465393066 -2.068855047225952 5.25673246383667 255 255 255
10.475525856018066 -3.924957513809204 5.655732154846191 255 255 255
-3.8505563735961914 -0.20720389485359192 0.6869187355041504 255 255 255
-3.8971025943756104 0.7839566469192505 7.0807271003723145 255 255 255
8.693082809448242 -3.6555392742156982 4.279104232788086 255 255 255
