8.996917724609375 14.760516166687012 114.72817993164062 255 255 255
5.197246074676514 12.707314491271973 131.6751708984375 255 255 255
-6.460487365722656 6.91684627532959 43.164981842041016 255 255 255
-4.401333332061768 1.5961487293243408 42.92769241333008 255 255 255
7.036618232727051 7.816802978515625 43.55910110473633 255 255 255
11.001866340637207 6.345898151397705 51.501251220703125 255 255 255
-10.46430778503418 2.0704619884490967 53.280418395996094 255 255 255
9.86672592163086 3.6941263675689697 58.212249755859375 255 255 255
-4.143859386444092 6.7313103675842285 46.33740997314453 255 255 255
14.141897201538086 2.7761361598968506 76.37487030029297 255 255 255
-6.022208213806152 7.187816143035889 43.82585144042969 255 255 255
-1.2375330924987793 8.022464752197266 53.52081298828125 255 255 255
15.897845268249512 9.478727340698242 101.10073852539062 255 255 255
23.640867233276367 12.677567481994629 99.73516082763672 255 255 255
13.6673583984375 7.8528923988342285 131.40406799316406 255 255 255
13.346088409423828 7.8156657218933105 130.15284729003906 255 255 255
-15.174339294433594 13.79387378692627 142.5326690673828 255 255 255
-0.7182542085647583 24.203683853149414 157.17848205566406 255 255 255
4.653461456298828 2.1100611686706543 83.02244567871094 255 255 255
7.577332019805908 1.5939666032791138 92.56532287597656 255 255 255
4.403984069824219 4.99481201171875 82.22806549072266 255 255 255
16.029577255249023 7.584628105163574 76.26451873779297 255 255 255
15.54699993133545 4.794941425323486 73.33992767333984 255 255 255
4.51685905456543 2.892730951309204 80.72004699707031 255 255 255
8.67709732055664 12.062362670898438 119.98584747314453 255 255 255
6.6175618171691895 16.40479850769043 119.45966339111328 255 255 255
8.400589942932129 12.22115707397461 129.98440551757812 255 255 255
-68.93601989746094 24.00568389892578 161.1376495361328 255 255 255
-52.23222732543945 18.049606323242188 161.11001586914062 255 255 255
-54.66556167602539 6.756439208984375 151.8577423095703 255 255 255
-51.644493103027344 9.688641548156738 149.67674255371094 255 255 255
5.191015720367432 4.838338375091553 80.41988372802734 255 255 255
4.587393760681152 -2.4249656200408936 90.28144836425781 255 255 255
6.859374046325684 0.28226158022880554 92.84741973876953 255 255 255
15.721202850341797 6.103936195373535 74.27447509765625 255 255 255
8.499032020568848 5.998705863952637 140.5140380859375 255 255 255
2.13106369972229 17.372196197509766 142.6066436767578 255 255 255
-1.192585825920105 7.61484432220459 57.29545593261719 255 255 255
5.951701641082764 7.507850646972656 54.01750946044922 255 255 255
-35.083560943603516 14.275544166564941 149.57272338867188 255 255 255
-19.735864639282227 19.69229507446289 150.4319305419922 255 255 255
-26.02547836303711 14.343908309936523 143.12110900878906 255 255 255
-21.524003982543945 15.489033699035645 144.66506958007812 255 255 255
16.600759506225586 12.827057838439941 104.03534698486328 255 255 255
19.261796951293945 11.93224048614502 101.69540405273438 255 255 255
16.04720115661621 10.42558765411377 102.71363830566406 255 255 255
6.7748613357543945 15.726395606994629 130.4975128173828 255 255 255
-19.097965240478516 4.381406784057617 44.8773078918457 255 255 255
4.337263584136963 7.490699291229248 41.94212341308594 255 255 255
10.411979675292969 4.264530658721924 34.55097198486328 255 255 255
-4.840332984924316 5.324472427368164 25.81722640991211 255 255 255
3.4114391803741455 5.05525016784668 29.154478073120117 255 255 255
22.208555221557617 7.687679290771484 89.16752624511719 255 255 255
21.590129852294922 10.520654678344727 91.29293823242188 255 255 255
14.505528450012207 12.267845153808594 121.6881103515625 255 255 255
8.710076332092285 9.457756042480469 87.48473358154297 255 255 255
-9.88942813873291 16.50353240966797 146.5281982421875 255 255 255
-31.338823318481445 13.362626075744629 155.01185607910156 255 255 255
-21.94809913635254 14.046920776367188 148.3453369140625 255 255 255
6.375248432159424 14.251177787780762 129.42930603027344 255 255 255
4.535542964935303 12.095584869384766 130.2196502685547 255 255 255
-4.404115200042725 0.13316968083381653 41.42597961425781 255 255 255
15.924384117126465 14.975678443908691 115.09440612792969 255 255 255
16.625350952148438 4.461925983428955 107.42324829101562 255 255 255
10.69421100616455 9.586889266967773 107.92489624023438 255 255 255
31.09498405456543 1.6748628616333008 119.05445098876953 255 255 255
14.992786407470703 11.961745262145996 108.86334991455078 255 255 255
11.433262825012207 8.439579010009766 103.01244354248047 255 255 255
-17.924880981445312 3.176892042160034 50.59159851074219 255 255 255
-11.020160675048828 3.063215494155884 57.08464813232422 255 255 255
5.922519683837891 17.1524658203125 122.63340759277344 255 255 255
9.537389755249023 13.811555862426758 131.10411071777344 255 255 255
-60.095977783203125 21.209943771362305 149.94284057617188 255 255 255
-51.94199752807617 24.858795166015625 167.5235137939453 255 255 255
-13.582249641418457 6.043445110321045 40.759891510009766 255 255 255
-9.223246574401855 5.8716325759887695 43.12803649902344 255 255 255
-6.065682411193848 6.346951961517334 41.87423324584961 255 255 255
19.587263107299805 13.400634765625 110.30714416503906 255 255 255
8.22904109954834 2.2470176219940186 147.1420135498047 255 255 255
8.586946487426758 7.813192367553711 113.76194763183594 255 255 255
18.806489944458008 12.728991508483887 102.27816009521484 255 255 255
11.446857452392578 8.32524299621582 111.1085433959961 255 255 255
12.724668502807617 9.343260765075684 119.16856384277344 255 255 255
14.325860023498535 11.471607208251953 114.98888397216797 255 255 255
18.78104591369629 11.597139358520508 106.28775024414062 255 255 255
13.260032653808594 12.852241516113281 122.93832397460938 255 255 255
-12.7730712890625 8.277417182922363 56.070960998535156 255 255 255
-17.531280517578125 5.591524124145508 38.83675765991211 255 255 255
-13.4125394821167 -24.661203384399414 108.7888412475586 255 255 255
-4.431933403015137 5.0799241065979 25.056547164916992 255 255 255
-38.223167419433594 19.931055068969727 174.6067352294922 255 255 255
15.331143379211426 9.1691255569458 79.23252868652344 255 255 255
15.022537231445312 8.764081954956055 79.13240051269531 255 255 255
4.772615432739258 -1.0651309490203857 88.13815307617188 255 255 255
4.742265224456787 4.641421318054199 80.4091567993164 255 255 255
4.828890800476074 3.4176387786865234 81.21380615234375 255 255 255
8.263745307922363 1.7840383052825928 91.3878173828125 255 255 255
13.60851764678955 4.689418792724609 75.18050384521484 255 255 255
7.574278831481934 8.50984001159668 79.00495910644531 255 255 255
5.821270942687988 3.467097759246826 85.43059539794922 255 255 255
6.846510887145996 7.817295074462891 74.89215087890625 255 255 255
28.626514434814453 -0.08754842728376389 123.53099060058594 255 255 255
16.11156463623047 10.822518348693848 106.6151123046875 255 255 255
13.114737510681152 4.8665618896484375 74.65521240234375 255 255 255
12.051692008972168 8.840909004211426 102.08028411865234 255 255 255
5.736936092376709 6.313284873962402 80.89684295654297 255 255 255
7.96925687789917 4.096634387969971 85.34558868408203 255 255 255
12.766557693481445 20.14801597595215 148.13821411132812 255 255 255
5.959619522094727 14.205025672912598 130.43701171875 255 255 255
4.938013553619385 17.48841094970703 124.75939178466797 255 255 255
-7.545141696929932 17.479957580566406 147.24810791015625 255 255 255
7.739248752593994 3.2530505657196045 90.69965362548828 255 255 255
4.104791641235352 6.5959930419921875 71.56969451904297 255 255 255
-60.74639892578125 21.023225784301758 148.02581787109375 255 255 255
16.224546432495117 11.794751167297363 113.76062774658203 255 255 255
14.766597747802734 12.144370079040527 116.36217498779297 255 255 255
10.81576156616211 8.239027976989746 108.68701934814453 255 255 255
16.59954071044922 12.8471097946167 115.09146118164062 255 255 255
5.415605068206787 5.201113224029541 79.53905487060547 255 255 255
4.885484218597412 2.9978384971618652 84.054443359375 255 255 255
9.284942626953125 4.509024620056152 88.48191833496094 255 255 255
-25.675701141357422 -6.585622310638428 54.160987854003906 255 255 255
4.115414619445801 7.443191051483154 44.318641662597656 255 255 255
-17.89805793762207 -5.060372829437256 41.656307220458984 255 255 255
-0.15559795498847961 -3.950225353240967 75.82100677490234 255 255 255
9.814018249511719 4.252246379852295 89.85382843017578 255 255 255
11.936602592468262 11.428597450256348 89.60432434082031 255 255 255
16.90107536315918 6.222441673278809 107.73469543457031 255 255 255
13.088814735412598 17.24165916442871 135.54739379882812 255 255 255
9.53685474395752 16.005857467651367 132.88133239746094 255 255 255
-66.0921630859375 20.175939559936523 161.71470642089844 255 255 255
-68.95897674560547 15.791133880615234 156.48373413085938 255 255 255
-58.35194396972656 15.35521411895752 148.97520446777344 255 255 255
-17.227540969848633 4.532713890075684 44.540443420410156 255 255 255
-10.490804672241211 5.379967212677002 49.4272575378418 255 255 255
-18.166250228881836 4.646900177001953 40.28852081298828 255 255 255
-13.46381664276123 4.946800708770752 43.10222625732422 255 255 255
-6.283542633056641 5.971226215362549 32.41976547241211 255 255 255
7.421828269958496 16.513879776000977 118.6098861694336 255 255 255
18.532169342041016 17.03607177734375 126.43933868408203 255 255 255
6.795036315917969 14.611108779907227 119.33499908447266 255 255 255
6.453408241271973 17.47943687438965 124.78170776367188 255 255 255
11.104597091674805 18.025157928466797 128.75296020507812 255 255 255
-2.102795362472534 8.75068187713623 139.21600341796875 255 255 255
2.9413177967071533 9.648911476135254 131.360595703125 255 255 255
-20.09857177734375 -16.968517303466797 78.89619445800781 255 255 255
-21.378509521484375 -12.538763999938965 70.38356018066406 255 255 255
-12.993317604064941 3.519050359725952 54.89163589477539 255 255 255
-4.362173557281494 6.452009677886963 38.325897216796875 255 255 255
-17.991352081298828 3.346369504928589 50.39374923706055 255 255 255
12.671246528625488 0.5741596221923828 66.34252166748047 255 255 255
12.984905242919922 1.385900616645813 67.20308685302734 255 255 255
12.844593048095703 0.6445941925048828 67.17355346679688 255 255 255
-0.6337729096412659 5.852951526641846 60.10444641113281 255 255 255
-0.6683863401412964 5.775795936584473 57.92893981933594 255 255 255
14.908597946166992 6.139824390411377 84.11544799804688 255 255 255
3.7592172622680664 3.6835033893585205 79.60939025878906 255 255 255
10.771207809448242 11.084700584411621 86.30732727050781 255 255 255
18.909456253051758 1.5492602586746216 136.8445281982422 255 255 255
2.936706304550171 2.734153985977173 80.94788360595703 255 255 255
41.107421875 -3.741612672805786 141.7220916748047 255 255 255
6.480534553527832 10.982864379882812 127.12567901611328 255 255 255
15.948972702026367 13.720656394958496 117.12689208984375 255 255 255
18.402223587036133 11.657464981079102 102.35772705078125 255 255 255
95.0531005859375 -24.611913681030273 252.27969360351562 255 255 255
23.192100524902344 -20.445728302001953 181.65081787109375 255 255 255
-10.607833862304688 5.439373970031738 29.996191024780273 255 255 255
13.056379318237305 5.203402996063232 69.47676849365234 255 255 255
0.37836775183677673 7.40023946762085 62.358001708984375 255 255 255
24.881664276123047 -0.9618051648139954 107.39649963378906 255 255 255
5.468435764312744 1.14875328540802 88.96849060058594 255 255 255
5.0810394287109375 1.9861900806427002 84.1375732421875 255 255 255
9.285862922668457 1.701798677444458 92.03817749023438 255 255 255
8.29666519165039 1.7368359565734863 91.57411193847656 255 255 255
15.178303718566895 8.736187934875488 76.2854995727539 255 255 255
-62.58598709106445 9.101765632629395 161.17791748046875 255 255 255
-91.72148895263672 17.606342315673828 145.79298400878906 255 255 255
-71.74323272705078 28.197021484375 185.87347412109375 255 255 255
5.243197441101074 -4.257423400878906 90.45158386230469 255 255 255
1.8830054998397827 3.1524899005889893 72.729248046875 255 255 255
-2.2815704345703125 -1.3522822856903076 45.86380386352539 255 255 255
-22.98660659790039 -0.24075418710708618 67.72567749023438 255 255 255
-20.927865982055664 -6.654525279998779 60.339290618896484 255 255 255
-6.128712177276611 -4.322449684143066 39.39663314819336 255 255 255
-4.080566883087158 -15.858769416809082 93.739990234375 255 255 255
-5.2893500328063965 6.449264049530029 34.436866760253906 255 255 255
-23.452409744262695 -0.07859326899051666 54.90802001953125 255 255 255
7.033020496368408 12.336174011230469 118.62606811523438 255 255 255
12.48576545715332 16.50255012512207 120.36746215820312 255 255 255
-11.009899139404297 5.398946285247803 43.44511032104492 255 255 255
3.800602912902832 4.602332592010498 23.231019973754883 255 255 255
3.7385551929473877 14.796806335449219 141.77578735351562 255 255 255
0.6254347562789917 16.641679763793945 137.1910858154297 255 255 255
-73.45024108886719 3.2142250537872314 182.41038513183594 255 255 255
-14.482237815856934 26.747098922729492 172.3223419189453 255 255 255
1.5843952894210815 18.821382522583008 132.89280700683594 255 255 255
-0.9101479649543762 18.46942710876465 130.73733520507812 255 255 255
17.346662521362305 11.528125762939453 92.20990753173828 255 255 255
11.671796798706055 6.163631439208984 98.24507141113281 255 255 255
35.55503845214844 11.96790885925293 142.80909729003906 255 255 255
28.812158584594727 -4.6362996101379395 127.13575744628906 255 255 255
5.677619934082031 4.364502906799316 79.86334228515625 255 255 255
3.094862937927246 2.9869019985198975 79.89169311523438 255 255 255
4.498239517211914 3.9450392723083496 78.9302749633789 255 255 255
8.98779296875 17.91282844543457 140.21624755859375 255 255 255
-21.260042190551758 12.884333610534668 152.5320587158203 255 255 255
-3.244046926498413 22.147457122802734 158.39479064941406 255 255 255
8.299835205078125 16.63893699645996 132.47950744628906 255 255 255
5.1664557456970215 7.4696197509765625 72.40568542480469 255 255 255
5.606747627258301 7.700987815856934 72.85977172851562 255 255 255
43.67933654785156 -14.002974510192871 120.2376937866211 255 255 255
5.16603946685791 5.072412490844727 78.65805053710938 255 255 255
10.810608863830566 4.179462432861328 96.8525161743164 255 255 255
1.6674962043762207 0.8673576712608337 78.09757995605469 255 255 255
-32.650508880615234 21.01224708557129 145.68882751464844 255 255 255
-67.00790405273438 20.60459327697754 164.70501708984375 255 255 255
-33.55423355102539 22.485475540161133 156.75918579101562 255 255 255
0.27399441599845886 16.508981704711914 137.68295288085938 255 255 255
14.894128799438477 8.363051414489746 72.60853576660156 255 255 255
33.51219940185547 17.275421142578125 124.32877349853516 255 255 255
18.004671096801758 12.879631042480469 104.0385513305664 255 255 255
4.031177043914795 3.2263429164886475 80.1449203491211 255 255 255
3.8690192699432373 3.7495927810668945 80.22525024414062 255 255 255
-3.7070980072021484 5.1727495193481445 43.12250900268555 255 255 255
-8.765593528747559 5.491211414337158 30.696386337280273 255 255 255
-4.026346683502197 7.208667278289795 42.97651290893555 255 255 255
-5.242303371429443 -3.356755018234253 43.81113052368164 255 255 255
7.192756652832031 3.891662836074829 27.107431411743164 255 255 255
-14.146949768066406 0.5543355345726013 47.833309173583984 255 255 255
-17.283794403076172 2.9974143505096436 52.0552864074707 255 255 255
-24.392351150512695 3.0448856353759766 48.897544860839844 255 255 255
-13.09548282623291 1.1784512996673584 49.97459030151367 255 255 255
-28.39361572265625 -0.5939853191375732 57.48762512207031 255 255 255
-10.263429641723633 -0.18516935408115387 38.59114074707031 255 255 255
-5.081298828125 -1.7641425132751465 44.19221115112305 255 255 255
3.4044911861419678 4.698643207550049 78.56637573242188 255 255 255
-11.192255020141602 5.632190704345703 29.999311447143555 255 255 255
-2.683997392654419 4.642432689666748 22.36368751525879 255 255 255
-2.5761520862579346 4.533412456512451 21.943252563476562 255 255 255
4.462122917175293 5.392398357391357 31.511621475219727 255 255 255
-4.859318733215332 -6.4884796142578125 47.5867919921875 255 255 255
-5.175870895385742 -6.897305011749268 49.703731536865234 255 255 255
1.9196401834487915 19.08849334716797 136.06532287597656 255 255 255
1.4604589939117432 18.925273895263672 132.45513916015625 255 255 255
-0.7631551623344421 13.951170921325684 135.20352172851562 255 255 255
-6.2780256271362305 14.03975772857666 142.00717163085938 255 255 255
12.859846115112305 14.757277488708496 108.8886489868164 255 255 255
15.17782211303711 20.93405532836914 136.14991760253906 255 255 255
6.122483253479004 14.098220825195312 129.2449951171875 255 255 255
9.842106819152832 12.913315773010254 129.3069610595703 255 255 255
12.131829261779785 24.94917106628418 158.79000854492188 255 255 255
2.023883104324341 11.21588134765625 133.58334350585938 255 255 255
6.517055511474609 11.146611213684082 119.9413070678711 255 255 255
-1.4653438329696655 7.18828010559082 60.255958557128906 255 255 255
-1.3967167139053345 7.835049629211426 56.39430236816406 255 255 255
5.8120036125183105 7.377323150634766 50.03636932373047 255 255 255
1.814620018005371 -7.451030731201172 84.88652038574219 255 255 255
5.938311576843262 7.665422439575195 73.87171173095703 255 255 255
4.691789150238037 7.559894561767578 56.0871467590332 255 255 255
-0.7535397410392761 7.5616455078125 59.05233383178711 255 255 255
-15.00430679321289 5.494260787963867 40.18342590332031 255 255 255
-5.974481105804443 4.792007923126221 43.731788635253906 255 255 255
-18.745826721191406 3.134279251098633 50.36048126220703 255 255 255
2.756854772567749 7.832756519317627 47.44362258911133 255 255 255
2.592613935470581 7.202422142028809 44.0858154296875 255 255 255
0.12920399010181427 -24.063316345214844 141.4652557373047 255 255 255
2.1108100414276123 -1.4502801895141602 90.97760772705078 255 255 255
-32.4002799987793 -1.4390414953231812 78.70093536376953 255 255 255
-4.9646735191345215 7.147860050201416 41.95734405517578 255 255 255
13.585755348205566 0.925224781036377 73.39595794677734 255 255 255
4.790842533111572 7.686305522918701 55.49533462524414 255 255 255
-3.3707971572875977 3.5642967224121094 55.33362579345703 255 255 255
22.706342697143555 13.31689739227295 122.53414154052734 255 255 255
3.256272315979004 3.4656827449798584 80.5905532836914 255 255 255
3.9059369564056396 5.2542338371276855 79.36309051513672 255 255 255
10.088879585266113 4.260349750518799 90.65486907958984 255 255 255
-50.28884506225586 20.231996536254883 165.83258056640625 255 255 255
-50.969547271728516 19.449888229370117 166.80453491210938 255 255 255
-41.42045593261719 19.07939338684082 177.31838989257812 255 255 255
-47.749900817871094 22.4481143951416 168.27053833007812 255 255 255
-49.80839920043945 18.951854705810547 163.88616943359375 255 255 255
-42.09008026123047 25.63840675354004 170.56561279296875 255 255 255
-10.636940002441406 4.767700672149658 46.43156051635742 255 255 255
6.223422050476074 7.624285697937012 45.10890579223633 255 255 255
-6.036995887756348 7.229928016662598 41.87092590332031 255 255 255
-2.6635427474975586 7.952661037445068 46.70702362060547 255 255 255
4.296045780181885 7.3123087882995605 53.492431640625 255 255 255
13.385952949523926 -3.8406124114990234 71.5430908203125 255 255 255
7.898794174194336 16.594335556030273 130.37998962402344 255 255 255
9.840343475341797 16.37465476989746 118.70021057128906 255 255 255
10.924498558044434 9.205747604370117 124.07616424560547 255 255 255
-14.257781028747559 5.9301323890686035 38.61719512939453 255 255 255
-5.091270923614502 7.1394195556640625 41.913848876953125 255 255 255
-17.489479064941406 -3.9949374198913574 41.472076416015625 255 255 255
-9.581775665283203 6.146567344665527 33.49797439575195 255 255 255
-2.2362823486328125 0.9497255682945251 42.21743392944336 255 255 255
-15.364131927490234 4.359982013702393 43.93580627441406 255 255 255
10.627684593200684 9.797086715698242 86.64968872070312 255 255 255
9.216133117675781 9.110393524169922 88.83393859863281 255 255 255
-25.87651824951172 11.734582901000977 141.31727600097656 255 255 255
-27.661588668823242 12.393126487731934 150.97459411621094 255 255 255
-15.586638450622559 17.092065811157227 140.03981018066406 255 255 255
20.771953582763672 0.550977885723114 151.49363708496094 255 255 255
-24.653568267822266 -0.31674298644065857 56.85104751586914 255 255 255
10.356355667114258 2.648615837097168 35.191795349121094 255 255 255
-8.333172798156738 -5.235588073730469 46.28296661376953 255 255 255
9.30912971496582 -2.9261045455932617 39.8685417175293 255 255 255
-5.009166717529297 6.482168674468994 36.71593475341797 255 255 255
2.1503119468688965 4.455094814300537 69.89195251464844 255 255 255
-30.3201961517334 0.544104278087616 57.97813034057617 255 255 255
14.664871215820312 -3.2319514751434326 83.45392608642578 255 255 255
4.00482177734375 -3.833064079284668 86.77912139892578 255 255 255
12.676457405090332 11.912307739257812 100.19831085205078 255 255 255
17.945724487304688 9.442768096923828 101.66620635986328 255 255 255
4.54135799407959 2.6071929931640625 79.07145690917969 255 255 255
2.662865161895752 3.6180810928344727 80.24353790283203 255 255 255
13.351813316345215 -2.858095645904541 73.52033996582031 255 255 255
-3.5107710361480713 7.6816911697387695 45.002281188964844 255 255 255
-31.084272384643555 40.67955780029297 265.3948974609375 255 255 255
-41.92258071899414 41.2446403503418 260.32318115234375 255 255 255
-42.15724182128906 37.771942138671875 259.1912841796875 255 255 255
-48.26544189453125 41.7516975402832 263.5521545410156 255 255 255
11.097718238830566 12.33544921875 107.63218688964844 255 255 255
12.91351318359375 11.763566970825195 118.49518585205078 255 255 255
5.828646183013916 12.37407398223877 131.31251525878906 255 255 255
10.08222770690918 8.36594009399414 112.4837417602539 255 255 255
19.02573585510254 11.649089813232422 106.67115020751953 255 255 255
20.290590286254883 9.999493598937988 114.57078552246094 255 255 255
-61.68098068237305 9.09418773651123 145.83480834960938 255 255 255
-49.93894577026367 15.177752494812012 150.59027099609375 255 255 255
-54.225074768066406 7.203724384307861 151.572265625 255 255 255
-4.984589099884033 14.228652000427246 140.54632568359375 255 255 255
2.643319845199585 18.95636749267578 134.08230590820312 255 255 255
6.5152692794799805 18.52226448059082 133.0208282470703 255 255 255
3.5675439834594727 18.794736862182617 132.6605682373047 255 255 255
2.0655763149261475 12.46778392791748 132.02413940429688 255 255 255
-28.10989761352539 22.03881072998047 179.65133666992188 255 255 255
19.02655029296875 13.33565902709961 101.71112060546875 255 255 255
15.530051231384277 12.158642768859863 115.39897155761719 255 255 255
5.705431938171387 6.309753894805908 81.01879119873047 255 255 255
4.858630180358887 4.167633056640625 79.30187225341797 255 255 255
10.451172828674316 3.551177740097046 90.00682067871094 255 255 255
13.242047309875488 2.4219510555267334 70.41375732421875 255 255 255
3.980013847351074 6.90573787689209 66.30582427978516 255 255 255
4.463129043579102 3.568063974380493 81.3204116821289 255 255 255
9.104476928710938 12.573476791381836 114.6085433959961 255 255 255
6.949086666107178 8.908780097961426 119.48587036132812 255 255 255
14.810803413391113 16.46465301513672 118.95479583740234 255 255 255
4.900930404663086 9.708386421203613 133.1683349609375 255 255 255
-0.832028865814209 15.443880081176758 135.50393676757812 255 255 255
11.965694427490234 18.61322593688965 139.61512756347656 255 255 255
6.73862361907959 15.352519035339355 120.59449768066406 255 255 255
1.312986135482788 12.873360633850098 130.60317993164062 255 255 255
4.032491207122803 8.740348815917969 131.9065704345703 255 255 255
10.52380084991455 17.260791778564453 123.96524810791016 255 255 255
4.902787685394287 9.984969139099121 134.24981689453125 255 255 255
4.591124057769775 13.18184757232666 127.71910858154297 255 255 255
4.01662540435791 5.961612224578857 31.487977981567383 255 255 255
-17.487316131591797 -5.471071720123291 38.660831451416016 255 255 255
-7.709275245666504 6.19508695602417 45.55209732055664 255 255 255
-23.68708038330078 -4.536370277404785 62.86031723022461 255 255 255
11.933614730834961 -2.74483323097229 36.919761657714844 255 255 255
-4.933498859405518 6.450292587280273 35.32700729370117 255 255 255
11.033562660217285 -5.255549430847168 45.34492111206055 255 255 255
10.086968421936035 5.63044548034668 91.11396026611328 255 255 255
66.24522399902344 30.159439086914062 187.0635986328125 255 255 255
-10.031854629516602 5.931008338928223 44.485591888427734 255 255 255
11.253214836120605 -6.65697717666626 55.13664627075195 255 255 255
5.525889873504639 7.152403831481934 43.31736373901367 255 255 255
9.519111633300781 2.1235265731811523 34.66356658935547 255 255 255
9.77447509765625 -2.5688679218292236 38.977699279785156 255 255 255
-4.888720989227295 8.038005828857422 44.01199722290039 255 255 255
2.755129814147949 4.159867763519287 25.10561180114746 255 255 255
11.543878555297852 -1.8010390996932983 36.15771484375 255 255 255
11.28768253326416 2.966177463531494 55.126190185546875 255 255 255
23.64644432067871 2.109644651412964 135.61622619628906 255 255 255
10.570547103881836 -0.12323461472988129 32.86473083496094 255 255 255
-13.947505950927734 4.625235557556152 45.31438446044922 255 255 255
7.8561482429504395 3.729759454727173 88.89823150634766 255 255 255
-47.49846649169922 19.349056243896484 157.9161834716797 255 255 255
-38.97355270385742 21.90154266357422 161.74563598632812 255 255 255
-35.995635986328125 15.860515594482422 145.88804626464844 255 255 255
-31.922197341918945 22.542865753173828 157.21969604492188 255 255 255
-0.7214873433113098 25.209440231323242 168.08724975585938 255 255 255
0.38261428475379944 16.487470626831055 137.2483367919922 255 255 255
0.9981354475021362 15.764819145202637 141.401611328125 255 255 255
-0.6813687086105347 14.385004043579102 135.74937438964844 255 255 255
0.6506019830703735 6.457449436187744 63.86129379272461 255 255 255
16.466238021850586 14.987695693969727 110.35336303710938 255 255 255
11.698127746582031 8.30158805847168 110.83000946044922 255 255 255
-12.194945335388184 10.640122413635254 143.4397735595703 255 255 255
1.0782169103622437 19.12522315979004 148.5247039794922 255 255 255
-1.2326325178146362 20.18355369567871 156.63206481933594 255 255 255
13.420702934265137 1.3550676107406616 74.06253051757812 255 255 255
-0.022082997485995293 6.858496189117432 61.44873046875 255 255 255
32.46378707885742 14.466727256774902 121.61399841308594 255 255 255
-0.6431426405906677 7.687803745269775 44.585906982421875 255 255 255
-1.227618932723999 0.7864565849304199 66.8384780883789 255 255 255
2.1776938438415527 7.398071765899658 44.937007904052734 255 255 255
-9.443894386291504 6.76812744140625 44.69727325439453 255 255 255
7.13930082321167 8.558748245239258 76.33841705322266 255 255 255
17.71381950378418 11.985130310058594 112.9773178100586 255 255 255
16.435489654541016 15.170454025268555 115.65957641601562 255 255 255
5.3289794921875 14.173766136169434 129.08349609375 255 255 255
-53.51375961303711 12.88681411743164 161.64332580566406 255 255 255
-51.20244598388672 20.719417572021484 166.17005920410156 255 255 255
3.9728710651397705 2.3378043174743652 81.42646026611328 255 255 255
-0.1776288002729416 7.295041084289551 60.6180534362793 255 255 255
-0.26688429713249207 6.911871433258057 60.62997817993164 255 255 255
-30.824581146240234 18.31290626525879 155.63710021972656 255 255 255
-45.89625549316406 9.788068771362305 151.00389099121094 255 255 255
-6.848047733306885 18.939556121826172 145.16343688964844 255 255 255
-10.698694229125977 19.81393051147461 137.84640502929688 255 255 255
-28.568498611450195 18.56955909729004 152.69496154785156 255 255 255
7.782655239105225 9.586118698120117 86.43516540527344 255 255 255
-25.0719051361084 14.794095993041992 150.78311157226562 255 255 255
-21.5275936126709 20.899765014648438 144.63160705566406 255 255 255
-25.00850486755371 21.499271392822266 148.30514526367188 255 255 255
-22.56008529663086 15.704697608947754 144.83778381347656 255 255 255
-30.994752883911133 13.378531455993652 149.5950164794922 255 255 255
15.425759315490723 15.730363845825195 115.5362319946289 255 255 255
1.0982705354690552 18.084857940673828 142.77557373046875 255 255 255
-58.239288330078125 21.1297607421875 151.44012451171875 255 255 255
-23.05327796936035 13.240694999694824 144.61648559570312 255 255 255
31.103622436523438 3.566070556640625 118.83081817626953 255 255 255
-3.6847057342529297 19.657289505004883 138.67376708984375 255 255 255
6.840757846832275 9.240437507629395 131.93931579589844 255 255 255
8.852088928222656 14.006183624267578 131.0247344970703 255 255 255
13.205833435058594 10.514244079589844 112.49986267089844 255 255 255
13.076098442077637 14.669955253601074 107.81795501708984 255 255 255
4.084747791290283 5.109848976135254 77.5056381225586 255 255 255
7.695464134216309 3.536731243133545 87.63662719726562 255 255 255
-7.078643798828125 5.228663444519043 31.27557373046875 255 255 255
-10.540532112121582 5.486173152923584 30.24995231628418 255 255 255
-22.67097282409668 3.6585378646850586 45.847984313964844 255 255 255
-23.23895835876465 4.733275890350342 51.67706298828125 255 255 255
8.330617904663086 9.048781394958496 111.1646499633789 255 255 255
18.462045669555664 13.453173637390137 103.41837310791016 255 255 255
7.160308361053467 17.579565048217773 131.9835968017578 255 255 255
-66.59717559814453 35.16621017456055 266.05706787109375 255 255 255
-53.17874526977539 34.66548538208008 267.73956298828125 255 255 255
-18.247512817382812 18.83452606201172 145.42831420898438 255 255 255
-23.123050689697266 19.300485610961914 202.4031219482422 255 255 255
4.491172790527344 19.206989288330078 134.7063446044922 255 255 255
14.003884315490723 16.42223358154297 120.02558135986328 255 255 255
7.223601818084717 9.485161781311035 120.04963684082031 255 255 255
13.760069847106934 16.519216537475586 119.72447204589844 255 255 255
7.811850547790527 6.407275199890137 59.89988708496094 255 255 255
-3.8014862537384033 4.606326103210449 55.42860412597656 255 255 255
-1.922169804573059 4.925021171569824 52.42564392089844 255 255 255
8.709877014160156 6.510135173797607 62.15471649169922 255 255 255
-1.5848037004470825 0.7744290232658386 64.93770599365234 255 255 255
10.028936386108398 4.125085830688477 57.78618240356445 255 255 255
0.8945286273956299 -12.546895027160645 93.9293212890625 255 255 255
-2.4039621353149414 3.172031879425049 58.15956497192383 255 255 255
9.030513763427734 15.77072525024414 114.72152709960938 255 255 255
17.07102394104004 12.86192512512207 113.94126892089844 255 255 255
15.792008399963379 15.312647819519043 114.10432434082031 255 255 255
8.081642150878906 16.232107162475586 117.0011978149414 255 255 255
-53.508060455322266 13.383280754089355 161.9716033935547 255 255 255
-86.71134948730469 17.900829315185547 153.51356506347656 255 255 255
-70.56822967529297 14.777544975280762 142.1782684326172 255 255 255
-54.72962188720703 12.8296480178833 160.56529235839844 255 255 255
-53.032344818115234 11.54352855682373 162.2857666015625 255 255 255
8.48059368133545 10.982483863830566 86.8204574584961 255 255 255
21.80988311767578 2.8426897525787354 150.06129455566406 255 255 255
-13.528279304504395 4.9515180587768555 43.21086883544922 255 255 255
10.601226806640625 -9.403447151184082 331.65826416015625 255 255 255
-6.8318562507629395 -5.504674434661865 47.33533477783203 255 255 255
-28.059391021728516 2.037297248840332 56.29388427734375 255 255 255
-20.821277618408203 -5.545509338378906 49.72709655761719 255 255 255
5.130928993225098 -1.1016144752502441 20.591320037841797 255 255 255
-28.268022537231445 2.0574114322662354 56.732078552246094 255 255 255
-19.20553970336914 -1.044780969619751 47.293601989746094 255 255 255
-8.543466567993164 5.578207492828369 30.108261108398438 255 255 255
-8.069989204406738 5.411649703979492 29.89371681213379 255 255 255
3.3537955284118652 -6.861379146575928 91.39852905273438 255 255 255
-3.692166328430176 7.323045253753662 46.15624237060547 255 255 255
10.583239555358887 4.3599324226379395 35.0396842956543 255 255 255
-31.380435943603516 -3.618386745452881 68.90491485595703 255 255 255
-22.183786392211914 -8.15462589263916 59.72420120239258 255 255 255
10.390825271606445 4.323139190673828 34.70377731323242 255 255 255
8.017477035522461 20.845947265625 147.1575469970703 255 255 255
17.719640731811523 15.343428611755371 120.53470611572266 255 255 255
-52.21526336669922 19.024585723876953 176.83596801757812 255 255 255
26.37700653076172 14.380252838134766 107.136962890625 255 255 255
17.23902702331543 11.713003158569336 92.8438949584961 255 255 255
-22.83898162841797 18.9665470123291 152.83392333984375 255 255 255
-26.736331939697266 21.84099578857422 153.87535095214844 255 255 255
16.823410034179688 12.196304321289062 113.65991973876953 255 255 255
-50.27811813354492 19.984357833862305 170.87876892089844 255 255 255
-51.963897705078125 14.135660171508789 161.28013610839844 255 255 255
-49.95006561279297 21.09376335144043 169.59512329101562 255 255 255
-57.667781829833984 15.553980827331543 168.02151489257812 255 255 255
-71.50948333740234 12.423331260681152 151.64764404296875 255 255 255
3.4307661056518555 13.608494758605957 133.6678009033203 255 255 255
-4.620772838592529 12.282818794250488 132.46221923828125 255 255 255
1.6469579935073853 11.91054916381836 135.34121704101562 255 255 255
6.980000019073486 17.638919830322266 132.53453063964844 255 255 255
15.871975898742676 7.808760166168213 77.4051742553711 255 255 255
26.422195434570312 6.96101188659668 108.67520141601562 255 255 255
20.275911331176758 6.050462245941162 102.52985382080078 255 255 255
18.45684051513672 13.828974723815918 110.3876724243164 255 255 255
19.253427505493164 13.478819847106934 102.15360260009766 255 255 255
8.305439949035645 20.523120880126953 145.55502319335938 255 255 255
-33.896812438964844 19.844091415405273 154.43138122558594 255 255 255
15.035794258117676 8.806626319885254 79.11625671386719 255 255 255
3.9455082416534424 8.023551940917969 64.8669662475586 255 255 255
13.471895217895508 12.44840145111084 96.52828216552734 255 255 255
13.484243392944336 12.509283065795898 96.72837829589844 255 255 255
-25.901731491088867 15.621285438537598 144.863037109375 255 255 255
7.892423629760742 6.552159786224365 85.07598114013672 255 255 255
9.715056419372559 4.654891014099121 90.06856536865234 255 255 255
10.759403228759766 3.8344316482543945 90.22750854492188 255 255 255
9.251754760742188 3.246962070465088 91.24989318847656 255 255 255
10.436586380004883 10.101737976074219 85.71684265136719 255 255 255
9.870280265808105 9.830060005187988 85.90804290771484 255 255 255
9.505578994750977 2.6903023719787598 91.66630554199219 255 255 255
2.487105131149292 8.204069137573242 66.97675323486328 255 255 255
1.2621833086013794 7.167535305023193 66.14938354492188 255 255 255
30.440292358398438 2.9194791316986084 123.808837890625 255 255 255
18.100278854370117 10.51314640045166 86.8895492553711 255 255 255
3.8850579261779785 7.578351020812988 66.18497467041016 255 255 255
9.578580856323242 4.245533466339111 90.90167236328125 255 255 255
1.9363582134246826 7.651059150695801 68.02755737304688 255 255 255
0.6948583722114563 16.33915138244629 140.61964416503906 255 255 255
-1.6849560737609863 18.124404907226562 140.9529266357422 255 255 255
-15.341482162475586 19.161056518554688 139.9927978515625 255 255 255
1.3525553941726685 6.68003511428833 68.01441192626953 255 255 255
-6.121631145477295 -15.587636947631836 83.1753921508789 255 255 255
3.7166717052459717 6.231222152709961 32.621131896972656 255 255 255
5.080134868621826 7.589758396148682 57.112884521484375 255 255 255
0.5115920901298523 -10.549195289611816 88.02082061767578 255 255 255
5.158675670623779 7.626065254211426 57.310523986816406 255 255 255
-1.1891132593154907 -10.765517234802246 85.47004699707031 255 255 255
2.020711898803711 7.938789367675781 59.04384994506836 255 255 255
3.416836977005005 -6.062332630157471 85.43565368652344 255 255 255
-0.5617439150810242 6.008554458618164 61.75918197631836 255 255 255
15.769607543945312 12.836762428283691 105.09236907958984 255 255 255
23.436098098754883 6.424700736999512 97.28231048583984 255 255 255
23.909141540527344 12.750472068786621 100.00055694580078 255 255 255
11.56136417388916 10.975963592529297 93.16291809082031 255 255 255
10.951177597045898 6.7434492111206055 100.24996948242188 255 255 255
11.682236671447754 6.493247032165527 99.72465515136719 255 255 255
3.2581074237823486 -5.145340919494629 87.59027099609375 255 255 255
15.84124755859375 7.170950412750244 73.8416748046875 255 255 255
1.729378581047058 7.606544017791748 68.58749389648438 255 255 255
1.6608084440231323 7.173177719116211 67.84573364257812 255 255 255
30.164356231689453 -2.3365190029144287 128.63790893554688 255 255 255
6.097456455230713 15.541492462158203 121.30643463134766 255 255 255
2.154620885848999 10.484517097473145 133.92172241210938 255 255 255
3.684793472290039 10.340354919433594 125.58747100830078 255 255 255
-41.642364501953125 39.50695037841797 262.2219543457031 255 255 255
-39.6306266784668 36.869712829589844 262.4874267578125 255 255 255
-46.60487365722656 40.625144958496094 264.7433776855469 255 255 255
1.3982545137405396 8.676947593688965 60.548484802246094 255 255 255
-1.9439165592193604 2.1996405124664307 41.960514068603516 255 255 255
-5.620706081390381 6.524484157562256 37.550724029541016 255 255 255
4.7759785652160645 7.0205583572387695 44.756446838378906 255 255 255
10.71701431274414 0.6874146461486816 51.393463134765625 255 255 255
-3.11379075050354 7.74750280380249 48.76609802246094 255 255 255
3.3672432899475098 7.519429683685303 45.51124954223633 255 255 255
-1.8282076120376587 2.2006940841674805 42.2169075012207 255 255 255
-1.7677061557769775 19.514402389526367 138.552490234375 255 255 255
9.071552276611328 9.784622192382812 120.2175064086914 255 255 255
-4.024919509887695 19.89324378967285 155.37339782714844 255 255 255
0.2961910665035248 6.867286205291748 62.24480438232422 255 255 255
4.654274940490723 16.167003631591797 124.45614624023438 255 255 255
16.619699478149414 11.406343460083008 125.79537963867188 255 255 255
8.202422142028809 13.99794864654541 129.8072967529297 255 255 255
0.31809383630752563 10.079339981079102 130.86415100097656 255 255 255
6.055239200592041 11.680290222167969 130.96438598632812 255 255 255
-0.3146311044692993 6.787415027618408 60.75183868408203 255 255 255
0.5974102020263672 8.06408405303955 62.974735260009766 255 255 255
8.354436874389648 14.48633098602295 114.52957153320312 255 255 255
-15.873122215270996 17.097103118896484 140.1357879638672 255 255 255
-12.442444801330566 18.539106369018555 148.77012634277344 255 255 255
-15.886491775512695 21.902095794677734 148.98033142089844 255 255 255
13.585801124572754 12.605201721191406 102.6412353515625 255 255 255
19.210153579711914 11.526098251342773 102.42121887207031 255 255 255
15.846569061279297 8.889681816101074 76.90773010253906 255 255 255
5.952218055725098 2.1100735664367676 90.27223205566406 255 255 255
10.196430206298828 10.592582702636719 86.14202117919922 255 255 255
5.4652419090271 5.195340156555176 79.4244613647461 255 255 255
5.463570594787598 4.433809757232666 80.60761260986328 255 255 255
13.306419372558594 7.146244049072266 103.70468139648438 255 255 255
5.205552577972412 4.408831596374512 79.47749328613281 255 255 255
15.466404914855957 8.82914924621582 76.54930877685547 255 255 255
5.708066463470459 6.330298900604248 81.00601196289062 255 255 255
15.02762508392334 8.805536270141602 79.13065338134766 255 255 255
11.53208065032959 10.307110786437988 111.81524658203125 255 255 255
11.053775787353516 13.06174087524414 123.47887420654297 255 255 255
16.634862899780273 14.076608657836914 121.4199447631836 255 255 255
1.242538332939148 19.13313865661621 137.2388916015625 255 255 255
18.12205696105957 12.817831993103027 116.8127670288086 255 255 255
14.4155855178833 4.889028072357178 83.27583312988281 255 255 255
11.868958473205566 11.407864570617676 89.33979034423828 255 255 255
10.019865989685059 5.406445503234863 91.9967041015625 255 255 255
10.247724533081055 10.037152290344238 85.61206817626953 255 255 255
10.530537605285645 9.604619026184082 86.66336059570312 255 255 255
9.350772857666016 10.274857521057129 85.89471435546875 255 255 255
-6.747523784637451 -2.812349796295166 40.662567138671875 255 255 255
-14.150678634643555 -3.2352964878082275 40.005165100097656 255 255 255
-7.401729583740234 5.965870380401611 33.28337478637695 255 255 255
5.909578323364258 6.735175132751465 44.55447769165039 255 255 255
7.979762554168701 -7.842440128326416 122.86106872558594 255 255 255
-12.626139640808105 -6.140713214874268 48.929168701171875 255 255 255
-6.47842264175415 6.938448905944824 43.179683685302734 255 255 255
5.346525192260742 2.9142680168151855 52.30399703979492 255 255 255
-6.195301055908203 -4.13944149017334 45.25429153442383 255 255 255
-4.840216159820557 0.1891772449016571 42.00328063964844 255 255 255
-14.460314750671387 -3.748621702194214 39.75037384033203 255 255 255
-5.6971845626831055 3.5400335788726807 44.693504333496094 255 255 255
2.7432148456573486 7.377114772796631 44.89257049560547 255 255 255
4.5942063331604 5.532481670379639 31.741518020629883 255 255 255
-52.997371673583984 27.207748413085938 185.2845916748047 255 255 255
-50.203189849853516 27.383853912353516 183.20884704589844 255 255 255
16.803028106689453 14.085799217224121 124.93462371826172 255 255 255
18.944252014160156 5.378434658050537 98.81122589111328 255 255 255
9.345710754394531 9.621301651000977 86.51451873779297 255 255 255
16.251140594482422 10.26780891418457 82.54168701171875 255 255 255
-4.681529521942139 6.794859886169434 36.68614959716797 255 255 255
8.871935844421387 0.19530200958251953 35.11793899536133 255 255 255
-71.05504608154297 14.40497875213623 153.73907470703125 255 255 255
-29.840953826904297 19.719045639038086 152.117431640625 255 255 255
-18.582517623901367 21.47437286376953 148.0587615966797 255 255 255
-24.702939987182617 21.66345977783203 149.75965881347656 255 255 255
-63.972442626953125 15.871541976928711 159.9226837158203 255 255 255
7.104116439819336 0.5095024108886719 94.76040649414062 255 255 255
-3.580209493637085 5.195154666900635 42.7840576171875 255 255 255
-8.016997337341309 5.9532647132873535 44.160125732421875 255 255 255
4.06291389465332 7.397970199584961 44.35889434814453 255 255 255
6.307783603668213 14.329504013061523 128.87147521972656 255 255 255
9.123083114624023 13.28315258026123 113.90303802490234 255 255 255
3.841083288192749 14.507954597473145 129.1876983642578 255 255 255
7.922293186187744 15.900956153869629 116.58358001708984 255 255 255
11.555418968200684 9.853449821472168 112.15492248535156 255 255 255
8.247766494750977 15.443815231323242 116.32440185546875 255 255 255
9.279176712036133 12.61249828338623 113.05107879638672 255 255 255
13.308693885803223 4.7998738288879395 74.83514404296875 255 255 255
7.73565673828125 8.117140769958496 82.24942779541016 255 255 255
5.018510818481445 4.886427402496338 79.05078125 255 255 255
13.861771583557129 5.054964065551758 77.622802734375 255 255 255
11.882198333740234 8.875545501708984 101.05081176757812 255 255 255
5.242317199707031 6.343121528625488 79.0622787475586 255 255 255
27.213464736938477 2.4065985679626465 109.67277526855469 255 255 255
14.158763885498047 5.9986114501953125 82.4951171875 255 255 255
6.3395915031433105 8.173378944396973 76.5545654296875 255 255 255
4.018499851226807 3.220496416091919 95.79988861083984 255 255 255
15.457603454589844 3.722792863845825 107.49671173095703 255 255 255
-1.2229748964309692 6.751040458679199 55.49537658691406 255 255 255
9.967869758605957 3.677870035171509 58.430694580078125 255 255 255
-2.734044313430786 8.076544761657715 47.27524948120117 255 255 255
-1.8688015937805176 1.8941965103149414 41.253326416015625 255 255 255
10.308504104614258 5.984368324279785 58.325313568115234 255 255 255
21.717287063598633 2.2799973487854004 130.14190673828125 255 255 255
19.36554718017578 -6.815293312072754 89.3127212524414 255 255 255
-7.19398307800293 6.493727684020996 42.416622161865234 255 255 255
5.217676639556885 7.268077850341797 46.156768798828125 255 255 255
9.841960906982422 3.6939404010772705 58.16014862060547 255 255 255
13.163590431213379 13.570072174072266 122.28671264648438 255 255 255
14.795233726501465 12.719334602355957 121.85713195800781 255 255 255
12.761507034301758 16.614456176757812 120.57771301269531 255 255 255
11.314382553100586 9.628694534301758 122.55501556396484 255 255 255
20.463289260864258 3.265172004699707 107.48905944824219 255 255 255
-65.74869537353516 14.352352142333984 161.6979217529297 255 255 255
-41.61228942871094 16.80415916442871 160.5116424560547 255 255 255
2.976971387863159 8.508869171142578 69.44832611083984 255 255 255
33.59006118774414 -0.15400701761245728 126.38208770751953 255 255 255
-12.040889739990234 13.321269989013672 154.29122924804688 255 255 255
-10.619050025939941 19.74848747253418 137.8359375 255 255 255
-7.899043560028076 6.106499671936035 34.43302917480469 255 255 255
11.75662899017334 -3.4923627376556396 58.9739875793457 255 255 255
11.016775131225586 -2.6401784420013428 53.328407287597656 255 255 255
10.96102237701416 1.3983060121536255 51.061302185058594 255 255 255
-10.50949764251709 6.430229663848877 40.46278762817383 255 255 255
-50.08099365234375 -7.9858717918396 100.06641387939453 255 255 255
10.65915584564209 -1.1800509691238403 51.20461654663086 255 255 255
-2.286780834197998 3.6259560585021973 80.33098602294922 255 255 255
-23.833385467529297 -2.5799005031585693 60.85255813598633 255 255 255
-6.943191051483154 3.5524349212646484 45.959190368652344 255 255 255
4.56845760345459 7.570294380187988 54.66566848754883 255 255 255
9.81577205657959 -1.8884080648422241 45.4527587890625 255 255 255
14.289494514465332 5.518320560455322 78.7119369506836 255 255 255
-1.8853048086166382 0.3784099221229553 42.40874481201172 255 255 255
9.203932762145996 0.2638639807701111 35.98326873779297 255 255 255
-8.197222709655762 5.845442295074463 32.45039749145508 255 255 255
9.696560859680176 -3.0239596366882324 40.51919937133789 255 255 255
-19.06803321838379 -4.7181572914123535 56.43171691894531 255 255 255
-6.005974292755127 0.931079089641571 39.586612701416016 255 255 255
-2.9003443717956543 7.001554012298584 49.18152618408203 255 255 255
-3.4994637966156006 5.019315719604492 54.809391021728516 255 255 255
14.176079750061035 14.487117767333984 116.68809509277344 255 255 255
14.386251449584961 15.993511199951172 123.0761947631836 255 255 255
6.7155680656433105 13.314414978027344 120.19715118408203 255 255 255
2.0665078163146973 9.72819995880127 124.21212768554688 255 255 255
-48.41857147216797 39.347984313964844 258.36285400390625 255 255 255
-53.58959197998047 39.918373107910156 259.7750549316406 255 255 255
-55.3590087890625 43.18769836425781 261.78369140625 255 255 255
0.8744028806686401 4.641587734222412 63.27437210083008 255 255 255
-2.9870285987854004 1.3373644351959229 60.549407958984375 255 255 255
0.5527405142784119 16.798418045043945 135.96397399902344 255 255 255
5.506845474243164 18.516061782836914 132.76333618164062 255 255 255
-8.464046478271484 18.76973533630371 145.65057373046875 255 255 255
-50.76799011230469 9.195305824279785 148.85653686523438 255 255 255
-6.835345268249512 15.640661239624023 137.36325073242188 255 255 255
-14.494752883911133 13.749076843261719 155.5353240966797 255 255 255
-23.490882873535156 10.423504829406738 149.34893798828125 255 255 255
-6.056350231170654 17.34671401977539 145.1534423828125 255 255 255
