5.696402549743652 0.09460660070180893 -10.888916015625 255 255 255
14.359103202819824 0.6723490953445435 21.17752456665039 255 255 255
-4.942939281463623 -1.1356682777404785 23.294981002807617 255 255 255
-12.410823822021484 2.997119188308716 31.896892547607422 255 255 255
-29.706024169921875 25.420747756958008 291.07891845703125 255 255 255
-1.1965947151184082 -0.4397120475769043 24.656457901000977 255 255 255
-7.293789863586426 -5.578850746154785 43.54090118408203 255 255 255
3.26246976852417 5.510879993438721 47.70771026611328 255 255 255
13.163752555847168 -7.853157043457031 19.87436866760254 255 255 255
-7.712775707244873 0.7694190740585327 13.103532791137695 255 255 255
-10.678176879882812 1.0220024585723877 16.52691078186035 255 255 255
-84.32972717285156 -6.918687343597412 157.06483459472656 255 255 255
-9.281909942626953 0.7191963195800781 17.700191497802734 255 255 255
-9.981415748596191 -7.658116340637207 60.871280670166016 255 255 255
-10.48107624053955 -3.278346538543701 17.231035232543945 255 255 255
-11.808284759521484 -7.098297595977783 84.18614959716797 255 255 255
13.52469539642334 -2.2551333904266357 25.76369285583496 255 255 255
6.725626468658447 -2.4861092567443848 30.36713981628418 255 255 255
-5.102130889892578 0.38901638984680176 22.80459213256836 255 255 255
2.540039539337158 2.192998170852661 10.429163932800293 255 255 255
-5.81443452835083 -1.9478654861450195 21.24410057067871 255 255 255
10.101496696472168 -3.7010061740875244 11.071738243103027 255 255 255
13.934925079345703 -0.07475527375936508 27.885618209838867 255 255 255
-9.774016380310059 3.850379467010498 15.556889533996582 255 255 255
2.9769785404205322 0.27447402477264404 -3.1814916133880615 255 255 255
4.10282039642334 -3.184508800506592 1.8369783163070679 255 255 255
14.669831275939941 0.03725409507751465 30.280948638916016 255 255 255
4.654497146606445 -2.5091564655303955 0.7265196442604065 255 255 255
7.33212947845459 -2.9824841022491455 2.785338878631592 255 255 255
16.879108428955078 -9.775754928588867 8.298591613769531 255 255 255
4.594333648681641 -0.08341744542121887 -12.705140113830566 255 255 255
14.089326858520508 -10.197827339172363 33.32592010498047 255 255 255
14.044999122619629 -5.176975250244141 -5.940619945526123 255 255 255
42.89421844482422 -3.9282922744750977 32.390262603759766 255 255 255
2.7871251106262207 -2.7499988079071045 11.188085556030273 255 255 255
18.60761260986328 -3.41538667678833 1.1369810104370117 255 255 255
5.3311262130737305 -0.011725213378667831 -12.363192558288574 255 255 255
-4.790493488311768 0.8761516213417053 26.865140914916992 255 255 255
13.930520057678223 -0.4060060381889343 23.0684757232666 255 255 255
4.043962001800537 -3.5519073009490967 1.5417776107788086 255 255 255
6.047236919403076 -5.258646488189697 52.79526901245117 255 255 255
13.416693687438965 -10.079632759094238 57.37386703491211 255 255 255
0.6537335515022278 1.7899277210235596 5.413916110992432 255 255 255
1.9256811141967773 -4.557804584503174 48.45318603515625 255 255 255
5.962220668792725 -9.196796417236328 62.77607727050781 255 255 255
-5.212640762329102 -0.9274113178253174 24.935752868652344 255 255 255
-11.120736122131348 -3.4435911178588867 18.555648803710938 255 255 255
13.743584632873535 -4.08485221862793 21.45366859436035 255 255 255
-9.060550689697266 1.0937199592590332 17.55122947692871 255 255 255
14.352401733398438 2.4685416221618652 35.985984802246094 255 255 255
-13.427189826965332 -3.910494804382324 23.69813346862793 255 255 255
-5.853429794311523 -1.8980779647827148 20.301925659179688 255 255 255
-5.936793804168701 -0.969770073890686 110.93445587158203 255 255 255
0.578840970993042 -4.070667743682861 -2.052867889404297 255 255 255
12.934331893920898 -9.574918746948242 -1.0669630765914917 255 255 255
7.473201274871826 -4.833045482635498 -0.9507652521133423 255 255 255
6.6597185134887695 -3.543649911880493 -7.792283535003662 255 255 255
21.819904327392578 -6.326325416564941 2.7177116870880127 255 255 255
18.32798957824707 -3.367927312850952 0.9338338971138 255 255 255
9.337447166442871 -2.8018646240234375 -2.5080502033233643 255 255 255
37.876224517822266 -17.963359832763672 15.84024429321289 255 255 255
14.335664749145508 -0.7709379196166992 -10.77734375 255 255 255
13.576361656188965 -0.059015024453401566 7.46631383895874 255 255 255
9.3244047164917 -7.246455192565918 -2.047104597091675 255 255 255
34.83494567871094 -3.7583205699920654 8.719684600830078 255 255 255
9.215083122253418 0.9463236927986145 10.611712455749512 255 255 255
14.05526065826416 -1.8733938932418823 31.99263572692871 255 255 255
11.453771591186523 -9.595813751220703 -3.65640926361084 255 255 255
4.912793159484863 -0.3391527533531189 -14.495884895324707 255 255 255
14.349985122680664 -3.361746311187744 5.061779975891113 255 255 255
23.480817794799805 -6.82667875289917 3.82549786567688 255 255 255
5.627424240112305 -8.071109771728516 -2.5533032417297363 255 255 255
6.611017227172852 -0.9130464792251587 -19.195547103881836 255 255 255
1.9182438850402832 -7.1906938552856445 0.4279012978076935 255 255 255
18.879953384399414 -5.673520565032959 -20.654115676879883 255 255 255
21.239273071289062 -6.12094259262085 -20.365585327148438 255 255 255
8.288639068603516 -1.8967560529708862 -20.29386329650879 255 255 255
4.184924125671387 -4.8880228996276855 -16.870359420776367 255 255 255
7.275049209594727 -1.261156439781189 -21.24734115600586 255 255 255
7.342247009277344 -1.3928730487823486 -22.35942840576172 255 255 255
-3.838103771209717 -0.22245557606220245 -17.159488677978516 255 255 255
4.945584297180176 -7.646912574768066 -17.37236213684082 255 255 255
6.317326068878174 -7.947437286376953 -13.035318374633789 255 255 255
60.70705795288086 -26.836864471435547 22.446332931518555 255 255 255
13.767232894897461 -4.004055976867676 -14.269631385803223 255 255 255
12.836016654968262 -0.7114025354385376 -15.13283634185791 255 255 255
2.932589530944824 -7.5232439041137695 2.456982374191284 255 255 255
129.64859008789062 6.77924108505249 214.3524932861328 255 255 255
-5.920709133148193 1.949609637260437 16.187299728393555 255 255 255
7.406238555908203 0.8648486137390137 10.434991836547852 255 255 255
-4.049147129058838 -1.1880156993865967 22.8539981842041 255 255 255
5.2848100662231445 0.6207382678985596 -1.7922033071517944 255 255 255
12.543387413024902 -2.3162925243377686 -4.462893962860107 255 255 255
85.09567260742188 -4.607982635498047 72.4914321899414 255 255 255
4.036001682281494 0.4285435080528259 -3.6107051372528076 255 255 255
9.396306037902832 -8.869604110717773 54.88587188720703 255 255 255
1.5095921754837036 2.171771764755249 7.2682318687438965 255 255 255
7.66738748550415 0.9420505166053772 11.21626091003418 255 255 255
-4.097878932952881 1.8671867847442627 4.520334720611572 255 255 255
4.0271196365356445 -3.1414499282836914 1.9266880750656128 255 255 255
5.861274719238281 -3.263495922088623 -3.6471269130706787 255 255 255
6.396764755249023 -0.9867794513702393 -19.808927536010742 255 255 255
11.50852108001709 0.025178635492920876 2.5014748573303223 255 255 255
17.07549285888672 -14.519062042236328 11.21857738494873 255 255 255
12.227088928222656 -6.423019886016846 1.4449172019958496 255 255 255
5.769781112670898 -2.7568743228912354 3.622821807861328 255 255 255
9.74742317199707 -2.896284818649292 -1.975886583328247 255 255 255
14.839712142944336 0.10654100030660629 9.009374618530273 255 255 255
11.400891304016113 -9.096101760864258 9.601764678955078 255 255 255
18.170087814331055 -7.994492530822754 0.6142825484275818 255 255 255
14.462718963623047 -7.114840030670166 4.278594017028809 255 255 255
6.099139213562012 -0.13812750577926636 -13.344649314880371 255 255 255
50.02439498901367 1.3593121767044067 22.504701614379883 255 255 255
17.209306716918945 -2.813305139541626 21.70807647705078 255 255 255
10.303689956665039 -5.64213228225708 16.025381088256836 255 255 255
6.056621551513672 -5.583778381347656 -1.9616268873214722 255 255 255
8.08397388458252 0.059642765671014786 -9.91322135925293 255 255 255
18.54372215270996 -10.855522155761719 -21.555004119873047 255 255 255
9.44637393951416 -5.472618103027344 -2.3031086921691895 255 255 255
528.208251953125 32.53031921386719 597.2059936523438 255 255 255
22.3791561126709 -4.115896224975586 0.5221277475357056 255 255 255
7.785583972930908 -2.744206666946411 -1.459596037864685 255 255 255
6.241901397705078 0.12890899181365967 -10.194969177246094 255 255 255
9.173541069030762 -6.123137474060059 -0.015667272731661797 255 255 255
14.641295433044434 -3.6268253326416016 -5.03001594543457 255 255 255
5.94187593460083 1.8022781610488892 9.80142879486084 255 255 255
-39.59589767456055 -9.768091201782227 -39.37541580200195 255 255 255
-33.044464111328125 -2.3010294437408447 -41.914424896240234 255 255 255
-0.44506731629371643 -7.9248247146606445 -35.32455825805664 255 255 255
-9.134291648864746 -7.771993637084961 -7.557600021362305 255 255 255
-22.87421417236328 -0.782762885093689 -25.574302673339844 255 255 255
109.72083282470703 0.6567361950874329 52.68891143798828 255 255 255
-11.914041519165039 -4.317775249481201 -13.460647583007812 255 255 255
-12.920839309692383 -4.356135368347168 -29.028661727905273 255 255 255
3.810131549835205 -7.497291564941406 -15.279031753540039 255 255 255
97.08292388916016 -36.504154205322266 67.82886505126953 255 255 255
6.228341579437256 -8.223917007446289 -1.432308316230774 255 255 255
4.983780860900879 -6.814577102661133 -15.460966110229492 255 255 255
37.545738220214844 -17.257678985595703 16.840919494628906 255 255 255
-75.79452514648438 -11.925843238830566 -54.94600296020508 255 255 255
-56.598602294921875 -10.815194129943848 -57.30841064453125 255 255 255
-57.706363677978516 -13.092021942138672 -54.80446243286133 255 255 255
-67.74681854248047 -3.556734323501587 -59.6425895690918 255 255 255
-41.70205307006836 -9.617758750915527 -43.07672882080078 255 255 255
-43.49298095703125 -8.022015571594238 -40.627952575683594 255 255 255
-44.938541412353516 -8.443861961364746 -38.078895568847656 255 255 255
-40.678348541259766 -11.063727378845215 -42.720584869384766 255 255 255
-45.89561080932617 -6.777532577514648 -50.82404327392578 255 255 255
-33.769954681396484 -11.226686477661133 -39.369285583496094 255 255 255
-44.72452163696289 -3.228775978088379 -51.65706253051758 255 255 255
-38.33091354370117 -11.02133560180664 -37.78849792480469 255 255 255
-59.456642150878906 -9.452354431152344 -62.04928207397461 255 255 255
-60.78800582885742 -4.027162551879883 -44.45527648925781 255 255 255
-54.129249572753906 -13.604426383972168 -44.62160873413086 255 255 255
-49.09453201293945 -9.811542510986328 -50.4830436706543 255 255 255
-58.85637283325195 -8.662715911865234 -48.87490463256836 255 255 255
-27.288442611694336 -6.222496032714844 -38.39231491088867 255 255 255
-56.221805572509766 -12.977630615234375 -58.969547271728516 255 255 255
-59.622474670410156 -9.502758979797363 -60.51918029785156 255 255 255
-58.691158294677734 -3.451406955718994 -55.40352249145508 255 255 255
-59.84856414794922 -9.981093406677246 -53.50202178955078 255 255 255
-72.34013366699219 -4.848024845123291 -53.907352447509766 255 255 255
-30.559772491455078 -1.5159236192703247 -33.21875762939453 255 255 255
-25.204082489013672 -8.394964218139648 -33.91425704956055 255 255 255
-24.274839401245117 -7.924966335296631 -37.47779846191406 255 255 255
-26.044301986694336 -7.774860858917236 -34.88539505004883 255 255 255
-46.926124572753906 -8.36122989654541 -42.674468994140625 255 255 255
-37.37217712402344 -10.905084609985352 -43.05217742919922 255 255 255
-44.27069091796875 -2.9433305263519287 -49.875091552734375 255 255 255
-12.662437438964844 -1.9781980514526367 -29.230485916137695 255 255 255
-15.861381530761719 -0.7364886403083801 -17.625932693481445 255 255 255
-6.236620903015137 -6.554762840270996 -23.457820892333984 255 255 255
-14.36700439453125 -1.3820011615753174 -29.81267738342285 255 255 255
-5.9858903884887695 -0.2637743055820465 -23.196914672851562 255 255 255
6.493371963500977 0.4951236844062805 18.372398376464844 255 255 255
6.560121059417725 1.0638995170593262 20.019512176513672 255 255 255
-5.530742168426514 2.2542600631713867 17.12070083618164 255 255 255
6.464072227478027 2.249871253967285 17.37019920349121 255 255 255
-3.34358286857605 0.42723315954208374 53.525611877441406 255 255 255
-1.8432395458221436 3.885812282562256 117.03852844238281 255 255 255
1.2573519945144653 3.073493480682373 24.053760528564453 255 255 255
5.148412704467773 2.5176498889923096 17.039377212524414 255 255 255
14.356401443481445 1.711188554763794 35.725772857666016 255 255 255
-6.616217136383057 0.7690634727478027 19.480106353759766 255 255 255
-0.9028356075286865 0.5330920219421387 8.429161071777344 255 255 255
-6.037765026092529 -2.2079391479492188 19.130842208862305 255 255 255
-4.530081272125244 2.670543670654297 19.989463806152344 255 255 255
7.484311580657959 1.0877909660339355 22.41950225830078 255 255 255
-5.059019565582275 6.970451831817627 53.911319732666016 255 255 255
-10.172521591186523 3.8199422359466553 30.49280548095703 255 255 255
-130.13905334472656 -0.6340720653533936 60.08247375488281 255 255 255
-143.44625854492188 7.275468826293945 62.844844818115234 255 255 255
-127.3807601928711 2.191887378692627 53.57183074951172 255 255 255
-149.58782958984375 -0.6913636922836304 -7.418481349945068 255 255 255
-143.724853515625 8.517837524414062 64.315673828125 255 255 255
-143.2484893798828 10.299715995788574 63.49081039428711 255 255 255
-135.57130432128906 3.8118786811828613 55.08678436279297 255 255 255
-142.7994842529297 9.851021766662598 57.900482177734375 255 255 255
-144.32875061035156 6.407598972320557 68.23965454101562 255 255 255
-147.85195922851562 8.196267127990723 72.44021606445312 255 255 255
-134.5970001220703 1.6762192249298096 62.408103942871094 255 255 255
-138.5506134033203 -3.7182505130767822 43.9801139831543 255 255 255
-145.51156616210938 7.666287899017334 74.24275970458984 255 255 255
-144.28160095214844 7.780839920043945 61.936771392822266 255 255 255
-122.86083221435547 2.707322120666504 50.79181671142578 255 255 255
-161.83546447753906 5.103525161743164 -6.299975395202637 255 255 255
-168.26351928710938 0.49368318915367126 -51.2174186706543 255 255 255
-142.7964630126953 9.58182144165039 57.99435806274414 255 255 255
-144.40940856933594 6.534074306488037 63.557098388671875 255 255 255
-138.40284729003906 -1.0695557594299316 45.41362380981445 255 255 255
-143.36489868164062 10.038911819458008 62.61024856567383 255 255 255
-138.80592346191406 10.738863945007324 65.04022216796875 255 255 255
-138.7001495361328 10.727076530456543 64.6597671508789 255 255 255
-124.55758666992188 3.087130546569824 44.29655456542969 255 255 255
-142.94717407226562 4.766221523284912 65.86239624023438 255 255 255
-144.75686645507812 6.936088562011719 62.963096618652344 255 255 255
-144.99298095703125 8.739270210266113 71.04470825195312 255 255 255
-182.44921875 -4.569120407104492 0.5830096006393433 255 255 255
-143.96060180664062 8.195686340332031 62.88556671142578 255 255 255
-133.62332153320312 8.709957122802734 43.218284606933594 255 255 255
-135.54295349121094 8.694319725036621 42.181549072265625 255 255 255
-139.41241455078125 2.4054160118103027 54.54338836669922 255 255 255
-134.86126708984375 9.987485885620117 57.45284652709961 255 255 255
-130.26431274414062 8.39163875579834 61.0372314453125 255 255 255
-128.49954223632812 4.583185195922852 36.70592498779297 255 255 255
-126.6128158569336 3.041560173034668 34.20088577270508 255 255 255
-125.26687622070312 3.3730311393737793 34.15245056152344 255 255 255
-139.1910400390625 8.91338062286377 42.25361251831055 255 255 255
-140.56442260742188 6.861969470977783 41.48405838012695 255 255 255
-129.5772247314453 6.872745990753174 34.38491439819336 255 255 255
-139.1286163330078 8.913764953613281 43.033180236816406 255 255 255
-140.55551147460938 4.9951300621032715 36.77730178833008 255 255 255
-135.2168426513672 2.6189656257629395 50.8099250793457 255 255 255
-130.3381805419922 2.398947238922119 46.83710861206055 255 255 255
-174.3124237060547 -10.163871765136719 -27.793437957763672 255 255 255
-142.72122192382812 5.604175090789795 51.10557556152344 255 255 255
-147.1904296875 7.923248291015625 79.44524383544922 255 255 255
-143.46173095703125 6.092945575714111 53.753482818603516 255 255 255
-128.16250610351562 -0.6702836751937866 20.941234588623047 255 255 255
-143.74806213378906 5.8020734786987305 53.02244567871094 255 255 255
-128.87315368652344 3.0280187129974365 35.009437561035156 255 255 255
-142.8302459716797 9.598678588867188 50.71607208251953 255 255 255
-142.06536865234375 9.255622863769531 51.80519485473633 255 255 255
-143.72601318359375 4.443320274353027 48.22409439086914 255 255 255
-130.1419219970703 8.494647026062012 58.14848709106445 255 255 255
-135.22808837890625 -8.256360054016113 36.82577896118164 255 255 255
-129.69766235351562 8.093473434448242 53.58433532714844 255 255 255
-139.81834411621094 1.9259834289550781 37.959495544433594 255 255 255
-135.2523956298828 10.285694122314453 59.231876373291016 255 255 255
-140.2939910888672 4.766294002532959 36.262393951416016 255 255 255
-150.83734130859375 -4.819829940795898 -16.839616775512695 255 255 255
-146.64596557617188 1.809009075164795 6.832536697387695 255 255 255
-129.83554077148438 8.140406608581543 46.259178161621094 255 255 255
-132.40260314941406 3.229959011077881 47.253204345703125 255 255 255
-140.83303833007812 3.726555585861206 45.76645278930664 255 255 255
-134.5523223876953 0.5587139129638672 53.12480545043945 255 255 255
-145.4200897216797 11.566537857055664 75.4149398803711 255 255 255
-136.026611328125 5.235177516937256 11.778518676757812 255 255 255
-119.2353515625 -10.003388404846191 -111.9223861694336 255 255 255
-137.94207763671875 -6.8901262283325195 56.776344299316406 255 255 255
-135.4735565185547 10.876981735229492 66.60381317138672 255 255 255
-135.2257537841797 0.8317790627479553 61.833621978759766 255 255 255
-141.17166137695312 12.426453590393066 79.79116821289062 255 255 255
-128.7886505126953 0.8858979344367981 16.464481353759766 255 255 255
-119.00685119628906 -7.183658123016357 -6.451095104217529 255 255 255
-127.48332977294922 3.8524959087371826 7.90949821472168 255 255 255
-110.41236114501953 -9.825949668884277 -21.462820053100586 255 255 255
-134.0166778564453 -0.1420736461877823 8.648468971252441 255 255 255
-105.30835723876953 -1.6088106632232666 -31.501588821411133 255 255 255
-128.3837127685547 -1.405415654182434 15.755793571472168 255 255 255
-123.72335815429688 -10.563575744628906 -3.692462682723999 255 255 255
-139.26919555664062 6.534876346588135 15.79610824584961 255 255 255
-122.20421600341797 -10.463268280029297 -19.64653968811035 255 255 255
-129.9229278564453 6.988909721374512 29.57518196105957 255 255 255
-141.72372436523438 5.550699710845947 45.66591262817383 255 255 255
-118.84496307373047 -2.5584399700164795 19.87260627746582 255 255 255
-108.58611297607422 -0.8402693271636963 -15.784177780151367 255 255 255
-134.8763427734375 -1.8782989978790283 28.78733253479004 255 255 255
-132.15911865234375 -4.949340343475342 12.882628440856934 255 255 255
-169.3812713623047 0.7749274373054504 -49.01598358154297 255 255 255
-129.26052856445312 5.5700554847717285 21.102657318115234 255 255 255
-130.15809631347656 3.1206562519073486 29.8890323638916 255 255 255
-125.45588684082031 -1.0940128564834595 -4.292674541473389 255 255 255
-88.53617095947266 -8.12159252166748 -55.06108474731445 255 255 255
-127.8551254272461 5.637255668640137 63.36186599731445 255 255 255
-145.10134887695312 9.615796089172363 74.88926696777344 255 255 255
-123.08831024169922 4.326587677001953 52.94696807861328 255 255 255
-145.8220672607422 7.187528133392334 75.34201049804688 255 255 255
-137.01048278808594 0.929832935333252 63.30424880981445 255 255 255
-169.99754333496094 4.792970180511475 -2.599135398864746 255 255 255
-126.81687927246094 2.434368371963501 33.112422943115234 255 255 255
-140.87648010253906 0.5214822888374329 66.73236083984375 255 255 255
-119.18680572509766 -14.431801795959473 -117.63597106933594 255 255 255
-139.83364868164062 4.850347518920898 32.59251403808594 255 255 255
-139.8594512939453 7.629546642303467 36.98031234741211 255 255 255
-139.3579559326172 3.7805376052856445 33.31517028808594 255 255 255
-135.99490356445312 -2.2518906593322754 17.475784301757812 255 255 255
-139.36648559570312 7.2300920486450195 28.79323959350586 255 255 255
-132.37545776367188 -0.9586905241012573 19.431005477905273 255 255 255
-130.8911590576172 6.881916522979736 24.574495315551758 255 255 255
-149.02638244628906 7.563300609588623 79.52399444580078 255 255 255
-145.8674774169922 7.923875331878662 75.87551879882812 255 255 255
-148.54397583007812 7.935458660125732 80.57975769042969 255 255 255
-127.2808837890625 -1.3694554567337036 -1.5779149532318115 255 255 255
-126.83973693847656 -1.7725163698196411 35.3510627746582 255 255 255
-131.56484985351562 2.721125841140747 41.145790100097656 255 255 255
-141.71075439453125 6.217371463775635 51.33049392700195 255 255 255
-141.4915313720703 9.150248527526855 51.57457733154297 255 255 255
-144.56381225585938 7.217940807342529 65.26774597167969 255 255 255
-135.40501403808594 3.4625535011291504 54.29106521606445 255 255 255
-142.1548309326172 3.6090121269226074 44.97837448120117 255 255 255
-135.5362091064453 10.845651626586914 66.87633514404297 255 255 255
-131.623779296875 10.29102611541748 67.19563293457031 255 255 255
-146.88931274414062 7.004844665527344 74.17741394042969 255 255 255
-144.76600646972656 6.779067516326904 62.72296142578125 255 255 255
-136.36720275878906 1.7609248161315918 65.56462097167969 255 255 255
-131.87242126464844 3.264838218688965 41.785865783691406 255 255 255
-146.25872802734375 7.82299280166626 75.52825164794922 255 255 255
-131.27565002441406 -5.260727405548096 14.42784309387207 255 255 255
-145.76620483398438 7.779022693634033 75.68338775634766 255 255 255
-144.83082580566406 10.913742065429688 67.9672622680664 255 255 255
-145.07008361816406 6.787945747375488 67.60566711425781 255 255 255
-130.0546112060547 -2.099884510040283 23.738784790039062 255 255 255
-129.80889892578125 3.0258238315582275 30.167085647583008 255 255 255
-139.37416076660156 7.209340572357178 28.811494827270508 255 255 255
-125.86236572265625 3.806205987930298 46.81883239746094 255 255 255
-134.04345703125 0.413650244474411 66.51619720458984 255 255 255
-135.83909606933594 -4.270916938781738 58.108314514160156 255 255 255
-146.6575164794922 7.4185004234313965 75.44586181640625 255 255 255
-158.28260803222656 3.182469129562378 -13.665603637695312 255 255 255
-125.81159973144531 2.9265804290771484 6.606579780578613 255 255 255
-139.02145385742188 0.6243169903755188 49.29524230957031 255 255 255
-129.57667541503906 0.83487468957901 65.6682357788086 255 255 255
-137.60702514648438 -1.5479804277420044 58.69456481933594 255 255 255
-132.45664978027344 -3.196960687637329 20.724308013916016 255 255 255
-135.77804565429688 8.446745872497559 40.046051025390625 255 255 255
-177.73269653320312 -17.296630859375 -25.311044692993164 255 255 255
-125.708251953125 3.0940916538238525 48.45415115356445 255 255 255
-142.7282257080078 9.827845573425293 58.17933654785156 255 255 255
-142.119873046875 9.275343894958496 51.70326614379883 255 255 255
-143.0908203125 6.609636306762695 57.63654708862305 255 255 255
-142.59310913085938 7.792329788208008 57.1703987121582 255 255 255
-142.9271697998047 4.4117231369018555 51.180477142333984 255 255 255
-129.43649291992188 3.5638134479522705 49.26937484741211 255 255 255
-129.29666137695312 8.029694557189941 59.35312271118164 255 255 255
-151.6079559326172 9.510987281799316 65.67927551269531 255 255 255
-125.34695434570312 4.2540411949157715 15.518148422241211 255 255 255
-140.96408081054688 8.888456344604492 45.56283187866211 255 255 255
-136.8221893310547 9.259498596191406 47.6174201965332 255 255 255
-141.1433563232422 7.180200099945068 45.07351303100586 255 255 255
-187.12249755859375 -5.178939342498779 -2.033633232116699 255 255 255
-135.5106658935547 11.747737884521484 80.79490661621094 255 255 255
-139.48837280273438 5.457427501678467 32.828147888183594 255 255 255
-128.1630859375 4.913622856140137 20.507139205932617 255 255 255
-136.8051300048828 6.592150688171387 16.87371826171875 255 255 255
-135.5727996826172 -1.3839917182922363 12.0830717086792 255 255 255
-129.6680450439453 1.270188808441162 20.109071731567383 255 255 255
-140.90220642089844 5.424783229827881 40.33207321166992 255 255 255
-144.3107452392578 6.634029865264893 -0.2703113257884979 255 255 255
-128.22731018066406 -5.817737579345703 -50.355072021484375 255 255 255
-127.55815124511719 4.67578125 8.794512748718262 255 255 255
-138.34695434570312 4.7280426025390625 11.649550437927246 255 255 255
-127.56090545654297 2.722160816192627 -3.1462039947509766 255 255 255
-135.4133758544922 12.660913467407227 81.97836303710938 255 255 255
-146.6000213623047 7.369153022766113 79.87095642089844 255 255 255
-147.1671905517578 7.081104278564453 79.75850677490234 255 255 255
-144.89810180664062 10.849641799926758 67.3770523071289 255 255 255
-143.0230255126953 4.10368537902832 64.30276489257812 255 255 255
-145.06198120117188 9.133264541625977 70.68186950683594 255 255 255
-140.96371459960938 6.295658588409424 40.32899856567383 255 255 255
-126.18848419189453 -7.243219375610352 -23.052885055541992 255 255 255
-126.55337524414062 -6.861959934234619 0.9636874794960022 255 255 255
-140.00555419921875 0.5027369260787964 56.36549377441406 255 255 255
-174.3147735595703 -12.047941207885742 -22.770381927490234 255 255 255
-133.9334259033203 4.315181255340576 51.731910705566406 255 255 255
-129.3809814453125 7.2140116691589355 50.83601379394531 255 255 255
-136.57041931152344 0.6271843910217285 56.64610290527344 255 255 255
-123.96080780029297 -7.7498698234558105 -9.246748924255371 255 255 255
-136.6408233642578 -0.7567915320396423 0.6347340941429138 255 255 255
-146.94161987304688 4.738080024719238 75.3360366821289 255 255 255
-130.34829711914062 10.214142799377441 79.62458801269531 255 255 255
-144.9991455078125 14.328158378601074 92.15193939208984 255 255 255
-148.17822265625 14.919404983520508 101.98656463623047 255 255 255
-148.77076721191406 1.7529306411743164 105.23114776611328 255 255 255
-123.72003173828125 5.835610389709473 71.5304183959961 255 255 255
-135.06097412109375 -5.398889541625977 55.04134750366211 255 255 255
-143.31895446777344 10.349197387695312 63.1658935546875 255 255 255
-146.67001342773438 7.406619071960449 75.42056274414062 255 255 255
-152.29702758789062 9.437259674072266 64.36054229736328 255 255 255
-145.0551300048828 9.63289737701416 75.1474380493164 255 255 255
-139.3108673095703 -0.5300540924072266 52.57350158691406 255 255 255
-169.32723999023438 4.258351802825928 114.51681518554688 255 255 255
-159.03611755371094 13.670713424682617 123.451904296875 255 255 255
-153.59242248535156 16.707677841186523 124.65082550048828 255 255 255
-155.77244567871094 14.70537281036377 126.42975616455078 255 255 255
-143.94387817382812 17.120624542236328 130.58758544921875 255 255 255
-172.8017578125 15.35406494140625 108.33143615722656 255 255 255
-147.06129455566406 0.003843510989099741 107.84820556640625 255 255 255
-151.96078491210938 12.026845932006836 120.75382995605469 255 255 255
-147.95416259765625 8.018637657165527 131.08074951171875 255 255 255
-158.38368225097656 -1.044203758239746 113.34185791015625 255 255 255
-158.21925354003906 13.447038650512695 123.54016876220703 255 255 255
-178.55154418945312 10.712552070617676 78.78203582763672 255 255 255
-140.69601440429688 17.29988670349121 132.86724853515625 255 255 255
-175.3760528564453 1.5148123502731323 114.53011322021484 255 255 255
-157.13002014160156 14.303244590759277 123.43978881835938 255 255 255
-130.5868377685547 16.794858932495117 138.69873046875 255 255 255
-152.2985076904297 0.12072980403900146 108.09947967529297 255 255 255
-158.24559020996094 8.366662979125977 123.59532928466797 255 255 255
-129.77603149414062 17.772274017333984 139.58447265625 255 255 255
-150.28765869140625 0.7678663730621338 115.37586212158203 255 255 255
-148.72119140625 -1.3750511407852173 105.62926483154297 255 255 255
-142.05007934570312 2.452742099761963 75.17745208740234 255 255 255
-130.5013885498047 0.7339788675308228 65.33980560302734 255 255 255
-146.372802734375 7.225142478942871 78.34701538085938 255 255 255
-139.54196166992188 -30.631160736083984 -1.2979698181152344 255 255 255
-137.73696899414062 11.461252212524414 54.638729095458984 255 255 255
-137.3636474609375 -3.931077003479004 56.20122146606445 255 255 255
-147.8691864013672 7.210380554199219 79.72809600830078 255 255 255
-150.06471252441406 5.981399059295654 80.1878433227539 255 255 255
-142.2591094970703 8.95698070526123 43.77619934082031 255 255 255
-140.90255737304688 8.64278507232666 46.16939163208008 255 255 255
-140.33709716796875 8.03478717803955 38.1096076965332 255 255 255
-140.85826110839844 5.751673221588135 40.79889678955078 255 255 255
-141.490478515625 6.1856584548950195 46.3029899597168 255 255 255
-147.37049865722656 9.7876615524292 92.96660614013672 255 255 255
-147.44017028808594 10.57132625579834 93.10089111328125 255 255 255
-146.32427978515625 15.291861534118652 131.24700927734375 255 255 255
-160.12222290039062 9.132407188415527 122.6779556274414 255 255 255
-152.8330078125 5.427905082702637 114.37490844726562 255 255 255
-170.342529296875 2.1448147296905518 118.20632934570312 255 255 255
-147.1112518310547 15.188226699829102 131.01943969726562 255 255 255
-163.3212890625 -1.032181978225708 115.76689910888672 255 255 255
-145.09735107421875 -0.3449280560016632 110.77581024169922 255 255 255
-129.74681091308594 17.493749618530273 139.1283416748047 255 255 255
-137.8162384033203 17.237550735473633 134.32667541503906 255 255 255
-149.39013671875 6.985037803649902 130.9509735107422 255 255 255
-144.9803924560547 8.045784950256348 71.13805389404297 255 255 255
-144.6107940673828 4.059268951416016 68.35819244384766 255 255 255
-134.31411743164062 9.596318244934082 54.17631912231445 255 255 255
-127.17774200439453 -1.202789306640625 -13.841972351074219 255 255 255
-165.97802734375 12.936013221740723 114.67251586914062 255 255 255
-158.2532958984375 12.16215991973877 109.40803527832031 255 255 255
-144.10919189453125 16.7166690826416 124.26493835449219 255 255 255
-158.8507537841797 13.443610191345215 119.858642578125 255 255 255
-156.94085693359375 12.352293014526367 110.62870025634766 255 255 255
-146.27284240722656 5.158931732177734 113.2786865234375 255 255 255
-146.6358642578125 14.439533233642578 131.0056915283203 255 255 255
-167.38607788085938 3.27400803565979 115.0738754272461 255 255 255
-135.37017822265625 -4.696928977966309 39.081459045410156 255 255 255
-139.48446655273438 3.8122384548187256 63.05897903442383 255 255 255
-138.42137145996094 8.274494171142578 55.20589828491211 255 255 255
-154.43663024902344 6.913459777832031 115.74984741210938 255 255 255
-154.24850463867188 6.9796905517578125 115.87982940673828 255 255 255
-152.4792938232422 16.632558822631836 120.92423248291016 255 255 255
-158.2867889404297 14.489829063415527 123.50950622558594 255 255 255
-158.48831176757812 11.72939682006836 121.91926574707031 255 255 255
-159.78598022460938 12.087494850158691 122.96366882324219 255 255 255
-246.9535675048828 3.5248687267303467 114.45751190185547 255 255 255
-160.49180603027344 11.669071197509766 121.13215637207031 255 255 255
-172.69334411621094 15.371739387512207 108.45720672607422 255 255 255
-149.12045288085938 10.433152198791504 79.64933776855469 255 255 255
-147.23577880859375 16.989065170288086 122.68305206298828 255 255 255
-154.21142578125 9.541340827941895 66.88433074951172 255 255 255
-153.93434143066406 6.175597667694092 89.11190795898438 255 255 255
-154.150146484375 1.706175684928894 53.375221252441406 255 255 255
-182.5012969970703 15.225611686706543 102.45682525634766 255 255 255
-164.51312255859375 13.875232696533203 111.33486938476562 255 255 255
-148.66331481933594 13.840067863464355 91.09952545166016 255 255 255
-147.62548828125 11.921640396118164 79.30423736572266 255 255 255
-135.13864135742188 13.009480476379395 85.40467834472656 255 255 255
-146.19395446777344 13.856379508972168 93.80842590332031 255 255 255
-171.71832275390625 -4.944905757904053 -35.20098114013672 255 255 255
-141.598876953125 8.414159774780273 45.91278839111328 255 255 255
-135.7626953125 10.388667106628418 62.657100677490234 255 255 255
-133.20425415039062 10.314433097839355 69.05934143066406 255 255 255
-144.90756225585938 11.507756233215332 74.84226989746094 255 255 255
-145.52981567382812 8.82899284362793 75.7085952758789 255 255 255
-145.18035888671875 7.365509510040283 70.60171508789062 255 255 255
-147.95175170898438 15.240324020385742 115.80721282958984 255 255 255
-152.06825256347656 7.850963592529297 94.39559936523438 255 255 255
-143.25411987304688 6.498718738555908 97.38197326660156 255 255 255
-196.03057861328125 6.472868919372559 18.584789276123047 255 255 255
-152.5001678466797 13.729630470275879 108.61795806884766 255 255 255
-161.78738403320312 3.9489119052886963 79.35919952392578 255 255 255
-151.68392944335938 7.332427024841309 112.84333038330078 255 255 255
-163.66989135742188 -3.911588191986084 -16.68723487854004 255 255 255
-154.1868133544922 10.65546989440918 22.56266975402832 255 255 255
-150.4253692626953 7.630581378936768 111.0255126953125 255 255 255
-151.16741943359375 6.635702133178711 119.07334899902344 255 255 255
-136.57569885253906 13.073247909545898 137.12124633789062 255 255 255
-148.30101013183594 7.779817581176758 46.83158493041992 255 255 255
-136.9928436279297 -3.7007765769958496 66.00211334228516 255 255 255
-154.08203125 7.059111595153809 116.05133056640625 255 255 255
-148.13475036621094 10.671189308166504 104.12220764160156 255 255 255
-153.1304931640625 15.151944160461426 111.49366760253906 255 255 255
-174.3929901123047 15.008132934570312 103.2764663696289 255 255 255
-146.79949951171875 2.8776299953460693 115.37052917480469 255 255 255
-150.23460388183594 1.8344019651412964 103.35594177246094 255 255 255
-126.80668640136719 1.6041680574417114 -19.149574279785156 255 255 255
-130.50531005859375 13.040958404541016 71.26042938232422 255 255 255
-126.46292877197266 6.957409858703613 51.382720947265625 255 255 255
-147.1270294189453 4.644059658050537 77.38569641113281 255 255 255
-154.31170654296875 7.678614616394043 80.48690032958984 255 255 255
-137.64503479003906 -5.811357498168945 67.73058319091797 255 255 255
-146.84593200683594 12.25888729095459 101.7308349609375 255 255 255
-145.94882202148438 15.381012916564941 130.3728790283203 255 255 255
-145.6697235107422 15.43801212310791 131.50636291503906 255 255 255
-133.67483520507812 -8.038922309875488 69.89667510986328 255 255 255
-130.2572479248047 2.129028558731079 22.99304962158203 255 255 255
-150.6761474609375 6.9902729988098145 119.76469421386719 255 255 255
-146.3277130126953 12.747425079345703 131.08128356933594 255 255 255
-160.3689727783203 7.1657843589782715 120.59908294677734 255 255 255
-160.68569946289062 5.356716156005859 117.94061279296875 255 255 255
-162.32150268554688 -0.5028846263885498 116.39700317382812 255 255 255
-122.43769073486328 -2.1252121925354004 -4.067092418670654 255 255 255
-126.3064956665039 -0.7321320176124573 -4.917419910430908 255 255 255
-135.32106018066406 -10.065906524658203 -52.467681884765625 255 255 255
-135.76885986328125 9.463486671447754 50.36252212524414 255 255 255
-125.65882110595703 0.7417362928390503 44.635135650634766 255 255 255
-143.2661590576172 10.402856826782227 63.51340866088867 255 255 255
-163.72720336914062 3.2540814876556396 117.69727325439453 255 255 255
-140.12611389160156 16.166259765625 133.77462768554688 255 255 255
-138.80361938476562 17.330825805664062 134.30538940429688 255 255 255
-142.54261779785156 17.442567825317383 131.17604064941406 255 255 255
-175.89649963378906 12.320964813232422 107.92023468017578 255 255 255
-140.05499267578125 15.008745193481445 133.89707946777344 255 255 255
-136.26219177246094 5.986467361450195 19.7199764251709 255 255 255
-135.2292938232422 0.948015570640564 62.05198669433594 255 255 255
-175.61497497558594 10.068621635437012 73.76068115234375 255 255 255
-154.5894317626953 10.597175598144531 115.86296081542969 255 255 255
-145.40567016601562 2.9843389987945557 74.08672332763672 255 255 255
-143.85577392578125 4.798125267028809 78.982421875 255 255 255
-147.06417846679688 1.754175066947937 110.28429412841797 255 255 255
-128.00401306152344 4.186867713928223 -4.692612171173096 255 255 255
-123.66104888916016 -7.535874366760254 -9.729278564453125 255 255 255
-147.1837615966797 -3.8230490684509277 110.66521453857422 255 255 255
-141.32762145996094 16.09552764892578 119.4940414428711 255 255 255
-155.26609802246094 15.035204887390137 109.46440887451172 255 255 255
-181.47048950195312 2.1109864711761475 86.17916107177734 255 255 255
-135.38076782226562 2.8752312660217285 114.90681457519531 255 255 255
-162.91867065429688 1.5595800876617432 117.8421630859375 255 255 255
-150.49241638183594 0.13812290132045746 112.20277404785156 255 255 255
-162.50108337402344 3.7025692462921143 118.30810546875 255 255 255
-144.22018432617188 17.297319412231445 129.4834442138672 255 255 255
-128.36502075195312 15.24598217010498 141.52601623535156 255 255 255
-131.59371948242188 17.712228775024414 138.2672119140625 255 255 255
-147.01577758789062 7.756723880767822 96.4126205444336 255 255 255
-154.61837768554688 9.890996932983398 97.53964233398438 255 255 255
-146.76351928710938 4.3770880699157715 78.02611541748047 255 255 255
-149.99288940429688 0.9113937020301819 72.77458953857422 255 255 255
-147.50225830078125 9.200517654418945 80.5082778930664 255 255 255
-136.98367309570312 -5.567846298217773 53.80009841918945 255 255 255
-132.9551239013672 1.9158172607421875 62.868473052978516 255 255 255
-135.21163940429688 -2.262421131134033 65.71009826660156 255 255 255
-137.89312744140625 9.174345016479492 47.64387893676758 255 255 255
-142.71841430664062 4.248861789703369 50.74604797363281 255 255 255
-134.80242919921875 2.417982339859009 47.25035858154297 255 255 255
-127.41896057128906 7.167880535125732 48.50999450683594 255 255 255
-129.36622619628906 3.6947884559631348 78.3637924194336 255 255 255
-125.6032943725586 2.119306802749634 71.08174896240234 255 255 255
-128.50747680664062 -5.854593276977539 -21.981672286987305 255 255 255
-124.75068664550781 -5.371493816375732 -19.82616424560547 255 255 255
-135.12344360351562 3.533541679382324 -8.540839195251465 255 255 255
-137.1282958984375 4.245553016662598 -0.7435427904129028 255 255 255
-136.5557098388672 -1.0977377891540527 -7.082857608795166 255 255 255
-127.74153900146484 1.2411497831344604 -4.810121059417725 255 255 255
-127.53955841064453 -8.89274787902832 -20.744976043701172 255 255 255
-127.05075073242188 -10.299028396606445 -21.87056541442871 255 255 255
-145.47256469726562 3.1005356311798096 74.31021118164062 255 255 255
-127.87342834472656 17.182872772216797 140.7383270263672 255 255 255
-135.89407348632812 17.264976501464844 132.09194946289062 255 255 255
-128.8914031982422 17.361047744750977 139.09852600097656 255 255 255
-127.86832427978516 17.144819259643555 140.7427215576172 255 255 255
-157.04367065429688 4.251465797424316 114.85633087158203 255 255 255
-138.37542724609375 1.8917323350906372 117.57439422607422 255 255 255
-145.9125213623047 -1.0217522382736206 115.86284637451172 255 255 255
-131.53369140625 16.481731414794922 131.84906005859375 255 255 255
-144.4755859375 6.724145889282227 116.50275421142578 255 255 255
-142.7094268798828 17.243974685668945 130.5230255126953 255 255 255
-161.0132598876953 4.2604193687438965 117.75440979003906 255 255 255
-147.5756378173828 -4.107636451721191 110.17103576660156 255 255 255
-145.3468017578125 0.5097227096557617 107.5782470703125 255 255 255
-133.8300323486328 6.2340826988220215 115.09913635253906 255 255 255
-139.2935791015625 0.5618032217025757 117.18025970458984 255 255 255
-127.96136474609375 17.48862648010254 140.84487915039062 255 255 255
-145.4047393798828 5.23753547668457 111.2347183227539 255 255 255
-147.4050750732422 2.4690423011779785 107.31119537353516 255 255 255
-123.63416290283203 -5.387814044952393 -19.975648880004883 255 255 255
-110.86412048339844 -29.548492431640625 -156.60708618164062 255 255 255
-144.61265563964844 9.407868385314941 72.60576629638672 255 255 255
-144.25674438476562 5.258286476135254 63.967430114746094 255 255 255
-145.28465270996094 9.462733268737793 74.52452087402344 255 255 255
-136.46533203125 4.464084625244141 116.77452850341797 255 255 255
-157.2238311767578 8.28592586517334 52.4481201171875 255 255 255
-153.16989135742188 14.201281547546387 116.6372299194336 255 255 255
-192.97035217285156 7.084925174713135 24.336294174194336 255 255 255
-146.62823486328125 7.994097709655762 100.89015197753906 255 255 255
-146.53016662597656 5.797939300537109 131.7960662841797 255 255 255
-131.63723754882812 17.98076629638672 138.89427185058594 255 255 255
-163.42196655273438 -1.3073201179504395 113.97634887695312 255 255 255
-129.894287109375 15.26472282409668 140.55841064453125 255 255 255
-149.2594757080078 10.905418395996094 98.64763641357422 255 255 255
-137.28599548339844 7.611469745635986 94.96306610107422 255 255 255
-127.23664855957031 2.621028184890747 59.83753204345703 255 255 255
-138.12149047851562 7.723498344421387 93.81893157958984 255 255 255
-148.03504943847656 13.495588302612305 89.59320831298828 255 255 255
-139.548828125 6.3642802238464355 91.97650909423828 255 255 255
-137.35829162597656 14.372647285461426 98.122314453125 255 255 255
-147.46409606933594 0.0007771395612508059 116.43112182617188 255 255 255
-127.49234008789062 17.801971435546875 141.01748657226562 255 255 255
-139.71604919433594 -1.3850194215774536 -32.63686752319336 255 255 255
-131.1188201904297 -5.989657878875732 64.04688262939453 255 255 255
-128.9462432861328 -6.069029331207275 57.56512451171875 255 255 255
-147.68875122070312 7.005802154541016 80.1392822265625 255 255 255
-130.0318145751953 8.191157341003418 46.68579864501953 255 255 255
-143.2699737548828 9.711947441101074 63.504188537597656 255 255 255
-162.09140014648438 5.55224609375 29.66522979736328 255 255 255
-135.76075744628906 17.220674514770508 132.15029907226562 255 255 255
-150.67959594726562 1.6290112733840942 110.69660949707031 255 255 255
-135.49325561523438 2.7230541706085205 115.2446060180664 255 255 255
-131.56788635253906 15.276061058044434 128.99612426757812 255 255 255
-153.80581665039062 16.655487060546875 124.43450164794922 255 255 255
-134.61265563964844 -0.5649795532226562 -0.025442317128181458 255 255 255
-121.7870101928711 -7.39589786529541 -13.74795913696289 255 255 255
-112.15602111816406 -0.3789060711860657 -22.39300537109375 255 255 255
-165.53460693359375 15.072552680969238 105.53926086425781 255 255 255
-137.40098571777344 -1.4350059032440186 -20.98169708251953 255 255 255
-142.09144592285156 2.6074295043945312 75.50128936767578 255 255 255
-128.18600463867188 2.315253734588623 28.971460342407227 255 255 255
-138.93405151367188 6.977941036224365 26.688234329223633 255 255 255
-128.8551788330078 5.350589752197266 20.07545280456543 255 255 255
-128.82101440429688 5.317304611206055 20.01076316833496 255 255 255
-131.6099853515625 -1.3026126623153687 18.0880184173584 255 255 255
-146.9604034423828 8.65463638305664 92.73966217041016 255 255 255
-146.97647094726562 8.589348793029785 92.58851623535156 255 255 255
-143.4308624267578 15.07524585723877 102.59559631347656 255 255 255
-135.68804931640625 3.5770275592803955 114.99906158447266 255 255 255
-144.25013732910156 11.000633239746094 70.60543823242188 255 255 255
-145.80447387695312 13.700315475463867 93.79866790771484 255 255 255
-126.17367553710938 3.3152263164520264 7.069531440734863 255 255 255
-158.74746704101562 13.292235374450684 120.67992401123047 255 255 255
-145.55906677246094 7.593769550323486 113.76023864746094 255 255 255
-137.9183807373047 2.4382567405700684 -10.30124282836914 255 255 255
-135.08279418945312 3.905393600463867 -6.451720714569092 255 255 255
-120.608154296875 4.687148571014404 56.99534225463867 255 255 255
-149.5593719482422 5.304760456085205 116.40499877929688 255 255 255
-147.04736328125 1.5514265298843384 110.82866668701172 255 255 255
-145.8444366455078 15.067770004272461 130.69061279296875 255 255 255
-138.1542205810547 8.60947036743164 116.73241424560547 255 255 255
-124.6121597290039 -2.5476882457733154 -22.600210189819336 255 255 255
-123.75151824951172 -4.077369213104248 -23.385848999023438 255 255 255
-124.51214599609375 -4.949947357177734 -21.653072357177734 255 255 255
-144.0264892578125 6.641599655151367 63.0994873046875 255 255 255
-125.42428588867188 4.49791145324707 50.674076080322266 255 255 255
-150.5367431640625 -0.3277723491191864 114.14849853515625 255 255 255
-133.1171875 16.97538185119629 131.02822875976562 255 255 255
-154.81678771972656 5.199038982391357 116.25904083251953 255 255 255
-147.7382049560547 13.9525785446167 130.64434814453125 255 255 255
-158.7733154296875 1.3501418828964233 115.5478286743164 255 255 255
-158.2164306640625 2.964021682739258 119.99382019042969 255 255 255
-155.3841094970703 15.07668399810791 109.2885513305664 255 255 255
-161.4212188720703 0.32954567670822144 112.37078857421875 255 255 255
-127.11241149902344 -4.207674503326416 -21.58112907409668 255 255 255
-126.7658920288086 -4.502133369445801 -23.93727684020996 255 255 255
-134.3098907470703 1.5560680627822876 -22.975671768188477 255 255 255
-124.01231384277344 -4.24257755279541 -23.63623809814453 255 255 255
-126.72509002685547 -4.54363489151001 -24.038360595703125 255 255 255
-126.68147277832031 7.862670421600342 64.05313873291016 255 255 255
-136.65821838378906 -3.5539743900299072 56.18903732299805 255 255 255
-156.94309997558594 7.157630920410156 110.19776153564453 255 255 255
-160.29815673828125 4.695284843444824 118.95716857910156 255 255 255
-146.4693145751953 11.613346099853516 130.97955322265625 255 255 255
-159.4663543701172 11.996970176696777 123.19525146484375 255 255 255
-153.20361328125 16.65350914001465 120.68506622314453 255 255 255
-146.82337951660156 8.925381660461426 92.88507080078125 255 255 255
-168.76202392578125 4.6546735763549805 4.253403186798096 255 255 255
-150.31356811523438 9.233147621154785 93.4186019897461 255 255 255
-147.2539825439453 8.521771430969238 90.51677703857422 255 255 255
-150.86126708984375 1.9729182720184326 116.61066436767578 255 255 255
-149.2023162841797 0.8776061534881592 117.60271453857422 255 255 255
-158.50592041015625 14.45329761505127 123.1033706665039 255 255 255
-162.55348205566406 2.5403501987457275 116.26422119140625 255 255 255
-126.48200225830078 -2.086285352706909 -21.548311233520508 255 255 255
-128.45965576171875 -5.162100791931152 -22.403472900390625 255 255 255
-104.71217346191406 -6.357252597808838 -58.883872985839844 255 255 255
-138.97557067871094 -4.846855640411377 -40.37263488769531 255 255 255
-133.3414306640625 2.1656603813171387 -21.47847557067871 255 255 255
-138.72706604003906 0.5164633989334106 -41.757049560546875 255 255 255
-125.09617614746094 4.389257431030273 73.4164810180664 255 255 255
-119.89726257324219 4.635978698730469 56.74992752075195 255 255 255
-130.68894958496094 10.313268661499023 80.31105041503906 255 255 255
-141.02426147460938 0.957913339138031 -34.9188232421875 255 255 255
-138.242919921875 1.156962275505066 -27.75005340576172 255 255 255
-131.87977600097656 1.494727373123169 -23.16581916809082 255 255 255
-137.595703125 -5.328863143920898 -39.47905349731445 255 255 255
-135.82830810546875 4.362442493438721 118.33853912353516 255 255 255
-154.2178192138672 -2.536930799484253 108.77373504638672 255 255 255
-146.02981567382812 -0.748918890953064 109.79358673095703 255 255 255
