107.93736267089844 4.935389995574951 175.66859436035156 255 255 255
110.07694244384766 9.764217376708984 170.57568359375 255 255 255
103.7911148071289 5.294821262359619 184.1007843017578 255 255 255
24.913724899291992 24.6088809967041 274.8846435546875 255 255 255
24.436588287353516 21.305322647094727 277.9270935058594 255 255 255
73.31415557861328 20.450963973999023 252.50804138183594 255 255 255
71.7506103515625 20.556140899658203 253.51104736328125 255 255 255
124.45536041259766 5.296020030975342 241.4092559814453 255 255 255
132.32443237304688 0.4007816016674042 225.57135009765625 255 255 255
88.39642333984375 9.494390487670898 234.8086395263672 255 255 255
73.5551528930664 16.670242309570312 252.55517578125 255 255 255
82.22219848632812 19.45787239074707 240.82284545898438 255 255 255
44.19382858276367 22.792226791381836 260.95654296875 255 255 255
42.950870513916016 23.161590576171875 264.30987548828125 255 255 255
87.9729995727539 19.05848503112793 262.2540588378906 255 255 255
34.17537307739258 20.89328956604004 264.6014404296875 255 255 255
28.028602600097656 21.18728256225586 272.4656677246094 255 255 255
49.99483108520508 19.58183479309082 271.48040771484375 255 255 255
57.434898376464844 22.49197769165039 266.0929260253906 255 255 255
37.79697036743164 19.29326820373535 266.7066955566406 255 255 255
134.5844268798828 1.334560513496399 244.156494140625 255 255 255
66.23452758789062 21.689987182617188 253.93968200683594 255 255 255
118.13624572753906 15.596212387084961 245.0426025390625 255 255 255
101.78899383544922 9.26944637298584 188.0363311767578 255 255 255
109.05562591552734 6.83298397064209 165.4756622314453 255 255 255
101.03619384765625 11.84251880645752 184.23121643066406 255 255 255
108.04838562011719 9.703994750976562 167.25123596191406 255 255 255
105.69425964355469 6.3009867668151855 179.875 255 255 255
113.31250762939453 8.983929634094238 164.39630126953125 255 255 255
109.0174789428711 6.994588375091553 166.68133544921875 255 255 255
109.30331420898438 9.913281440734863 170.57015991210938 255 255 255
98.00126647949219 11.593092918395996 168.79150390625 255 255 255
66.42586517333984 21.056238174438477 251.46424865722656 255 255 255
29.794466018676758 20.86632537841797 277.4915466308594 255 255 255
36.450252532958984 23.770235061645508 267.55914306640625 255 255 255
0.7286241054534912 21.23849868774414 299.0496520996094 255 255 255
4.487829208374023 25.142440795898438 291.02801513671875 255 255 255
4.739968776702881 15.297199249267578 300.68585205078125 255 255 255
-5.473931789398193 27.655120849609375 317.0452575683594 255 255 255
-9.132279396057129 15.988874435424805 332.07037353515625 255 255 255
-3.0402584075927734 19.714876174926758 298.5722351074219 255 255 255
90.10167694091797 18.310483932495117 242.72972106933594 255 255 255
95.48731231689453 18.50920295715332 240.32362365722656 255 255 255
21.425230026245117 21.337038040161133 276.18341064453125 255 255 255
93.6855239868164 7.402054309844971 99.0871353149414 255 255 255
33.93856430053711 20.867956161499023 264.8648376464844 255 255 255
72.35741424560547 21.25202178955078 279.72296142578125 255 255 255
13.60262393951416 22.419092178344727 282.6711730957031 255 255 255
63.80320358276367 20.593358993530273 317.7552795410156 255 255 255
46.18012619018555 22.662744522094727 309.7558898925781 255 255 255
31.752017974853516 23.867469787597656 270.6778564453125 255 255 255
23.44871711730957 21.986858367919922 279.1846008300781 255 255 255
21.71479034423828 24.328256607055664 272.1405944824219 255 255 255
26.813308715820312 24.792892456054688 275.7651062011719 255 255 255
129.53604125976562 3.326936960220337 221.63885498046875 255 255 255
97.68087005615234 20.556743621826172 261.88336181640625 255 255 255
83.11524963378906 11.01700210571289 242.10194396972656 255 255 255
23.397092819213867 24.92079734802246 267.8266906738281 255 255 255
188.75439453125 -11.339872360229492 218.1877899169922 255 255 255
134.00144958496094 3.3031318187713623 236.73497009277344 255 255 255
26.064321517944336 24.712932586669922 274.00286865234375 255 255 255
89.09148406982422 19.303363800048828 261.4462890625 255 255 255
30.222122192382812 22.330896377563477 279.3164367675781 255 255 255
26.75353240966797 20.904300689697266 271.91888427734375 255 255 255
78.12385559082031 20.49142074584961 250.14732360839844 255 255 255
23.431264877319336 21.995893478393555 279.1836853027344 255 255 255
24.484115600585938 21.453702926635742 279.66558837890625 255 255 255
24.935773849487305 21.611446380615234 278.5548400878906 255 255 255
23.405733108520508 20.829301834106445 279.3144226074219 255 255 255
29.206161499023438 22.479581832885742 280.0185546875 255 255 255
21.744766235351562 20.477697372436523 276.44964599609375 255 255 255
23.769472122192383 24.94317054748535 278.38201904296875 255 255 255
22.740175247192383 19.52161979675293 275.9825439453125 255 255 255
53.75133514404297 19.214128494262695 261.4289855957031 255 255 255
54.62986373901367 22.60984230041504 261.5121154785156 255 255 255
48.847591400146484 21.54829216003418 259.5597839355469 255 255 255
28.21987533569336 21.194265365600586 272.1608581542969 255 255 255
30.78226661682129 23.45475196838379 267.4559631347656 255 255 255
131.20742797851562 2.971714735031128 252.19131469726562 255 255 255
130.34503173828125 9.317704200744629 218.4022979736328 255 255 255
121.90118408203125 9.364856719970703 204.28768920898438 255 255 255
119.70918273925781 11.014233589172363 215.3212432861328 255 255 255
119.6231689453125 6.09550666809082 217.06234741210938 255 255 255
116.29998779296875 14.65947437286377 229.5960693359375 255 255 255
23.142213821411133 24.69374656677246 279.53143310546875 255 255 255
21.45619010925293 20.09986114501953 276.4380798339844 255 255 255
39.25630569458008 23.71933364868164 274.55792236328125 255 255 255
26.06894302368164 23.102407455444336 270.155517578125 255 255 255
97.3282470703125 8.59739875793457 174.3946990966797 255 255 255
94.67279052734375 11.740619659423828 173.66932678222656 255 255 255
97.23307800292969 1.507511019706726 147.02146911621094 255 255 255
94.07093811035156 11.51028823852539 171.02406311035156 255 255 255
87.19931030273438 3.2286386489868164 103.6352767944336 255 255 255
23.316652297973633 23.466381072998047 270.3567810058594 255 255 255
48.08380889892578 21.598806381225586 272.6180419921875 255 255 255
27.478708267211914 23.53105354309082 268.6337585449219 255 255 255
24.486928939819336 21.30698013305664 277.7376403808594 255 255 255
50.23495864868164 20.03771209716797 267.94305419921875 255 255 255
91.63233947753906 18.82392120361328 239.38632202148438 255 255 255
22.89120864868164 20.09526252746582 275.3196105957031 255 255 255
28.137914657592773 20.700119018554688 271.2426452636719 255 255 255
92.50922393798828 14.903600692749023 241.31874084472656 255 255 255
19.554637908935547 20.148454666137695 275.6233825683594 255 255 255
26.188478469848633 19.72788429260254 271.653076171875 255 255 255
41.169742584228516 24.328283309936523 272.8710021972656 255 255 255
39.19221878051758 20.011146545410156 271.91351318359375 255 255 255
38.07545852661133 16.030481338500977 264.464599609375 255 255 255
118.57583618164062 15.009510040283203 244.56687927246094 255 255 255
122.39012908935547 8.085893630981445 242.8205108642578 255 255 255
41.40800094604492 23.97673225402832 271.4652099609375 255 255 255
41.531490325927734 23.57433319091797 266.9483642578125 255 255 255
114.44264221191406 5.451788902282715 215.6598358154297 255 255 255
107.77606201171875 -0.9674105644226074 202.0977020263672 255 255 255
114.81248474121094 7.092346668243408 214.16607666015625 255 255 255
114.78894805908203 9.8915433883667 206.2320556640625 255 255 255
123.36897277832031 3.4691550731658936 154.100830078125 255 255 255
84.86827850341797 19.16268539428711 275.48944091796875 255 255 255
47.82681655883789 23.01827621459961 262.9358825683594 255 255 255
40.16964340209961 23.634288787841797 268.64556884765625 255 255 255
120.19928741455078 7.220680236816406 225.27871704101562 255 255 255
118.58014678955078 5.539305686950684 216.719970703125 255 255 255
111.15982818603516 -1.3737764358520508 188.59979248046875 255 255 255
134.09213256835938 8.67190933227539 218.95416259765625 255 255 255
123.52014923095703 4.3689751625061035 216.31494140625 255 255 255
132.31671142578125 6.714631080627441 216.95584106445312 255 255 255
142.8843536376953 -4.009047031402588 275.2207336425781 255 255 255
73.81072998046875 22.716896057128906 279.2952575683594 255 255 255
113.31009674072266 6.494869232177734 212.74185180664062 255 255 255
107.21109771728516 -0.27879855036735535 201.17897033691406 255 255 255
126.49578857421875 9.998882293701172 203.50721740722656 255 255 255
127.17571258544922 8.302298545837402 182.56405639648438 255 255 255
123.22859954833984 10.600570678710938 201.96914672851562 255 255 255
105.44041442871094 1.3607829809188843 181.96632385253906 255 255 255
32.68455123901367 23.476058959960938 267.3830261230469 255 255 255
27.546043395996094 21.518583297729492 271.5688171386719 255 255 255
125.86896514892578 5.468061923980713 243.7154998779297 255 255 255
51.20534896850586 21.134687423706055 259.53143310546875 255 255 255
26.77341079711914 23.590476989746094 268.76678466796875 255 255 255
27.444969177246094 20.023775100708008 271.4180603027344 255 255 255
27.744091033935547 20.035905838012695 271.0682373046875 255 255 255
29.6439208984375 23.338315963745117 264.2859802246094 255 255 255
87.3706283569336 5.106283664703369 78.22207641601562 255 255 255
108.48705291748047 8.219542503356934 162.6029052734375 255 255 255
116.10782623291016 0.8888673782348633 120.03564453125 255 255 255
179.34278869628906 9.498661994934082 231.4605255126953 255 255 255
82.14814758300781 18.456544876098633 243.71829223632812 255 255 255
88.32060241699219 7.771528244018555 236.09149169921875 255 255 255
85.00789642333984 7.653807163238525 95.88786315917969 255 255 255
82.57990264892578 4.491332530975342 97.10797119140625 255 255 255
39.01336669921875 18.14139175415039 264.4165954589844 255 255 255
35.704280853271484 20.790102005004883 265.9700622558594 255 255 255
141.9425506591797 12.073102951049805 267.6337890625 255 255 255
24.0804500579834 23.672819137573242 272.1935729980469 255 255 255
29.51326560974121 24.335542678833008 273.1899108886719 255 255 255
106.0700454711914 4.628098011016846 166.39329528808594 255 255 255
26.12286376953125 24.403404235839844 271.8330078125 255 255 255
86.76789093017578 9.244070053100586 125.10454559326172 255 255 255
48.15690612792969 20.605384826660156 268.1891784667969 255 255 255
101.01290893554688 11.66231918334961 183.7776336669922 255 255 255
108.09366607666016 1.977107286453247 163.77603149414062 255 255 255
101.64729309082031 9.512518882751465 189.00033569335938 255 255 255
107.83332824707031 0.066219262778759 165.42930603027344 255 255 255
108.18651580810547 1.5451664924621582 161.75747680664062 255 255 255
103.78057861328125 12.331194877624512 190.08053588867188 255 255 255
79.28846740722656 18.92864418029785 245.17189025878906 255 255 255
144.31982421875 6.075252056121826 267.2081298828125 255 255 255
83.07284545898438 10.448444366455078 240.5975799560547 255 255 255
146.3573455810547 7.4743242263793945 266.78570556640625 255 255 255
112.99529266357422 3.628535270690918 184.26197814941406 255 255 255
105.17903900146484 4.696137428283691 195.960205078125 255 255 255
97.39877319335938 -17.779932022094727 22.319149017333984 255 255 255
90.10430145263672 6.320851802825928 86.21295928955078 255 255 255
95.90188598632812 -16.807594299316406 31.062458038330078 255 255 255
-12.259923934936523 25.86793327331543 303.8746337890625 255 255 255
1.3043230772018433 16.32384490966797 297.4105224609375 255 255 255
-1.5582689046859741 16.602018356323242 296.3139343261719 255 255 255
23.34893226623535 3.855872631072998 305.897216796875 255 255 255
19.08144187927246 2.714721202850342 307.8331298828125 255 255 255
10.653603553771973 24.536046981811523 274.4262390136719 255 255 255
38.27008056640625 23.524173736572266 259.27349853515625 255 255 255
131.85951232910156 5.869460105895996 252.9818878173828 255 255 255
-13.811330795288086 13.43129825592041 298.06097412109375 255 255 255
4.53052282333374 13.885342597961426 296.8942565917969 255 255 255
-16.936687469482422 19.556812286376953 299.5172119140625 255 255 255
-2.577158212661743 15.351208686828613 252.3519287109375 255 255 255
-2.7622711658477783 24.58618927001953 307.55224609375 255 255 255
3.131830930709839 21.12659454345703 296.1041564941406 255 255 255
-3.9382822513580322 23.80270004272461 299.08221435546875 255 255 255
17.13056182861328 21.084630966186523 301.056396484375 255 255 255
97.015380859375 12.62102222442627 167.190673828125 255 255 255
102.15188598632812 4.806750774383545 174.3265838623047 255 255 255
102.32874298095703 9.32431411743164 182.990234375 255 255 255
-2.848496437072754 16.417682647705078 252.2686309814453 255 255 255
-4.8093767166137695 20.868656158447266 313.6377868652344 255 255 255
6.34006404876709 18.14845085144043 290.8998107910156 255 255 255
10.913849830627441 25.853527069091797 292.8780517578125 255 255 255
11.589204788208008 21.575763702392578 294.7629699707031 255 255 255
-11.284978866577148 22.200483322143555 307.03717041015625 255 255 255
116.84814453125 14.659968376159668 231.91778564453125 255 255 255
8.305742263793945 23.753700256347656 279.7528381347656 255 255 255
-3.330456018447876 13.573858261108398 301.28717041015625 255 255 255
14.645814895629883 18.33942413330078 297.7529602050781 255 255 255
0.08968015760183334 17.918886184692383 299.9785461425781 255 255 255
9.235674858093262 23.35704231262207 294.5132141113281 255 255 255
-1.166937232017517 19.986324310302734 303.3830261230469 255 255 255
-9.18580150604248 21.803457260131836 301.7601318359375 255 255 255
2.9726781845092773 22.988338470458984 262.3591613769531 255 255 255
19.81531524658203 23.74258041381836 277.4119873046875 255 255 255
88.06739807128906 19.489992141723633 260.9407043457031 255 255 255
18.47184944152832 24.820423126220703 278.121337890625 255 255 255
26.195161819458008 21.147186279296875 279.46832275390625 255 255 255
23.826412200927734 19.05065155029297 270.9767150878906 255 255 255
5.673039436340332 13.80341625213623 294.1766357421875 255 255 255
-4.2995381355285645 16.333160400390625 251.47520446777344 255 255 255
8.939269065856934 18.392045974731445 294.6222839355469 255 255 255
8.613362312316895 21.61850357055664 250.54171752929688 255 255 255
-3.6995086669921875 16.670427322387695 295.77459716796875 255 255 255
14.022443771362305 23.7620849609375 296.3226013183594 255 255 255
85.3519058227539 7.852875709533691 101.12694549560547 255 255 255
-1.0889785289764404 13.984183311462402 297.2534484863281 255 255 255
37.66169738769531 30.94981575012207 351.6317138671875 255 255 255
-6.494964122772217 16.591705322265625 295.81304931640625 255 255 255
-10.01969051361084 25.240966796875 304.7131042480469 255 255 255
-9.777148246765137 23.559946060180664 267.18731689453125 255 255 255
22.832744598388672 5.789146423339844 304.515380859375 255 255 255
14.274724006652832 14.69893741607666 288.2630615234375 255 255 255
12.102744102478027 10.520354270935059 296.5075378417969 255 255 255
-0.2209293693304062 14.544727325439453 294.7498779296875 255 255 255
-17.190366744995117 14.346136093139648 305.296875 255 255 255
5.791112899780273 13.572897911071777 294.97271728515625 255 255 255
-13.68288803100586 17.86730194091797 299.96893310546875 255 255 255
-24.59231948852539 27.116796493530273 315.1044006347656 255 255 255
-0.41580528020858765 14.03609561920166 295.7703857421875 255 255 255
-14.233316421508789 15.779498100280762 298.5132141113281 255 255 255
-27.957242965698242 26.830795288085938 314.0496520996094 255 255 255
-16.4223575592041 18.487567901611328 298.8869934082031 255 255 255
108.31204223632812 -0.5953463315963745 161.5706787109375 255 255 255
94.50209045410156 12.472494125366211 177.54270935058594 255 255 255
102.39869689941406 12.24570083618164 192.10708618164062 255 255 255
103.57759094238281 12.384714126586914 191.2747802734375 255 255 255
101.1708755493164 11.880428314208984 184.0849609375 255 255 255
102.62645721435547 8.92486572265625 187.44232177734375 255 255 255
30.92611312866211 23.448593139648438 267.30242919921875 255 255 255
38.40206527709961 20.864421844482422 266.6753845214844 255 255 255
72.41358947753906 21.73650550842285 264.8638000488281 255 255 255
58.84304428100586 21.433387756347656 255.66534423828125 255 255 255
57.08785629272461 22.156064987182617 258.5935363769531 255 255 255
46.555633544921875 18.376136779785156 264.4049987792969 255 255 255
49.655677795410156 23.009885787963867 263.87078857421875 255 255 255
51.467166900634766 22.86527442932129 262.6060791015625 255 255 255
49.360023498535156 18.567058563232422 261.8446960449219 255 255 255
119.63276672363281 12.909992218017578 200.7138214111328 255 255 255
106.09471893310547 4.296621322631836 200.73158264160156 255 255 255
107.52911376953125 0.7477972507476807 198.08412170410156 255 255 255
8.496880531311035 24.56913948059082 294.9577941894531 255 255 255
10.19643497467041 23.553733825683594 295.276611328125 255 255 255
22.38677978515625 23.864675521850586 302.4447937011719 255 255 255
-14.826712608337402 23.97893714904785 314.29937744140625 255 255 255
-9.634798049926758 22.250967025756836 300.8769836425781 255 255 255
13.887712478637695 20.494014739990234 269.0975341796875 255 255 255
19.84503746032715 17.16811752319336 271.3517150878906 255 255 255
93.17142486572266 9.59916877746582 141.54344177246094 255 255 255
92.05680084228516 11.9017333984375 166.6848907470703 255 255 255
6.5926384925842285 19.055330276489258 292.9054260253906 255 255 255
14.316368103027344 22.059289932250977 283.32904052734375 255 255 255
62.162559509277344 21.505155563354492 324.93536376953125 255 255 255
20.152475357055664 25.810165405273438 290.14361572265625 255 255 255
60.85662078857422 24.9783992767334 298.98736572265625 255 255 255
-13.304458618164062 23.169837951660156 306.0138854980469 255 255 255
-3.1051547527313232 18.02971649169922 250.96377563476562 255 255 255
26.397031784057617 10.850184440612793 305.4986877441406 255 255 255
-5.425211429595947 20.41948890686035 289.7879943847656 255 255 255
88.80208587646484 6.898916721343994 136.7499237060547 255 255 255
5.64464807510376 20.538633346557617 236.4113311767578 255 255 255
110.58464050292969 17.410625457763672 245.16123962402344 255 255 255
83.70372009277344 18.203142166137695 245.7231903076172 255 255 255
79.36006164550781 18.761943817138672 245.78091430664062 255 255 255
67.34529113769531 21.683120727539062 255.14947509765625 255 255 255
-10.90278148651123 22.042966842651367 273.62841796875 255 255 255
-6.141740322113037 12.196788787841797 257.1414489746094 255 255 255
-5.736029148101807 20.56928825378418 293.7170715332031 255 255 255
-23.792612075805664 3.8073463439941406 288.44158935546875 255 255 255
-20.068761825561523 25.96111297607422 326.8885498046875 255 255 255
107.6305923461914 8.229059219360352 159.6839599609375 255 255 255
108.5257797241211 2.4863288402557373 161.32264709472656 255 255 255
104.48401641845703 7.170071125030518 176.93011474609375 255 255 255
103.7132568359375 9.078177452087402 182.34523010253906 255 255 255
98.60545349121094 11.757563591003418 168.427978515625 255 255 255
87.42716217041016 5.835070610046387 131.87045288085938 255 255 255
8.678596496582031 13.29948616027832 293.38507080078125 255 255 255
-6.523664474487305 14.400306701660156 293.9942321777344 255 255 255
-5.551469326019287 22.70313835144043 263.3843994140625 255 255 255
14.65653133392334 18.35260772705078 297.83868408203125 255 255 255
8.536653518676758 23.721254348754883 294.6896667480469 255 255 255
9.066169738769531 22.36545181274414 291.38934326171875 255 255 255
37.064579010009766 23.939434051513672 302.3183288574219 255 255 255
18.410375595092773 21.540138244628906 298.5530090332031 255 255 255
12.079440116882324 22.20492935180664 284.3713073730469 255 255 255
23.62509536743164 25.570415496826172 300.15899658203125 255 255 255
19.908573150634766 17.843692779541016 298.7229919433594 255 255 255
11.205062866210938 21.940235137939453 293.974853515625 255 255 255
83.14710235595703 4.232094764709473 99.30436706542969 255 255 255
92.77935028076172 7.0948100090026855 94.75723266601562 255 255 255
89.59707641601562 2.0818252563476562 81.8910140991211 255 255 255
89.1947250366211 4.805207252502441 63.97125244140625 255 255 255
-5.408879280090332 20.46892547607422 314.954345703125 255 255 255
3.429446220397949 24.995790481567383 279.0991516113281 255 255 255
-1.9774707555770874 16.471097946166992 295.380126953125 255 255 255
-11.584996223449707 19.618120193481445 304.5669860839844 255 255 255
1.630900263786316 23.883834838867188 269.5583190917969 255 255 255
-9.46840763092041 16.619062423706055 291.4467468261719 255 255 255
12.414336204528809 14.473723411560059 288.1412048339844 255 255 255
-7.672522068023682 12.52918529510498 293.3807067871094 255 255 255
97.18340301513672 12.21179485321045 182.01708984375 255 255 255
104.65579223632812 12.10090446472168 188.2604217529297 255 255 255
105.5174560546875 6.89927864074707 165.972900390625 255 255 255
102.76141357421875 11.103611946105957 185.94265747070312 255 255 255
16.396963119506836 25.43428611755371 287.5408935546875 255 255 255
23.420331954956055 18.391328811645508 302.99755859375 255 255 255
16.281238555908203 21.08965492248535 299.879150390625 255 255 255
21.578598022460938 20.146203994750977 296.6188659667969 255 255 255
11.423396110534668 25.162914276123047 285.1829528808594 255 255 255
16.131935119628906 25.32430076599121 287.13189697265625 255 255 255
14.102594375610352 25.328744888305664 289.0785827636719 255 255 255
14.277297973632812 25.38949966430664 283.78094482421875 255 255 255
2.302633047103882 18.799072265625 296.51953125 255 255 255
-5.628453731536865 24.04840850830078 320.0848388671875 255 255 255
100.34603118896484 8.909744262695312 177.4933624267578 255 255 255
100.74291229248047 9.193061828613281 178.42910766601562 255 255 255
107.93401336669922 11.377177238464355 173.0869903564453 255 255 255
112.65355682373047 2.6253280639648438 187.76893615722656 255 255 255
7.015571117401123 24.651519775390625 291.35308837890625 255 255 255
-4.316953659057617 21.295442581176758 293.8244323730469 255 255 255
-3.188203811645508 19.68370246887207 295.8231506347656 255 255 255
101.73876190185547 9.00774097442627 187.8233642578125 255 255 255
-7.094998836517334 22.728670120239258 257.4114685058594 255 255 255
-11.178203582763672 14.698953628540039 261.1085510253906 255 255 255
77.82205963134766 8.367704391479492 91.4632797241211 255 255 255
-3.680205821990967 16.668176651000977 251.51258850097656 255 255 255
17.981346130371094 13.797282218933105 289.06787109375 255 255 255
-7.980012893676758 20.954833984375 251.27249145507812 255 255 255
-3.8785481452941895 13.9517240524292 253.81918334960938 255 255 255
-7.854923248291016 20.7846736907959 250.4949188232422 255 255 255
8.75014591217041 24.0780029296875 272.143798828125 255 255 255
-9.880295753479004 14.986591339111328 257.73858642578125 255 255 255
-2.052076816558838 15.488175392150879 254.25006103515625 255 255 255
1.4764246940612793 22.559022903442383 296.6654052734375 255 255 255
-1.0151526927947998 22.061620712280273 301.29791259765625 255 255 255
-7.356864929199219 11.042736053466797 257.1011962890625 255 255 255
7.178490161895752 10.417651176452637 292.2827453613281 255 255 255
-0.1969500184059143 19.975881576538086 302.0331726074219 255 255 255
-7.39367151260376 16.3043212890625 302.46136474609375 255 255 255
-10.862540245056152 22.079998016357422 293.6764831542969 255 255 255
46.45984649658203 23.66048240661621 301.9742431640625 255 255 255
17.24616050720215 20.703493118286133 298.7511901855469 255 255 255
-0.6577776670455933 19.022855758666992 314.00469970703125 255 255 255
10.202127456665039 25.870485305786133 296.0742492675781 255 255 255
116.45622253417969 16.177501678466797 235.28782653808594 255 255 255
-1.3904579877853394 20.233476638793945 304.4114990234375 255 255 255
-8.183600425720215 21.012422561645508 298.2138671875 255 255 255
7.23050594329834 22.49921989440918 294.3096008300781 255 255 255
7.452794075012207 12.694744110107422 290.3387145996094 255 255 255
-0.46442070603370667 15.059924125671387 291.9161071777344 255 255 255
-4.307285785675049 25.644105911254883 299.15716552734375 255 255 255
7.564836025238037 20.0009708404541 236.4304962158203 255 255 255
0.07220487296581268 19.570205688476562 227.7585906982422 255 255 255
-22.82596206665039 6.433318138122559 275.063232421875 255 255 255
-4.660010814666748 20.044029235839844 235.89132690429688 255 255 255
82.86249542236328 2.9168641567230225 112.7922592163086 255 255 255
95.3110122680664 8.801615715026855 121.09600830078125 255 255 255
18.90776252746582 2.7872209548950195 307.7068176269531 255 255 255
-2.176053285598755 18.967784881591797 293.66009521484375 255 255 255
4.80025053024292 24.201276779174805 295.2583312988281 255 255 255
-2.3992700576782227 19.970958709716797 300.4172668457031 255 255 255
6.829874038696289 25.058378219604492 292.1988220214844 255 255 255
-9.548622131347656 21.553621292114258 306.59967041015625 255 255 255
25.567716598510742 23.960023880004883 268.83135986328125 255 255 255
32.76016616821289 24.001750946044922 270.3934326171875 255 255 255
26.765127182006836 21.056766510009766 271.97601318359375 255 255 255
39.68805694580078 18.941871643066406 267.5944519042969 255 255 255
37.32609939575195 22.070270538330078 274.8769836425781 255 255 255
27.11748695373535 20.75248146057129 272.30584716796875 255 255 255
80.8367691040039 18.592878341674805 239.3869171142578 255 255 255
25.770248413085938 24.44172477722168 275.6181945800781 255 255 255
118.1819076538086 -26.978837966918945 268.05828857421875 255 255 255
146.2461395263672 1.810819387435913 237.54238891601562 255 255 255
5.332439422607422 19.08588409423828 289.7280578613281 255 255 255
-4.71485710144043 22.172775268554688 253.5692596435547 255 255 255
-8.628164291381836 24.38922691345215 277.3031921386719 255 255 255
-2.6490061283111572 22.546175003051758 257.08282470703125 255 255 255
13.215341567993164 8.453413009643555 303.8725891113281 255 255 255
-3.924337863922119 23.392578125 298.1199035644531 255 255 255
13.490496635437012 16.457326889038086 290.8420104980469 255 255 255
23.10478401184082 23.324312210083008 266.61285400390625 255 255 255
28.020217895507812 21.056732177734375 277.14239501953125 255 255 255
24.873062133789062 21.608396530151367 277.7200622558594 255 255 255
32.70563507080078 19.838109970092773 277.5516662597656 255 255 255
27.46576690673828 23.128929138183594 281.8486328125 255 255 255
18.571584701538086 23.588851928710938 272.86846923828125 255 255 255
15.849388122558594 24.61659812927246 275.41064453125 255 255 255
15.830065727233887 22.45029067993164 276.2481384277344 255 255 255
30.642053604125977 23.739126205444336 277.0513610839844 255 255 255
24.84117317199707 20.835132598876953 279.7289733886719 255 255 255
17.88477325439453 23.698747634887695 273.5485534667969 255 255 255
5.549569129943848 21.313716888427734 296.2734375 255 255 255
17.686695098876953 24.76978874206543 301.5988464355469 255 255 255
1.5648878812789917 19.347095489501953 297.3770446777344 255 255 255
2.141273260116577 26.149654388427734 294.94598388671875 255 255 255
8.622526168823242 25.557252883911133 285.2042236328125 255 255 255
1.4116772413253784 16.26400375366211 297.27655029296875 255 255 255
1.2958616018295288 19.657997131347656 296.5106506347656 255 255 255
23.101150512695312 23.74786949157715 276.3362731933594 255 255 255
22.67038345336914 20.27490234375 276.05072021484375 255 255 255
25.05826187133789 19.841196060180664 275.5118713378906 255 255 255
25.00408363342285 20.716039657592773 278.4704895019531 255 255 255
33.094383239746094 24.260957717895508 289.220458984375 255 255 255
75.03202819824219 25.762083053588867 314.6337585449219 255 255 255
15.249314308166504 21.988370895385742 286.2401123046875 255 255 255
-2.201183319091797 17.161346435546875 295.91119384765625 255 255 255
7.145801544189453 12.245927810668945 293.5677185058594 255 255 255
-2.71968412399292 20.106220245361328 294.7314453125 255 255 255
-14.218722343444824 15.809961318969727 298.8691101074219 255 255 255
94.90630340576172 -15.60051155090332 34.06781768798828 255 255 255
83.0499496459961 -9.430976867675781 44.054325103759766 255 255 255
67.28047180175781 -1.8643685579299927 -23.53190040588379 255 255 255
77.67552947998047 -12.307610511779785 37.14153289794922 255 255 255
76.9471435546875 5.511910915374756 65.55545043945312 255 255 255
77.64319610595703 -7.3759236335754395 43.213504791259766 255 255 255
23.923690795898438 28.889022827148438 296.66351318359375 255 255 255
2.9778783321380615 21.723615646362305 251.04159545898438 255 255 255
15.06584644317627 19.029653549194336 295.0279235839844 255 255 255
-11.888416290283203 19.59734344482422 305.177001953125 255 255 255
0.943252444267273 20.784982681274414 299.3611755371094 255 255 255
32.385528564453125 21.321922302246094 266.6256103515625 255 255 255
19.12418556213379 21.899188995361328 279.6440124511719 255 255 255
30.1016845703125 21.491910934448242 268.6541442871094 255 255 255
-8.505322456359863 16.564611434936523 279.3868103027344 255 255 255
14.816489219665527 16.019132614135742 289.6085205078125 255 255 255
-7.565128326416016 15.881654739379883 299.29010009765625 255 255 255
27.61972999572754 24.221111297607422 278.2126770019531 255 255 255
20.165170669555664 19.616195678710938 275.8791809082031 255 255 255
24.31929588317871 21.650522232055664 278.6977844238281 255 255 255
89.20765686035156 8.238738059997559 107.62657928466797 255 255 255
89.97445678710938 7.915639877319336 100.91849517822266 255 255 255
-11.956084251403809 17.036684036254883 301.1199035644531 255 255 255
-3.9943292140960693 19.56987953186035 294.22576904296875 255 255 255
-5.135458946228027 22.809415817260742 296.5764465332031 255 255 255
-9.503229141235352 21.584218978881836 304.7117004394531 255 255 255
-4.11347770690918 24.73006820678711 310.328857421875 255 255 255
-11.380572319030762 25.88068389892578 290.2193298339844 255 255 255
29.785303115844727 13.19359016418457 310.6475830078125 255 255 255
-8.679993629455566 22.094348907470703 294.3780212402344 255 255 255
26.86246109008789 20.88003921508789 271.91412353515625 255 255 255
80.33578491210938 18.428466796875 252.54522705078125 255 255 255
29.75580596923828 23.34347915649414 264.08612060546875 255 255 255
27.597644805908203 24.23048210144043 272.8343811035156 255 255 255
66.27948760986328 20.360790252685547 265.9372863769531 255 255 255
88.9918441772461 -0.06672805547714233 94.08802795410156 255 255 255
83.97403717041016 8.634099006652832 108.74656677246094 255 255 255
88.73966979980469 3.5153446197509766 103.2170639038086 255 255 255
-0.2240440994501114 21.533266067504883 301.37286376953125 255 255 255
-6.5867133140563965 16.610815048217773 295.9234924316406 255 255 255
15.233325004577637 11.267462730407715 289.96197509765625 255 255 255
14.030098915100098 9.881033897399902 290.4214782714844 255 255 255
5.845118045806885 13.001997947692871 294.3943176269531 255 255 255
-0.4793083965778351 15.096473693847656 295.19842529296875 255 255 255
22.98855209350586 22.986099243164062 283.36187744140625 255 255 255
46.53938293457031 23.989376068115234 300.2727355957031 255 255 255
19.217504501342773 25.67569923400879 289.4407653808594 255 255 255
15.917678833007812 22.954492568969727 282.8539733886719 255 255 255
5.203915596008301 22.938642501831055 297.3532409667969 255 255 255
10.781087875366211 25.739608764648438 291.6878967285156 255 255 255
7.0000319480896 25.186016082763672 291.9461975097656 255 255 255
10.8975191116333 26.297155380249023 289.3885192871094 255 255 255
13.109476089477539 19.821683883666992 296.3277282714844 255 255 255
9.209991455078125 25.539531707763672 290.7735900878906 255 255 255
8.680619239807129 25.50571632385254 292.545166015625 255 255 255
14.38216781616211 16.046987533569336 287.6147155761719 255 255 255
-3.8959884643554688 17.39922523498535 295.45697021484375 255 255 255
-4.503482818603516 13.45122241973877 297.3665466308594 255 255 255
-14.987968444824219 25.774322509765625 313.8511962890625 255 255 255
-6.53109884262085 14.489733695983887 294.2356262207031 255 255 255
94.43684387207031 8.109004974365234 112.98217010498047 255 255 255
84.0879135131836 8.261645317077637 108.24435424804688 255 255 255
88.74459075927734 10.571885108947754 147.9266357421875 255 255 255
93.28907012939453 2.344874620437622 141.9556884765625 255 255 255
97.00707244873047 11.419797897338867 164.97027587890625 255 255 255
2.910245418548584 25.06513786315918 279.3427734375 255 255 255
-4.655219554901123 24.524171829223633 303.21051025390625 255 255 255
4.504517078399658 24.638484954833984 274.8551940917969 255 255 255
4.266556262969971 24.42613983154297 273.9312744140625 255 255 255
1.9450147151947021 13.8265962600708 298.8158264160156 255 255 255
-15.783981323242188 27.352693557739258 310.5528564453125 255 255 255
12.887762069702148 17.256328582763672 288.6831359863281 255 255 255
11.648904800415039 13.02769660949707 291.788330078125 255 255 255
28.697959899902344 20.156116485595703 279.0855407714844 255 255 255
19.90873146057129 24.481990814208984 273.3852844238281 255 255 255
16.342456817626953 24.562196731567383 275.5965270996094 255 255 255
24.366201400756836 25.0251407623291 278.54986572265625 255 255 255
23.726057052612305 18.863452911376953 274.7797546386719 255 255 255
21.408470153808594 25.008560180664062 280.1168212890625 255 255 255
-2.8360378742218018 24.907936096191406 295.1197814941406 255 255 255
113.56373596191406 60.599708557128906 469.92572021484375 255 255 255
-6.746411323547363 13.531281471252441 300.0710754394531 255 255 255
52.67312240600586 10.472342491149902 317.4886779785156 255 255 255
6.778611183166504 20.515968322753906 242.68943786621094 255 255 255
25.94662094116211 10.311502456665039 303.3973083496094 255 255 255
12.308855056762695 25.665647506713867 289.0204162597656 255 255 255
79.43437957763672 -5.148435592651367 109.65374755859375 255 255 255
81.27245330810547 7.4312591552734375 107.64985656738281 255 255 255
91.28133392333984 9.390311241149902 123.26136779785156 255 255 255
-4.993312835693359 11.448184967041016 269.32666015625 255 255 255
-2.964583158493042 24.934728622436523 340.374267578125 255 255 255
-26.693143844604492 26.405803680419922 311.1075134277344 255 255 255
94.42282104492188 19.234773635864258 246.05233764648438 255 255 255
123.58051300048828 7.131762981414795 235.8685302734375 255 255 255
99.25477600097656 5.952560901641846 227.73329162597656 255 255 255
9.30207347869873 21.234209060668945 294.8244323730469 255 255 255
-2.533602714538574 16.669160842895508 296.0347900390625 255 255 255
-0.37026694416999817 16.590879440307617 302.1109313964844 255 255 255
13.271800994873047 16.325851440429688 297.061279296875 255 255 255
14.879010200500488 21.67637825012207 286.1053161621094 255 255 255
83.88557434082031 0.8328893184661865 57.867618560791016 255 255 255
88.80128479003906 -17.145517349243164 35.301780700683594 255 255 255
-5.5029473304748535 20.138893127441406 238.7421417236328 255 255 255
-24.297218322753906 5.137035369873047 287.0147399902344 255 255 255
76.82589721679688 -4.600484848022461 41.253440856933594 255 255 255
75.81241607666016 -5.938520908355713 36.12249755859375 255 255 255
71.32763671875 3.407838821411133 48.736026763916016 255 255 255
82.47889709472656 -2.2813329696655273 40.148197174072266 255 255 255
72.56159973144531 4.005033016204834 49.057682037353516 255 255 255
72.89326477050781 -14.246064186096191 19.48847007751465 255 255 255
86.42156219482422 1.368157982826233 29.632097244262695 255 255 255
-6.917584419250488 17.285181045532227 252.3138427734375 255 255 255
-47.86402893066406 7.809874534606934 353.80133056640625 255 255 255
-1.9143991470336914 20.03090476989746 232.44703674316406 255 255 255
28.769067764282227 16.084226608276367 274.65203857421875 255 255 255
32.61771774291992 20.370391845703125 267.23486328125 255 255 255
12.90812873840332 17.73102378845215 254.194580078125 255 255 255
24.732318878173828 26.56287384033203 275.8010559082031 255 255 255
-10.983962059020996 28.26495933532715 319.438232421875 255 255 255
-0.4384002089500427 16.574100494384766 302.2943115234375 255 255 255
-9.145173072814941 21.634767532348633 303.7345886230469 255 255 255
-7.178454875946045 10.980788230895996 258.1109619140625 255 255 255
101.4281997680664 6.238646984100342 116.85565185546875 255 255 255
103.63304138183594 2.451352119445801 160.17645263671875 255 255 255
82.80233001708984 4.010242462158203 128.78334045410156 255 255 255
1.6544047594070435 20.657733917236328 297.0133972167969 255 255 255
1.6799242496490479 20.547306060791016 297.8053894042969 255 255 255
10.256804466247559 25.701642990112305 291.6041564941406 255 255 255
-4.3440842628479 20.54916000366211 237.93421936035156 255 255 255
-9.422408103942871 22.62738609313965 294.2483825683594 255 255 255
-0.14042437076568604 18.812734603881836 234.67576599121094 255 255 255
-10.902457237243652 21.68210792541504 257.1949768066406 255 255 255
14.138721466064453 20.132150650024414 296.2973327636719 255 255 255
31.087955474853516 14.323479652404785 261.8393249511719 255 255 255
14.368745803833008 12.477010726928711 287.4049987792969 255 255 255
53.70197296142578 28.610666275024414 337.9560852050781 255 255 255
-2.6356844902038574 12.414140701293945 196.8914337158203 255 255 255
-1.080181360244751 17.605863571166992 209.0470733642578 255 255 255
-1.9429285526275635 9.251532554626465 209.9334259033203 255 255 255
-4.865942478179932 16.692968368530273 215.4054718017578 255 255 255
3.287961721420288 16.52742576599121 198.25733947753906 255 255 255
13.703971862792969 19.759082794189453 295.4977722167969 255 255 255
74.95921325683594 -5.457966327667236 48.617347717285156 255 255 255
78.76237487792969 5.26060152053833 64.37156677246094 255 255 255
-5.585448265075684 13.47487735748291 207.53042602539062 255 255 255
9.716713905334473 17.568220138549805 208.45199584960938 255 255 255
3.239004611968994 16.484603881835938 198.12606811523438 255 255 255
-5.217395782470703 13.373047828674316 206.714599609375 255 255 255
90.72063446044922 7.3009233474731445 146.78958129882812 255 255 255
87.92595672607422 7.567086696624756 145.9984130859375 255 255 255
8.137253761291504 25.460988998413086 283.6522216796875 255 255 255
12.846904754638672 21.075986862182617 298.8508605957031 255 255 255
-12.590031623840332 23.149433135986328 304.3351135253906 255 255 255
14.755210876464844 18.285337448120117 286.9118347167969 255 255 255
25.474519729614258 11.546472549438477 302.192626953125 255 255 255
-1.6854870319366455 12.32780933380127 203.5452880859375 255 255 255
6.757668972015381 16.442787170410156 201.72352600097656 255 255 255
-0.5730185508728027 17.456937789916992 205.9341278076172 255 255 255
32.70935821533203 24.346616744995117 274.96649169921875 255 255 255
20.07291030883789 23.202648162841797 276.2427062988281 255 255 255
21.22534942626953 19.61922264099121 276.54473876953125 255 255 255
-16.191144943237305 27.037181854248047 315.7569580078125 255 255 255
-3.007641553878784 17.2435359954834 296.5845947265625 255 255 255
-1.8466709852218628 12.38490104675293 220.90838623046875 255 255 255
28.74509048461914 17.971282958984375 305.0604248046875 255 255 255
116.83309173583984 6.352563858032227 214.55447387695312 255 255 255
-4.075126647949219 16.475507736206055 207.2049102783203 255 255 255
-4.583087921142578 17.797182083129883 216.3994903564453 255 255 255
-5.592975616455078 11.369257926940918 247.8983154296875 255 255 255
-1.6972856521606445 17.48250961303711 207.42477416992188 255 255 255
-24.816802978515625 28.21503257751465 317.3202819824219 255 255 255
-1.2331403493881226 20.160991668701172 303.38238525390625 255 255 255
-10.41230297088623 15.24505615234375 294.1011657714844 255 255 255
13.136102676391602 15.294340133666992 294.6000061035156 255 255 255
28.037412643432617 10.940834045410156 305.4367370605469 255 255 255
23.757261276245117 20.9805850982666 278.775146484375 255 255 255
93.655517578125 23.189619064331055 279.9963073730469 255 255 255
66.06649780273438 20.3472900390625 280.26275634765625 255 255 255
56.46568298339844 23.45189666748047 298.0113220214844 255 255 255
-14.108019828796387 20.94148063659668 253.12261962890625 255 255 255
-4.806474685668945 17.609695434570312 233.33843994140625 255 255 255
-7.236098289489746 11.328407287597656 258.46051025390625 255 255 255
3.1774649620056152 16.719715118408203 200.6047821044922 255 255 255
30.136211395263672 17.86654281616211 254.20989990234375 255 255 255
-2.967723846435547 15.898258209228516 201.92446899414062 255 255 255
14.43453311920166 7.502627849578857 313.4256591796875 255 255 255
-4.686256408691406 17.70714569091797 232.3551788330078 255 255 255
105.8356704711914 7.404874801635742 168.97914123535156 255 255 255
109.7680892944336 5.759286880493164 156.72787475585938 255 255 255
-1.1082795858383179 10.330989837646484 213.05821228027344 255 255 255
-0.8693870902061462 16.6624698638916 199.07701110839844 255 255 255
15.429716110229492 24.279193878173828 266.8004150390625 255 255 255
7.711260795593262 11.180142402648926 292.8114318847656 255 255 255
74.53231048583984 23.449119567871094 280.2918701171875 255 255 255
19.93000602722168 21.28020477294922 281.81573486328125 255 255 255
19.706588745117188 21.308094024658203 281.85028076171875 255 255 255
32.619693756103516 22.578807830810547 278.9119873046875 255 255 255
-4.306103706359863 16.429628372192383 213.56350708007812 255 255 255
-6.307734489440918 20.806419372558594 246.0547637939453 255 255 255
0.8614760041236877 25.18098258972168 280.2379455566406 255 255 255
10.793997764587402 22.198673248291016 295.3720397949219 255 255 255
-4.043286323547363 26.44119644165039 309.60833740234375 255 255 255
-1.566799521446228 24.178733825683594 303.363525390625 255 255 255
-6.348232269287109 17.11237907409668 295.13336181640625 255 255 255
-2.30722975730896 17.299358367919922 295.48944091796875 255 255 255
24.406606674194336 20.86444854736328 278.63818359375 255 255 255
-0.940553605556488 18.040998458862305 304.4296875 255 255 255
8.540568351745605 20.181447982788086 236.69110107421875 255 255 255
-0.062088463455438614 20.414512634277344 237.21983337402344 255 255 255
-2.197664499282837 16.261499404907227 258.684814453125 255 255 255
-6.486136436462402 18.572542190551758 215.1153106689453 255 255 255
17.519662857055664 18.71922492980957 272.6337890625 255 255 255
20.568262100219727 16.680116653442383 273.3625793457031 255 255 255
12.12082290649414 25.679304122924805 291.6219482421875 255 255 255
15.856437683105469 25.322908401489258 287.68408203125 255 255 255
13.106766700744629 22.296566009521484 283.4658508300781 255 255 255
14.712020874023438 24.349565505981445 285.2344970703125 255 255 255
10.253878593444824 22.4766788482666 274.1023254394531 255 255 255
-4.016303539276123 15.872066497802734 251.2140655517578 255 255 255
-6.4991374015808105 9.556244850158691 294.0361633300781 255 255 255
29.946325302124023 20.046751022338867 262.03082275390625 255 255 255
54.60530090332031 27.483491897583008 318.7146911621094 255 255 255
52.82749938964844 11.975123405456543 323.0751953125 255 255 255
60.412261962890625 20.564889907836914 291.71392822265625 255 255 255
39.145477294921875 24.753658294677734 286.5435791015625 255 255 255
13.715327262878418 21.592514038085938 282.09210205078125 255 255 255
55.58672332763672 19.08574676513672 324.44488525390625 255 255 255
37.269168853759766 27.07835578918457 311.87628173828125 255 255 255
15.617566108703613 23.765602111816406 285.09716796875 255 255 255
36.304622650146484 24.706512451171875 286.07586669921875 255 255 255
-12.355185508728027 19.49981689453125 306.4436950683594 255 255 255
12.377007484436035 24.541248321533203 276.9528503417969 255 255 255
28.462255477905273 12.95634651184082 305.8431396484375 255 255 255
44.81562423706055 27.940155029296875 319.0711975097656 255 255 255
37.00965118408203 25.043119430541992 311.005126953125 255 255 255
16.32923698425293 21.500667572021484 286.0508117675781 255 255 255
15.027624130249023 25.100643157958984 283.72479248046875 255 255 255
15.271262168884277 23.246456146240234 285.6351623535156 255 255 255
-8.40270709991455 15.18106746673584 278.7202453613281 255 255 255
15.843923568725586 2.8527631759643555 310.5285339355469 255 255 255
94.22205352783203 3.3756370544433594 117.60858917236328 255 255 255
96.15030670166016 5.877915859222412 125.72183227539062 255 255 255
86.78890228271484 9.483231544494629 128.19244384765625 255 255 255
19.920591354370117 -9.46341323852539 -85.05062866210938 255 255 255
52.86433792114258 -3.775127649307251 -33.056182861328125 255 255 255
13.371963500976562 20.64277458190918 255.57994079589844 255 255 255
-3.054535150527954 19.761932373046875 229.18800354003906 255 255 255
-6.141683101654053 12.738452911376953 256.6542663574219 255 255 255
0.3064676821231842 19.252464294433594 228.79818725585938 255 255 255
15.127137184143066 42.296363830566406 380.44110107421875 255 255 255
-3.427295207977295 11.029621124267578 197.54171752929688 255 255 255
-3.5990114212036133 11.571574211120605 198.97457885742188 255 255 255
-2.0972883701324463 11.045924186706543 207.30223083496094 255 255 255
6.531869888305664 15.712029457092285 194.6045684814453 255 255 255
-3.8509833812713623 4.002810955047607 215.26316833496094 255 255 255
-4.108356475830078 12.932785034179688 197.10618591308594 255 255 255
5.840418338775635 15.929377555847168 194.52627563476562 255 255 255
34.022830963134766 14.099688529968262 253.69625854492188 255 255 255
-2.040719747543335 12.186464309692383 204.44741821289062 255 255 255
5.241062164306641 15.815387725830078 197.28187561035156 255 255 255
-13.679720878601074 17.578792572021484 265.04388427734375 255 255 255
-6.698351860046387 18.676860809326172 250.35108947753906 255 255 255
1.0557650327682495 19.465309143066406 298.130615234375 255 255 255
-10.757772445678711 25.673912048339844 309.9170837402344 255 255 255
87.5476303100586 6.382420539855957 127.90338897705078 255 255 255
87.20361328125 2.346328020095825 124.17730712890625 255 255 255
85.7664794921875 8.91844367980957 129.3797607421875 255 255 255
-33.624088287353516 29.28734588623047 334.7676086425781 255 255 255
-6.75349760055542 16.010337829589844 296.34698486328125 255 255 255
-5.164346218109131 15.10986042022705 252.890869140625 255 255 255
106.43980407714844 -20.723323822021484 22.52231788635254 255 255 255
99.02576446533203 11.816854476928711 172.0255889892578 255 255 255
97.13959503173828 11.679600715637207 166.79779052734375 255 255 255
-3.0680325031280518 12.370030403137207 196.93067932128906 255 255 255
5.551418781280518 15.250511169433594 188.90113830566406 255 255 255
-3.5810678005218506 15.994816780090332 208.56072998046875 255 255 255
-4.74923038482666 16.71776008605957 209.69810485839844 255 255 255
30.060670852661133 24.45078468322754 278.2449645996094 255 255 255
14.118584632873535 21.82691192626953 282.76055908203125 255 255 255
-5.335190773010254 22.034099578857422 293.3045349121094 255 255 255
-9.783672332763672 12.692667961120605 254.64559936523438 255 255 255
20.3527774810791 15.525654792785645 269.02545166015625 255 255 255
23.19603157043457 3.8377525806427 309.5240783691406 255 255 255
15.391119956970215 17.98738670349121 264.0337829589844 255 255 255
-1.691846489906311 11.400674819946289 208.81622314453125 255 255 255
-11.022363662719727 20.021289825439453 257.72637939453125 255 255 255
-15.315202713012695 26.36700439453125 313.43438720703125 255 255 255
-22.11655044555664 6.764854907989502 273.62567138671875 255 255 255
14.53482723236084 16.468759536743164 296.88421630859375 255 255 255
19.90898323059082 15.704513549804688 264.05712890625 255 255 255
