-138.3892822265625 -19.880369186401367 -27.002870559692383 255 255 255
-140.4700164794922 -21.4068546295166 -31.962535858154297 255 255 255
-131.2338104248047 -16.136930465698242 -30.27596092224121 255 255 255
-136.13743591308594 -16.41993522644043 -28.117067337036133 255 255 255
-142.1743927001953 -23.76480484008789 -31.275728225708008 255 255 255
-141.13616943359375 -17.32693099975586 -29.596221923828125 255 255 255
-135.13768005371094 -16.3562068939209 -28.645235061645508 255 255 255
-131.33294677734375 -16.172697067260742 -29.941246032714844 255 255 255
-131.66453552246094 -16.187528610229492 -30.35141372680664 255 255 255
-129.37835693359375 -16.17414665222168 -30.26590919494629 255 255 255
-130.0213623046875 -15.931757926940918 -32.50046157836914 255 255 255
-128.9503936767578 -15.768200874328613 -30.03264045715332 255 255 255
-129.43746948242188 -15.914170265197754 -27.771772384643555 255 255 255
-128.8963623046875 -16.107351303100586 -29.307289123535156 255 255 255
-130.01144409179688 -16.02579689025879 -28.951061248779297 255 255 255
-134.1392059326172 -16.33974266052246 -28.812177658081055 255 255 255
-134.17063903808594 -16.249826431274414 -29.788082122802734 255 255 255
-132.18499755859375 -16.22111701965332 -30.358562469482422 255 255 255
-132.18942260742188 -16.234405517578125 -30.065189361572266 255 255 255
-136.134033203125 -16.41773796081543 -28.1324520111084 255 255 255
-129.31497192382812 -15.898127555847168 -27.970918655395508 255 255 255
-132.0529327392578 -16.175155639648438 -31.115528106689453 255 255 255
-137.412841796875 -16.61066436767578 -29.95566177368164 255 255 255
-133.1555938720703 -16.28247833251953 -29.554086685180664 255 255 255
-130.66603088378906 -16.161924362182617 -29.2048397064209 255 255 255
-127.8051528930664 -15.877656936645508 -27.25613021850586 255 255 255
-128.02516174316406 -15.95259952545166 -27.472623825073242 255 255 255
-132.23023986816406 -16.235782623291016 -30.16680335998535 255 255 255
-137.77735900878906 -17.489805221557617 -31.82793426513672 255 255 255
-137.08399963378906 -16.75048828125 -32.26436996459961 255 255 255
-129.78369140625 -15.982982635498047 -28.536758422851562 255 255 255
-128.85604858398438 -16.09645652770996 -29.447872161865234 255 255 255
-129.10902404785156 -15.876413345336914 -28.32850456237793 255 255 255
-126.01419830322266 -16.03601837158203 -30.728796005249023 255 255 255
-131.61737060546875 -17.29099464416504 -35.11343765258789 255 255 255
-124.49470520019531 -15.786441802978516 -31.569120407104492 255 255 255
-131.59829711914062 -17.2902889251709 -35.19454574584961 255 255 255
-130.8431854248047 -16.466461181640625 -33.935890197753906 255 255 255
-130.390625 -16.430622100830078 -34.33918762207031 255 255 255
-127.09994506835938 -16.097057342529297 -31.675256729125977 255 255 255
-126.2657241821289 -15.920550346374512 -32.863643646240234 255 255 255
-126.82109069824219 -16.002389907836914 -32.34349060058594 255 255 255
-130.0196990966797 -16.01263999938965 -28.964134216308594 255 255 255
-129.248779296875 -16.090267181396484 -29.717208862304688 255 255 255
-127.79623413085938 -15.87817096710205 -27.2600154876709 255 255 255
-127.85094451904297 -15.906004905700684 -27.67749786376953 255 255 255
-128.4361114501953 -16.019289016723633 -28.509305953979492 255 255 255
-124.86536407470703 -15.823384284973145 -29.80360221862793 255 255 255
-135.55755615234375 -16.112850189208984 -32.60514450073242 255 255 255
-134.1527099609375 -16.268434524536133 -29.49995231628418 255 255 255
-129.75350952148438 -16.375661849975586 -35.57761001586914 255 255 255
-125.46864318847656 -15.972990989685059 -29.843265533447266 255 255 255
-124.76280212402344 -15.813364028930664 -29.210968017578125 255 255 255
-122.08841705322266 -15.318979263305664 -28.34428596496582 255 255 255
-127.57231140136719 -15.837872505187988 -27.91978645324707 255 255 255
-129.9218292236328 -16.00628662109375 -28.500322341918945 255 255 255
-130.00845336914062 -16.03126335144043 -28.949554443359375 255 255 255
-129.79269409179688 -15.985489845275879 -29.387222290039062 255 255 255
-129.96388244628906 -15.9961519241333 -29.06873893737793 255 255 255
-137.30868530273438 -16.416913986206055 -28.169300079345703 255 255 255
-129.4714813232422 -15.917980194091797 -27.745758056640625 255 255 255
-133.13755798339844 -16.247690200805664 -29.674274444580078 255 255 255
-123.19168090820312 -15.62285327911377 -31.200002670288086 255 255 255
-130.5315399169922 -16.109458923339844 -29.602571487426758 255 255 255
-128.90159606933594 -16.095701217651367 -29.44603729248047 255 255 255
-129.3062744140625 -16.139440536499023 -30.483848571777344 255 255 255
-125.3810806274414 -15.932231903076172 -29.571836471557617 255 255 255
-128.2105712890625 -15.978808403015137 -28.684337615966797 255 255 255
-136.1864471435547 -17.992849349975586 -33.462528228759766 255 255 255
-129.18942260742188 -15.79141902923584 -29.509260177612305 255 255 255
-128.4248046875 -15.953866958618164 -28.83370590209961 255 255 255
-137.22137451171875 -16.405715942382812 -27.96999168395996 255 255 255
-131.7984161376953 -16.27093505859375 -29.674848556518555 255 255 255
-134.74398803710938 -16.5235538482666 -32.499183654785156 255 255 255
-134.7129669189453 -16.557350158691406 -32.14653778076172 255 255 255
-136.5188751220703 -16.763490676879883 -33.23111343383789 255 255 255
-135.77093505859375 -16.724111557006836 -33.11447525024414 255 255 255
-135.57965087890625 -16.72745704650879 -31.955352783203125 255 255 255
-136.40325927734375 -16.784475326538086 -32.85477066040039 255 255 255
-134.66555786132812 -16.558055877685547 -31.991849899291992 255 255 255
-128.32467651367188 -15.893959045410156 -30.257240295410156 255 255 255
-128.61386108398438 -16.008947372436523 -28.587482452392578 255 255 255
-129.10333251953125 -16.15468406677246 -28.93657112121582 255 255 255
-128.36634826660156 -16.023597717285156 -28.38982582092285 255 255 255
-133.5216827392578 -16.427595138549805 -28.39521026611328 255 255 255
-128.668701171875 -16.061424255371094 -29.561283111572266 255 255 255
-121.57091522216797 -15.522236824035645 -34.724578857421875 255 255 255
-119.0641098022461 -15.291104316711426 -31.118406295776367 255 255 255
-121.0887680053711 -18.42034339904785 -40.857364654541016 255 255 255
-121.03370666503906 -20.487253189086914 -38.4315185546875 255 255 255
-125.04795837402344 -15.833292007446289 -30.910945892333984 255 255 255
-122.93233489990234 -15.790450096130371 -33.486698150634766 255 255 255
-119.68900299072266 -18.86940574645996 -27.180086135864258 255 255 255
-119.59486389160156 -18.851856231689453 -27.2563419342041 255 255 255
-126.16975402832031 -15.906760215759277 -29.15984535217285 255 255 255
-128.06996154785156 -15.921914100646973 -28.341915130615234 255 255 255
-126.11881256103516 -16.093618392944336 -30.118398666381836 255 255 255
-125.24140167236328 -15.911075592041016 -30.894634246826172 255 255 255
-125.18268585205078 -15.89081859588623 -28.90538787841797 255 255 255
-130.17283630371094 -16.327960968017578 -35.47352981567383 255 255 255
-127.2262954711914 -16.128341674804688 -32.040550231933594 255 255 255
-125.01272583007812 -15.848760604858398 -32.589969635009766 255 255 255
-125.75267028808594 -15.98165225982666 -31.810779571533203 255 255 255
-129.92501831054688 -16.445438385009766 -34.7430419921875 255 255 255
-125.70624542236328 -15.914109230041504 -32.54179000854492 255 255 255
-128.37185668945312 -15.991414070129395 -28.59134864807129 255 255 255
-129.626708984375 -16.241107940673828 -29.91848373413086 255 255 255
-131.98963928222656 -16.461511611938477 -31.532752990722656 255 255 255
-132.02793884277344 -16.442270278930664 -32.493263244628906 255 255 255
-124.5755844116211 -15.818026542663574 -30.12877082824707 255 255 255
-129.14784240722656 -16.102031707763672 -30.721866607666016 255 255 255
-122.755126953125 -15.524967193603516 -31.7220458984375 255 255 255
-133.65966796875 -16.555185317993164 -31.721698760986328 255 255 255
-134.21615600585938 -17.806241989135742 -32.86361312866211 255 255 255
-134.01409912109375 -16.63077163696289 -33.39543533325195 255 255 255
-134.00271606445312 -16.6311092376709 -33.43867874145508 255 255 255
-131.95672607421875 -16.367874145507812 -33.44978332519531 255 255 255
-124.83724212646484 -15.837373733520508 -28.6860294342041 255 255 255
-126.27992248535156 -16.079185485839844 -31.320587158203125 255 255 255
-130.01206970214844 -15.991790771484375 -29.00648307800293 255 255 255
-127.17200469970703 -15.987555503845215 -28.62794303894043 255 255 255
-125.51995086669922 -15.951491355895996 -29.9152774810791 255 255 255
-124.96051788330078 -15.85802936553955 -28.65960693359375 255 255 255
-131.87278747558594 -17.287673950195312 -34.18336486816406 255 255 255
-129.18263244628906 -16.353635787963867 -37.24105453491211 255 255 255
-128.91783142089844 -20.09160804748535 -33.67760467529297 255 255 255
-125.76930236816406 -15.816167831420898 -35.76353454589844 255 255 255
-123.95057678222656 -15.403806686401367 -39.136566162109375 255 255 255
-127.12075805664062 -16.146560668945312 -33.40714645385742 255 255 255
-128.08615112304688 -16.3148136138916 -33.89849853515625 255 255 255
-127.60486602783203 -16.259326934814453 -32.75090408325195 255 255 255
-128.93356323242188 -20.525480270385742 -34.229488372802734 255 255 255
-118.29769134521484 -15.62576675415039 -36.99814224243164 255 255 255
-128.01461791992188 -15.942798614501953 -27.589031219482422 255 255 255
-128.99169921875 -15.99681282043457 -31.16448974609375 255 255 255
-128.08871459960938 -15.945788383483887 -28.317790985107422 255 255 255
-127.95915222167969 -15.919991493225098 -28.445844650268555 255 255 255
-129.00640869140625 -16.127626419067383 -29.227399826049805 255 255 255
-130.51580810546875 -16.13797378540039 -29.406036376953125 255 255 255
-129.21066284179688 -16.103654861450195 -29.711484909057617 255 255 255
-129.1478729248047 -16.087331771850586 -29.80837631225586 255 255 255
-130.54701232910156 -16.119688034057617 -29.52143096923828 255 255 255
-131.1393585205078 -16.1572208404541 -30.14430809020996 255 255 255
-127.41030883789062 -16.079771041870117 -28.88260841369629 255 255 255
-128.9485321044922 -16.029436111450195 -30.102846145629883 255 255 255
-125.30615234375 -15.8703031539917 -31.319828033447266 255 255 255
-121.9930648803711 -15.618156433105469 -35.67920684814453 255 255 255
-124.93763732910156 -15.658625602722168 -27.714025497436523 255 255 255
-126.54175567626953 -15.973428726196289 -32.17579650878906 255 255 255
-126.84494018554688 -15.98845386505127 -32.32347869873047 255 255 255
-124.03374481201172 -15.612677574157715 -28.298742294311523 255 255 255
-128.1501922607422 -15.952101707458496 -28.272396087646484 255 255 255
-125.99537658691406 -21.503095626831055 -39.260948181152344 255 255 255
-128.2714080810547 -16.246994018554688 -35.274906158447266 255 255 255
-128.3882598876953 -20.57668113708496 -33.81186294555664 255 255 255
-123.90509796142578 -15.613070487976074 -29.100343704223633 255 255 255
-122.60843658447266 -15.452296257019043 -27.8051700592041 255 255 255
-122.54945373535156 -15.440646171569824 -27.81433868408203 255 255 255
-125.0091323852539 -15.675348281860352 -27.693899154663086 255 255 255
-121.84649658203125 -15.545854568481445 -30.028175354003906 255 255 255
-121.17195892333984 -16.03254508972168 -39.71332931518555 255 255 255
-121.34700775146484 -22.10576057434082 -36.12497329711914 255 255 255
-121.3293228149414 -22.765594482421875 -38.043556213378906 255 255 255
-119.64543914794922 -23.99584197998047 -40.2847900390625 255 255 255
-122.76954650878906 -20.967899322509766 -34.50698471069336 255 255 255
-122.35118103027344 -15.60102367401123 -34.075401306152344 255 255 255
-125.51363372802734 -15.941329002380371 -30.660497665405273 255 255 255
-126.3021011352539 -16.05307388305664 -32.533660888671875 255 255 255
-127.05644989013672 -16.121850967407227 -33.55078125 255 255 255
-125.21540069580078 -15.640363693237305 -37.01393508911133 255 255 255
-127.13719177246094 -16.1269474029541 -33.62448501586914 255 255 255
-127.68635559082031 -20.995723724365234 -34.117801666259766 255 255 255
-128.76107788085938 -16.049787521362305 -29.657424926757812 255 255 255
-128.93600463867188 -16.027088165283203 -30.121456146240234 255 255 255
-127.94979858398438 -15.920516967773438 -27.62601089477539 255 255 255
-125.25343322753906 -15.892919540405273 -30.08835792541504 255 255 255
-125.61211395263672 -15.62723445892334 -34.15176773071289 255 255 255
-126.43258666992188 -15.77267837524414 -31.12678337097168 255 255 255
-122.68182373046875 -15.686604499816895 -28.678157806396484 255 255 255
-119.61219024658203 -18.879789352416992 -27.172672271728516 255 255 255
-121.09246826171875 -15.343500137329102 -28.976863861083984 255 255 255
-119.94612884521484 -15.234067916870117 -28.360448837280273 255 255 255
-125.85639190673828 -15.71574592590332 -28.164487838745117 255 255 255
-124.42704010009766 -15.73636531829834 -28.92217254638672 255 255 255
-122.88728332519531 -15.522900581359863 -28.227237701416016 255 255 255
-126.96663665771484 -21.652822494506836 -36.84457015991211 255 255 255
-128.38973999023438 -16.348949432373047 -33.46689224243164 255 255 255
-123.1598129272461 -14.986424446105957 -41.435462951660156 255 255 255
-128.2021484375 -16.48581886291504 -33.716651916503906 255 255 255
-128.51296997070312 -20.39479637145996 -33.509639739990234 255 255 255
-127.78072357177734 -21.01129913330078 -35.130760192871094 255 255 255
-127.54608917236328 -18.98520851135254 -34.9471435546875 255 255 255
-126.03988647460938 -15.834644317626953 -27.460853576660156 255 255 255
-125.38578033447266 -15.948328018188477 -29.516098022460938 255 255 255
-125.42391204833984 -15.923484802246094 -30.631959915161133 255 255 255
-126.21186065673828 -16.045806884765625 -31.83584213256836 255 255 255
-126.93879699707031 -16.092857360839844 -33.577796936035156 255 255 255
-126.87081909179688 -16.03619956970215 -34.19748306274414 255 255 255
-118.1974105834961 -14.427064895629883 -28.90586280822754 255 255 255
-124.93064880371094 -15.838200569152832 -32.766170501708984 255 255 255
-124.16410064697266 -15.643847465515137 -28.96533203125 255 255 255
-124.39776611328125 -15.71647834777832 -28.89040756225586 255 255 255
-126.89960479736328 -16.02670669555664 -34.34379196166992 255 255 255
-125.92955017089844 -15.97163200378418 -32.185794830322266 255 255 255
-128.18467712402344 -21.00520896911621 -34.71259307861328 255 255 255
-123.19328308105469 -17.611682891845703 -38.69929885864258 255 255 255
-122.61670684814453 -21.82611083984375 -37.41435241699219 255 255 255
-120.60921478271484 -22.625789642333984 -36.56309127807617 255 255 255
-117.01824188232422 -14.596541404724121 -29.731508255004883 255 255 255
-122.76495361328125 -21.014570236206055 -35.404937744140625 255 255 255
-118.35923767089844 -23.155166625976562 -38.806190490722656 255 255 255
-115.1731948852539 -14.5173921585083 -33.12879943847656 255 255 255
-121.43606567382812 -22.402297973632812 -38.34777069091797 255 255 255
-121.91104888916016 -18.11675262451172 -39.74094009399414 255 255 255
-121.62142944335938 -22.104400634765625 -38.351104736328125 255 255 255
-121.64894104003906 -22.616384506225586 -38.15739440917969 255 255 255
-122.93766021728516 -15.731804847717285 -34.956275939941406 255 255 255
-124.47582244873047 -21.938688278198242 -37.4529914855957 255 255 255
-121.37873840332031 -15.37437629699707 -29.00322723388672 255 255 255
-120.79558563232422 -15.314536094665527 -27.803796768188477 255 255 255
-120.7798843383789 -15.318807601928711 -27.81119728088379 255 255 255
-112.88678741455078 -22.805265426635742 -42.64421463012695 255 255 255
-111.02250671386719 -23.526308059692383 -44.409461975097656 255 255 255
-117.23771667480469 -15.499650955200195 -36.49993896484375 255 255 255
-105.57403564453125 -25.54208755493164 -49.58150100708008 255 255 255
-99.52511596679688 -27.730152130126953 -55.455413818359375 255 255 255
-109.63506317138672 -24.054656982421875 -45.7078971862793 255 255 255
-117.51172637939453 -14.88489055633545 -30.245988845825195 255 255 255
-118.52629089355469 -15.015445709228516 -29.02680778503418 255 255 255
-120.30125427246094 -19.923826217651367 -27.652376174926758 255 255 255
-119.79025268554688 -22.067689895629883 -38.465858459472656 255 255 255
-121.95767211914062 -21.014575958251953 -35.98243713378906 255 255 255
-123.16912078857422 -15.516722679138184 -27.853574752807617 255 255 255
-122.784912109375 -15.499293327331543 -28.2420597076416 255 255 255
-124.8704833984375 -15.862564086914062 -32.35304260253906 255 255 255
-126.12227630615234 -16.04245376586914 -32.59228515625 255 255 255
-123.81300354003906 -15.663345336914062 -33.675872802734375 255 255 255
-122.62467193603516 -15.62457275390625 -29.941755294799805 255 255 255
-122.21961212158203 -15.601859092712402 -34.192874908447266 255 255 255
-120.06196594238281 -15.28198528289795 -28.348129272460938 255 255 255
-125.1788101196289 -16.89565086364746 -38.51251983642578 255 255 255
-123.12894439697266 -15.826499938964844 -33.33290481567383 255 255 255
-111.24700927734375 -22.078495025634766 -27.994157791137695 255 255 255
-121.8491439819336 -15.618498802185059 -31.03119468688965 255 255 255
-125.13319396972656 -16.002355575561523 -27.66015625 255 255 255
-121.05440521240234 -15.461429595947266 -31.464073181152344 255 255 255
-122.94283294677734 -16.116334915161133 -38.77693557739258 255 255 255
-123.28363037109375 -16.259029388427734 -37.27079772949219 255 255 255
-123.24036407470703 -16.226552963256836 -37.361183166503906 255 255 255
-123.72686767578125 -16.327993392944336 -36.63125991821289 255 255 255
-122.15047454833984 -21.310583114624023 -35.95005416870117 255 255 255
-123.12186431884766 -21.451677322387695 -35.99867248535156 255 255 255
-115.21137237548828 -26.81646728515625 -46.71611404418945 255 255 255
-116.97911834716797 -25.43316650390625 -44.16089630126953 255 255 255
-123.52305603027344 -17.489418029785156 -38.73824691772461 255 255 255
-124.8127212524414 -17.2490234375 -36.8410758972168 255 255 255
-121.07340240478516 -15.682311058044434 -31.118154525756836 255 255 255
-118.50599670410156 -15.219696998596191 -31.830631256103516 255 255 255
-122.19574737548828 -21.951112747192383 -38.2505989074707 255 255 255
-123.29103088378906 -21.26812744140625 -36.663814544677734 255 255 255
-125.09950256347656 -15.915313720703125 -32.10803985595703 255 255 255
-125.144287109375 -15.875472068786621 -30.14702033996582 255 255 255
-116.7315673828125 -20.901548385620117 -27.399518966674805 255 255 255
-121.68173217773438 -15.5894136428833 -31.133874893188477 255 255 255
-117.91669464111328 -14.798795700073242 -29.52474021911621 255 255 255
-125.06549072265625 -20.378198623657227 -38.26945877075195 255 255 255
-123.668212890625 -15.538662910461426 -28.464094161987305 255 255 255
-123.1152572631836 -16.21379280090332 -37.57551193237305 255 255 255
-118.90738677978516 -15.120525360107422 -29.016544342041016 255 255 255
-111.53089904785156 -28.12233543395996 -52.95140838623047 255 255 255
-75.71391296386719 -8.162726402282715 -78.04002380371094 255 255 255
-122.08181762695312 -21.825286865234375 -36.49592590332031 255 255 255
-121.98601531982422 -17.741825103759766 -37.842777252197266 255 255 255
-120.03433227539062 -15.802063941955566 -36.0522575378418 255 255 255
-114.87364196777344 -14.700081825256348 -39.446659088134766 255 255 255
-117.26021575927734 -15.340739250183105 -36.83958435058594 255 255 255
-116.7268295288086 -16.325937271118164 -45.752479553222656 255 255 255
-117.09188079833984 -15.199688911437988 -32.278106689453125 255 255 255
-116.84825134277344 -15.120315551757812 -31.554988861083984 255 255 255
-117.23595428466797 -15.215652465820312 -32.19410705566406 255 255 255
-117.58028411865234 -15.11365032196045 -30.986093521118164 255 255 255
-121.31997680664062 -15.495259284973145 -31.34947967529297 255 255 255
-119.5521469116211 -19.280366897583008 -27.72551918029785 255 255 255
-117.71480560302734 -20.330659866333008 -27.57139778137207 255 255 255
-119.28944396972656 -15.577960968017578 -36.61830139160156 255 255 255
-118.91509246826172 -22.258464813232422 -39.069278717041016 255 255 255
-116.25929260253906 -15.00827693939209 -31.25934600830078 255 255 255
-118.12122344970703 -15.406048774719238 -32.64073181152344 255 255 255
-113.52672576904297 -18.97395896911621 -27.02541732788086 255 255 255
-117.770751953125 -22.573741912841797 -39.31747055053711 255 255 255
-117.48258972167969 -21.70217514038086 -38.12161636352539 255 255 255
-116.51998138427734 -15.049295425415039 -31.61124610900879 255 255 255
-119.1134033203125 -15.538422584533691 -36.78507614135742 255 255 255
-117.52648162841797 -15.315962791442871 -32.946598052978516 255 255 255
-118.33889770507812 -15.099641799926758 -30.490388870239258 255 255 255
-119.29263305664062 -15.020608901977539 -29.270776748657227 255 255 255
-118.72721099853516 -15.211249351501465 -31.192646026611328 255 255 255
-119.11100006103516 -15.314254760742188 -31.54629898071289 255 255 255
-120.11691284179688 -21.45869255065918 -39.23223114013672 255 255 255
-118.46544647216797 -15.130325317382812 -30.145549774169922 255 255 255
-117.87568664550781 -15.122293472290039 -39.050315856933594 255 255 255
-118.12545776367188 -22.73695945739746 -39.98408126831055 255 255 255
-118.25951385498047 -21.95344352722168 -39.4101676940918 255 255 255
-112.13211822509766 -19.21946907043457 -26.725114822387695 255 255 255
-109.71197509765625 -19.545740127563477 -26.440263748168945 255 255 255
-116.55753326416016 -22.39017677307129 -43.4384651184082 255 255 255
-119.7652816772461 -15.567484855651855 -35.45488739013672 255 255 255
-120.19249725341797 -15.767897605895996 -35.7326545715332 255 255 255
-116.98767852783203 -15.203363418579102 -32.56547164916992 255 255 255
-118.64903259277344 -15.044354438781738 -29.018774032592773 255 255 255
-122.8860855102539 -15.721293449401855 -34.99559020996094 255 255 255
-117.89418029785156 -15.345108985900879 -31.947107315063477 255 255 255
-119.3408432006836 -16.512662887573242 -41.73221206665039 255 255 255
-117.85077667236328 -15.439323425292969 -35.24296569824219 255 255 255
-117.61587524414062 -15.921524047851562 -43.26583480834961 255 255 255
-117.07965850830078 -21.344999313354492 -43.71321487426758 255 255 255
-119.20700073242188 -15.555998802185059 -36.708499908447266 255 255 255
-119.10282135009766 -15.529213905334473 -36.80783462524414 255 255 255
-120.5589370727539 -15.86109447479248 -35.609127044677734 255 255 255
-118.49626159667969 -15.461743354797363 -32.46308517456055 255 255 255
-118.04330444335938 -22.77446937561035 -40.12618637084961 255 255 255
-119.8072509765625 -21.254453659057617 -37.67281723022461 255 255 255
-119.42361450195312 -15.727128028869629 -35.117042541503906 255 255 255
-117.2391128540039 -21.982315063476562 -42.38599395751953 255 255 255
-115.11419677734375 -23.804309844970703 -42.05990982055664 255 255 255
-118.89217376708984 -15.121977806091309 -28.998674392700195 255 255 255
-118.77556610107422 -19.4660587310791 -28.147403717041016 255 255 255
-119.6016845703125 -21.34504508972168 -40.40975570678711 255 255 255
-118.27859497070312 -14.953438758850098 -29.023569107055664 255 255 255
-116.61354064941406 -15.026104927062988 -32.21320343017578 255 255 255
-118.5508041381836 -15.718929290771484 -36.797935485839844 255 255 255
-117.72844696044922 -15.39057445526123 -35.320438385009766 255 255 255
-116.91507720947266 -15.186956405639648 -32.34833908081055 255 255 255
-116.74327087402344 -15.128680229187012 -31.851850509643555 255 255 255
-119.63102722167969 -15.12554931640625 -29.2652645111084 255 255 255
-118.33568572998047 -15.107922554016113 -30.171377182006836 255 255 255
-118.12798309326172 -15.090216636657715 -31.39678955078125 255 255 255
-117.3292007446289 -15.295055389404297 -33.03351593017578 255 255 255
-118.55178833007812 -15.005463600158691 -29.0185546875 255 255 255
-117.42952728271484 -15.147879600524902 -29.23453712463379 255 255 255
-118.15137481689453 -15.272686958312988 -32.17119216918945 255 255 255
-119.25025939941406 -15.387554168701172 -32.46955108642578 255 255 255
-118.14932250976562 -15.045449256896973 -30.514944076538086 255 255 255
-117.54945373535156 -14.91532039642334 -30.606670379638672 255 255 255
-117.4842300415039 -21.715089797973633 -38.216583251953125 255 255 255
-116.23495483398438 -22.177892684936523 -40.79294204711914 255 255 255
-112.87725830078125 -23.718341827392578 -44.28704833984375 255 255 255
-117.1660385131836 -21.70374870300293 -39.73823165893555 255 255 255
-118.57186126708984 -15.256714820861816 -32.43382263183594 255 255 255
-116.06820678710938 -14.7957124710083 -32.07777404785156 255 255 255
-117.63235473632812 -15.181005477905273 -31.780378341674805 255 255 255
-116.22455596923828 -14.940390586853027 -40.66535949707031 255 255 255
-116.4957275390625 -15.050500869750977 -32.42216110229492 255 255 255
-117.60702514648438 -14.91197395324707 -31.421478271484375 255 255 255
-114.61293029785156 -14.385825157165527 -29.421213150024414 255 255 255
-119.38594818115234 -15.383185386657715 -31.770977020263672 255 255 255
-117.5845947265625 -15.193266868591309 -32.31184387207031 255 255 255
-117.57618713378906 -15.351580619812012 -35.43251037597656 255 255 255
-117.5300521850586 -15.357682228088379 -35.473541259765625 255 255 255
-116.88796997070312 -15.215514183044434 -35.910701751708984 255 255 255
-116.78961944580078 -15.305268287658691 -35.5859375 255 255 255
-115.8795394897461 -14.913049697875977 -31.278169631958008 255 255 255
-112.47261047363281 -14.466310501098633 -27.874975204467773 255 255 255
-117.45175170898438 -15.151627540588379 -29.23821449279785 255 255 255
-118.64923858642578 -15.188220024108887 -30.887035369873047 255 255 255
-118.8047866821289 -15.216206550598145 -31.151830673217773 255 255 255
-112.84394073486328 -15.209161758422852 -35.661808013916016 255 255 255
-109.12008666992188 -14.677542686462402 -44.2224235534668 255 255 255
-116.96461486816406 -15.195026397705078 -33.1629638671875 255 255 255
-108.76591491699219 -14.407992362976074 -29.645875930786133 255 255 255
-116.24638366699219 -15.00191879272461 -31.293182373046875 255 255 255
-116.71843719482422 -15.119203567504883 -32.61806106567383 255 255 255
-115.33904266357422 -14.815608978271484 -30.53656005859375 255 255 255
-115.39966583251953 -14.980177879333496 -30.07256317138672 255 255 255
-118.94335174560547 -15.351057052612305 -32.307472229003906 255 255 255
-119.01539611816406 -15.290465354919434 -30.821975708007812 255 255 255
-118.92070007324219 -15.340716361999512 -32.304874420166016 255 255 255
-117.2462158203125 -15.112617492675781 -29.239891052246094 255 255 255
-117.18328094482422 -15.097134590148926 -29.22740364074707 255 255 255
-118.5344009399414 -15.360106468200684 -31.433813095092773 255 255 255
-116.35639190673828 -14.776873588562012 -38.635284423828125 255 255 255
-117.9168930053711 -15.53140640258789 -36.24839401245117 255 255 255
-115.73483276367188 -15.113786697387695 -31.52318572998047 255 255 255
-116.36198425292969 -14.88598918914795 -36.521385192871094 255 255 255
-115.64026641845703 -14.883822441101074 -36.46416473388672 255 255 255
-110.28399658203125 -14.729301452636719 -29.801856994628906 255 255 255
-117.23187255859375 -15.46322250366211 -36.51245880126953 255 255 255
-117.65282440185547 -15.291162490844727 -36.92782211303711 255 255 255
-116.98834991455078 -15.149055480957031 -32.949832916259766 255 255 255
-116.6634292602539 -15.107572555541992 -31.859539031982422 255 255 255
-120.12579345703125 -15.661322593688965 -36.367828369140625 255 255 255
-118.5833511352539 -15.247356414794922 -31.589752197265625 255 255 255
-114.94586944580078 -14.604557991027832 -31.183271408081055 255 255 255
-116.78817749023438 -15.32679557800293 -36.95295333862305 255 255 255
-115.97293090820312 -15.22195816040039 -34.139339447021484 255 255 255
-113.54782104492188 -14.632746696472168 -30.23536491394043 255 255 255
-115.96882629394531 -15.212983131408691 -33.99909591674805 255 255 255
-113.67462158203125 -14.753552436828613 -31.30021095275879 255 255 255
-115.68429565429688 -15.400918960571289 -38.17755889892578 255 255 255
-113.39751434326172 -14.754141807556152 -32.05910110473633 255 255 255
-114.8516845703125 -15.478257179260254 -39.22154998779297 255 255 255
-109.48109436035156 -14.095160484313965 -31.144376754760742 255 255 255
-112.35923767089844 -14.820822715759277 -31.88507843017578 255 255 255
-112.0091552734375 -14.751099586486816 -31.903018951416016 255 255 255
-111.48685455322266 -14.916275024414062 -41.83897018432617 255 255 255
-111.49891662597656 -14.756072044372559 -32.22895431518555 255 255 255
-113.99703216552734 -15.028350830078125 -33.48696517944336 255 255 255
-112.65286254882812 -14.789546966552734 -33.8426399230957 255 255 255
-117.06796264648438 -15.08369255065918 -30.579729080200195 255 255 255
-116.89197540283203 -15.329102516174316 -35.45566177368164 255 255 255
-116.15461730957031 -14.97751522064209 -31.28312873840332 255 255 255
-117.2481918334961 -15.421913146972656 -37.272926330566406 255 255 255
-116.70573425292969 -15.37138843536377 -33.85300064086914 255 255 255
-115.0151138305664 -15.026851654052734 -30.38082504272461 255 255 255
-116.64503479003906 -15.075069427490234 -31.6077938079834 255 255 255
-116.87963104248047 -15.387991905212402 -36.81684494018555 255 255 255
-117.37029266357422 -15.51187515258789 -36.38616180419922 255 255 255
-115.58412170410156 -15.337852478027344 -39.15567398071289 255 255 255
-116.88849639892578 -21.386526107788086 -38.934112548828125 255 255 255
-116.74398040771484 -21.149282455444336 -39.252281188964844 255 255 255
-118.3242416381836 -15.319799423217773 -32.119407653808594 255 255 255
-118.27417755126953 -15.154988288879395 -30.904727935791016 255 255 255
-117.61747741699219 -15.511686325073242 -37.81107711791992 255 255 255
-119.07257080078125 -15.82021713256836 -36.25 255 255 255
-116.70536804199219 -15.10183334350586 -31.6068058013916 255 255 255
-113.83834075927734 -15.024847984313965 -33.5284423828125 255 255 255
-114.12439727783203 -14.934765815734863 -32.04951477050781 255 255 255
-110.41957092285156 -14.184823036193848 -32.4993896484375 255 255 255
-115.4975357055664 -15.719060897827148 -38.23252868652344 255 255 255
-113.05744934082031 -15.214058876037598 -38.83919906616211 255 255 255
-113.59489440917969 -15.34733772277832 -39.124366760253906 255 255 255
-109.11424255371094 -14.45881462097168 -30.51717758178711 255 255 255
-112.78218078613281 -14.747688293457031 -32.306983947753906 255 255 255
-113.32355499267578 -14.867423057556152 -32.3546257019043 255 255 255
-113.60162353515625 -15.125511169433594 -35.9797477722168 255 255 255
-112.18936157226562 -14.723199844360352 -32.70016098022461 255 255 255
-106.62346649169922 -13.732198715209961 -33.909828186035156 255 255 255
-117.25667572021484 -15.276263236999512 -33.062992095947266 255 255 255
-113.89888763427734 -14.660459518432617 -39.62559509277344 255 255 255
-114.65062713623047 -14.927655220031738 -30.36779022216797 255 255 255
-111.5208511352539 -14.52181339263916 -28.668590545654297 255 255 255
-116.4360580444336 -14.824225425720215 -29.876554489135742 255 255 255
-116.45623779296875 -15.288518905639648 -34.63446044921875 255 255 255
-114.5931625366211 -14.915689468383789 -34.604881286621094 255 255 255
-116.30179595947266 -15.32352352142334 -33.879703521728516 255 255 255
-114.43205261230469 -14.793741226196289 -31.55328369140625 255 255 255
-114.6431884765625 -15.187699317932129 -35.108123779296875 255 255 255
-117.864501953125 -15.55109691619873 -34.83224105834961 255 255 255
-113.16278839111328 -15.251867294311523 -39.49495315551758 255 255 255
-116.48035430908203 -15.404114723205566 -33.85129165649414 255 255 255
-116.77889251708984 -15.498969078063965 -36.73074722290039 255 255 255
-113.6572494506836 -14.574094772338867 -39.626678466796875 255 255 255
-114.24198913574219 -14.951547622680664 -38.98358154296875 255 255 255
-115.14820861816406 -15.196634292602539 -34.39705276489258 255 255 255
-116.75471496582031 -15.09410285949707 -32.17957305908203 255 255 255
-114.55715942382812 -15.367201805114746 -32.093231201171875 255 255 255
-111.14231872558594 -15.211203575134277 -40.47282791137695 255 255 255
-104.91736602783203 -18.725187301635742 -30.782255172729492 255 255 255
-105.04055786132812 -18.69624900817871 -30.80988883972168 255 255 255
-109.33612823486328 -14.94856071472168 -38.055274963378906 255 255 255
-114.35734558105469 -15.104877471923828 -34.90977478027344 255 255 255
-115.00030517578125 -15.323568344116211 -37.74586868286133 255 255 255
-114.9094467163086 -15.281235694885254 -34.555633544921875 255 255 255
-112.40044403076172 -14.714415550231934 -30.991981506347656 255 255 255
-116.22830200195312 -15.001399993896484 -31.29754066467285 255 255 255
-116.25572204589844 -14.963553428649902 -31.63193702697754 255 255 255
-104.86681365966797 -13.1390380859375 -31.38153839111328 255 255 255
-106.94888305664062 -13.890298843383789 -37.95866012573242 255 255 255
-112.46215057373047 -15.526140213012695 -39.64912796020508 255 255 255
-112.89446258544922 -14.968001365661621 -33.976165771484375 255 255 255
-107.00215148925781 -15.05345630645752 -43.31256866455078 255 255 255
-111.98542785644531 -15.276885032653809 -36.08714294433594 255 255 255
-99.47354125976562 -14.71072006225586 -47.16345977783203 255 255 255
-104.76983642578125 -14.046987533569336 -39.340030670166016 255 255 255
-107.06807708740234 -15.004887580871582 -43.63536071777344 255 255 255
-107.28260040283203 -14.82387924194336 -38.43497085571289 255 255 255
-103.91718292236328 -14.437399864196777 -46.295589447021484 255 255 255
-108.74291229248047 -15.159656524658203 -41.03095245361328 255 255 255
-112.21517944335938 -14.954208374023438 -34.05366134643555 255 255 255
-112.0866928100586 -14.915470123291016 -34.070945739746094 255 255 255
-114.97665405273438 -15.789569854736328 -37.89812469482422 255 255 255
-112.64093780517578 -15.054611206054688 -33.724884033203125 255 255 255
-112.17579650878906 -14.961003303527832 -33.780704498291016 255 255 255
-101.34115600585938 -15.12408447265625 -43.845760345458984 255 255 255
-99.68313598632812 -14.688702583312988 -42.2716064453125 255 255 255
-99.87310028076172 -14.801557540893555 -45.00148010253906 255 255 255
-90.51469421386719 -19.16268539428711 -54.47105026245117 255 255 255
-98.28356170654297 -14.765290260314941 -43.133209228515625 255 255 255
-103.75411987304688 -15.018342971801758 -43.21045684814453 255 255 255
-103.00615692138672 -14.911635398864746 -45.06565475463867 255 255 255
-109.7042007446289 -15.262945175170898 -40.1732292175293 255 255 255
-107.69815063476562 -14.797142028808594 -38.06576919555664 255 255 255
-106.91471862792969 -14.749295234680176 -42.240211486816406 255 255 255
-107.59236907958984 -14.479024887084961 -34.933349609375 255 255 255
-105.24337768554688 -14.339747428894043 -32.39241027832031 255 255 255
-107.61869812011719 -15.10346508026123 -42.124759674072266 255 255 255
-107.3437728881836 -15.116539001464844 -41.39455795288086 255 255 255
-98.888916015625 -20.794443130493164 -30.749357223510742 255 255 255
-112.53522491455078 -15.117632865905762 -35.79157638549805 255 255 255
-111.8704605102539 -15.406621932983398 -40.28588104248047 255 255 255
-113.19194793701172 -15.453710556030273 -38.21479034423828 255 255 255
-112.25873565673828 -15.029759407043457 -35.13570022583008 255 255 255
-109.8178939819336 -15.177979469299316 -40.86457443237305 255 255 255
-107.96893310546875 -14.55043888092041 -34.55064392089844 255 255 255
-107.89290618896484 -14.531291961669922 -34.58751678466797 255 255 255
-90.66068267822266 -11.428841590881348 -45.025020599365234 255 255 255
-107.79894256591797 -14.545377731323242 -34.95534133911133 255 255 255
-107.9547119140625 -14.58430290222168 -34.9534912109375 255 255 255
-107.00142669677734 -14.755717277526855 -38.56203079223633 255 255 255
-106.350830078125 -14.613020896911621 -38.83588409423828 255 255 255
-107.90940856933594 -14.902790069580078 -38.13794708251953 255 255 255
-104.22285461425781 -14.108139991760254 -31.751497268676758 255 255 255
-101.42791748046875 -14.161155700683594 -48.05995178222656 255 255 255
-108.9612045288086 -14.756165504455566 -34.37797927856445 255 255 255
-110.110595703125 -15.24712085723877 -40.63074493408203 255 255 255
-105.36012268066406 -13.711788177490234 -33.810237884521484 255 255 255
-106.85026550292969 -14.452825546264648 -38.31961441040039 255 255 255
-107.92327117919922 -14.540026664733887 -34.594810485839844 255 255 255
-107.7357406616211 -14.901179313659668 -38.25495147705078 255 255 255
-105.04167175292969 -15.21362018585205 -42.27265930175781 255 255 255
-101.26216888427734 -14.594963073730469 -47.054317474365234 255 255 255
-99.80548095703125 -13.910735130310059 -38.13113784790039 255 255 255
-100.5362319946289 -14.670300483703613 -45.12995910644531 255 255 255
-102.59992980957031 -14.098204612731934 -36.95843505859375 255 255 255
-112.2892074584961 -15.480782508850098 -38.53263473510742 255 255 255
-109.95264434814453 -14.869331359863281 -35.558441162109375 255 255 255
-104.83755493164062 -14.578904151916504 -39.426578521728516 255 255 255
-101.18212127685547 -13.35252571105957 -36.114585876464844 255 255 255
-106.60655212402344 -14.821295738220215 -36.248443603515625 255 255 255
-106.58829498291016 -15.309491157531738 -42.78683853149414 255 255 255
-107.88221740722656 -14.179409980773926 -34.07331085205078 255 255 255
-107.86436462402344 -15.299016952514648 -42.390750885009766 255 255 255
-98.61491394042969 -13.902090072631836 -34.5598030090332 255 255 255
-101.70222473144531 -15.05222225189209 -45.11505126953125 255 255 255
-100.88483428955078 -14.699942588806152 -42.80473709106445 255 255 255
-98.44969177246094 -13.776053428649902 -38.685462951660156 255 255 255
-100.62469482421875 -14.642394065856934 -41.6580924987793 255 255 255
-103.04229736328125 -14.627357482910156 -40.38996124267578 255 255 255
-100.48982238769531 -13.803515434265137 -37.45372009277344 255 255 255
-97.42459106445312 -12.81489372253418 -37.171791076660156 255 255 255
-103.61363983154297 -14.193275451660156 -36.578861236572266 255 255 255
-103.4276123046875 -14.848970413208008 -45.18090057373047 255 255 255
-105.12023162841797 -21.0789737701416 -45.08086013793945 255 255 255
-103.41215515136719 -14.719347953796387 -32.40349197387695 255 255 255
-102.66295623779297 -14.5812406539917 -32.26027297973633 255 255 255
-104.97964477539062 -14.454538345336914 -35.7867546081543 255 255 255
-104.18128204345703 -14.509821891784668 -39.742431640625 255 255 255
-102.86674499511719 -14.756599426269531 -40.55727005004883 255 255 255
-99.68209838867188 -14.569425582885742 -41.067291259765625 255 255 255
-101.41822814941406 -14.35330581665039 -41.05254364013672 255 255 255
-99.7433090209961 -14.70347785949707 -42.26581954956055 255 255 255
-95.96653747558594 -13.674911499023438 -40.014503479003906 255 255 255
-98.19164276123047 -14.355764389038086 -36.66004943847656 255 255 255
-96.30743408203125 -13.99385929107666 -36.68442916870117 255 255 255
-95.8669204711914 -14.071452140808105 -36.926998138427734 255 255 255
-98.8627700805664 -14.775618553161621 -45.5216178894043 255 255 255
-101.69861602783203 -14.834330558776855 -44.331459045410156 255 255 255
-101.53047943115234 -14.692314147949219 -41.211082458496094 255 255 255
-97.00328826904297 -13.505181312561035 -38.88994216918945 255 255 255
-102.32601165771484 -14.737007141113281 -38.63745880126953 255 255 255
-100.67742919921875 -14.420059204101562 -38.84109878540039 255 255 255
-97.62278747558594 -14.098587036132812 -49.15211486816406 255 255 255
-101.72167205810547 -14.405323028564453 -37.62876892089844 255 255 255
-103.21739196777344 -15.09224796295166 -44.11137771606445 255 255 255
-103.30303192138672 -15.08814525604248 -44.05582809448242 255 255 255
-99.19947814941406 -14.783679962158203 -46.80099105834961 255 255 255
-100.4743423461914 -14.93586254119873 -44.57695770263672 255 255 255
-96.3564682006836 -14.101841926574707 -37.031028747558594 255 255 255
-97.6759033203125 -14.591031074523926 -46.324100494384766 255 255 255
-103.00635528564453 -14.215283393859863 -40.137325286865234 255 255 255
-94.13329315185547 -13.816280364990234 -41.6882438659668 255 255 255
-97.0313720703125 -14.472221374511719 -41.379669189453125 255 255 255
-96.20561218261719 -14.162737846374512 -40.982749938964844 255 255 255
-95.387939453125 -14.096489906311035 -41.55693435668945 255 255 255
-98.38734436035156 -14.740920066833496 -47.15157699584961 255 255 255
-95.0140380859375 -13.833340644836426 -37.79784393310547 255 255 255
-95.97089385986328 -14.252257347106934 -47.55431365966797 255 255 255
-97.39192199707031 -14.530643463134766 -46.48518753051758 255 255 255
-97.46051788330078 -14.557791709899902 -46.44097137451172 255 255 255
-101.53377532958984 -14.774444580078125 -44.46834945678711 255 255 255
-102.53657531738281 -14.974259376525879 -44.6956672668457 255 255 255
-102.5694580078125 -14.983343124389648 -44.656742095947266 255 255 255
-99.02477264404297 -14.308652877807617 -39.61824417114258 255 255 255
-98.9259033203125 -14.276979446411133 -39.6222038269043 255 255 255
-90.8307113647461 -13.579976081848145 -39.54996871948242 255 255 255
-92.61437225341797 -13.855142593383789 -42.9206657409668 255 255 255
-84.03439331054688 -16.39385986328125 -38.31108093261719 255 255 255
-85.04597473144531 -14.491070747375488 -38.644447326660156 255 255 255
-92.96171569824219 -14.267495155334473 -49.262149810791016 255 255 255
-92.44188690185547 -18.885210037231445 -50.66582489013672 255 255 255
-91.94792175292969 -14.220442771911621 -49.02681350708008 255 255 255
-93.73621368408203 -14.634772300720215 -47.71120071411133 255 255 255
-89.9295425415039 -13.458578109741211 -46.7665901184082 255 255 255
-94.55244445800781 -14.336671829223633 -47.89444351196289 255 255 255
-89.9563217163086 -12.877171516418457 -42.193199157714844 255 255 255
-99.79328918457031 -14.626253128051758 -42.77906799316406 255 255 255
-94.18594360351562 -14.541751861572266 -49.01273727416992 255 255 255
-87.52476501464844 -13.848736763000488 -49.67856979370117 255 255 255
-87.13971710205078 -13.757789611816406 -49.88026428222656 255 255 255
-91.33966827392578 -14.096656799316406 -49.44365692138672 255 255 255
-98.306396484375 -14.726207733154297 -45.774959564208984 255 255 255
-98.44290161132812 -18.066003799438477 -48.041725158691406 255 255 255
-97.82613372802734 -14.66374683380127 -43.31768035888672 255 255 255
-97.63893127441406 -14.991897583007812 -49.654781341552734 255 255 255
-100.46141052246094 -14.969592094421387 -45.749271392822266 255 255 255
-99.5096664428711 -14.510894775390625 -41.0670051574707 255 255 255
-99.62922668457031 -14.769320487976074 -45.192657470703125 255 255 255
-97.90347290039062 -14.24635124206543 -40.240501403808594 255 255 255
-97.55138397216797 -14.580835342407227 -46.38691711425781 255 255 255
-96.44754028320312 -14.194190979003906 -37.82353973388672 255 255 255
-97.90213775634766 -17.832294464111328 -48.283077239990234 255 255 255
-97.50422668457031 -17.920997619628906 -48.69926452636719 255 255 255
-99.69491577148438 -14.4625244140625 -45.9237060546875 255 255 255
-100.47293090820312 -14.837379455566406 -46.45160675048828 255 255 255
-99.27057647705078 -14.184854507446289 -39.172645568847656 255 255 255
-93.91377258300781 -13.741686820983887 -44.701393127441406 255 255 255
-90.90743255615234 -13.419724464416504 -38.42049789428711 255 255 255
-92.88764953613281 -13.849798202514648 -38.79411697387695 255 255 255
-86.07320404052734 -12.366419792175293 -43.562042236328125 255 255 255
-83.04095458984375 -16.469736099243164 -38.50175476074219 255 255 255
-97.11320495605469 -14.224757194519043 -47.2581672668457 255 255 255
-98.96898651123047 -14.881275177001953 -46.55268859863281 255 255 255
-98.04846954345703 -14.297676086425781 -40.25388717651367 255 255 255
-99.50941467285156 -14.520161628723145 -41.08794403076172 255 255 255
-9.94230842590332 -0.5575520396232605 -15.374868392944336 255 255 255
0.8001173734664917 -0.3488788604736328 -15.574239730834961 255 255 255
0.19088253378868103 0.05186212435364723 -18.274337768554688 255 255 255
2.1178529262542725 0.8614341020584106 -13.507322311401367 255 255 255
1.2351347208023071 0.4472154974937439 -14.55748462677002 255 255 255
-10.229007720947266 -0.04646948724985123 -9.823592185974121 255 255 255
-8.92104721069336 -1.200492262840271 -22.972375869750977 255 255 255
-7.408255100250244 -0.6507492065429688 -23.642187118530273 255 255 255
-9.2824125289917 -1.0802581310272217 -22.383939743041992 255 255 255
-0.7637596726417542 -0.43974700570106506 -21.61687469482422 255 255 255
-9.739048957824707 -1.0794460773468018 -22.391843795776367 255 255 255
0.7978448867797852 0.24580791592597961 -14.79597282409668 255 255 255
1.500008463859558 0.5124224424362183 -12.627897262573242 255 255 255
1.1081562042236328 0.437904953956604 -12.64177417755127 255 255 255
-8.337318420410156 -0.07726618647575378 -13.085437774658203 255 255 255
1.1624205112457275 0.7348578572273254 -10.25366497039795 255 255 255
-12.483813285827637 -0.28032758831977844 -9.443998336791992 255 255 255
-14.618985176086426 -0.0858181044459343 -6.4688920974731445 255 255 255
-12.032940864562988 -0.11775600165128708 -8.750746726989746 255 255 255
-10.567425727844238 -0.3064887225627899 -8.237808227539062 255 255 255
2.8376965522766113 -2.9946494102478027 -8.807766914367676 255 255 255
-2.6447651386260986 0.535916268825531 -9.059725761413574 255 255 255
-10.127370834350586 -0.04264408349990845 -9.809013366699219 255 255 255
-7.187360763549805 0.09414724260568619 -9.693037986755371 255 255 255
4.885498523712158 -0.5772607326507568 -8.363740921020508 255 255 255
2.517463445663452 0.18689174950122833 -13.451262474060059 255 255 255
1.4989631175994873 0.513708233833313 -12.553855895996094 255 255 255
-12.05725383758545 0.0625714510679245 -10.453509330749512 255 255 255
-1.124101996421814 -0.9672952890396118 -20.40048599243164 255 255 255
1.6029950380325317 -0.10472908616065979 -13.966316223144531 255 255 255
-8.651591300964355 -0.0733167752623558 -13.658184051513672 255 255 255
-70.26326751708984 -12.387323379516602 -58.30475616455078 255 255 255
-68.61317443847656 -12.187068939208984 -61.304256439208984 255 255 255
-68.08163452148438 -11.781254768371582 -56.14120864868164 255 255 255
-67.89478302001953 -11.813170433044434 -55.86823654174805 255 255 255
-65.63221740722656 -11.603721618652344 -53.31736755371094 255 255 255
-63.66344451904297 -10.689592361450195 -56.06007385253906 255 255 255
-71.91677856445312 -12.541834831237793 -59.52425765991211 255 255 255
-97.05571746826172 -14.875308990478516 -46.9473762512207 255 255 255
-94.99994659423828 -14.389196395874023 -48.96591567993164 255 255 255
-90.16539001464844 -14.320075988769531 -53.782535552978516 255 255 255
-92.20191192626953 -14.162962913513184 -49.367759704589844 255 255 255
-93.85807037353516 -14.286669731140137 -46.48771286010742 255 255 255
-93.21920776367188 -14.097518920898438 -45.52695083618164 255 255 255
-92.66677856445312 -13.836005210876465 -42.86387634277344 255 255 255
-91.90692901611328 -13.80189323425293 -43.32746505737305 255 255 255
-91.11274719238281 -13.789660453796387 -46.48330307006836 255 255 255
-92.65604400634766 -18.893478393554688 -50.855953216552734 255 255 255
-88.60800170898438 -13.652337074279785 -52.902225494384766 255 255 255
-90.24703216552734 -13.692558288574219 -44.25596618652344 255 255 255
-90.23727416992188 -13.696075439453125 -44.29206085205078 255 255 255
-78.6034164428711 -11.420356750488281 -51.71118927001953 255 255 255
-92.03498077392578 -14.885090827941895 -52.3492317199707 255 255 255
-91.81770324707031 -14.871448516845703 -52.54365921020508 255 255 255
-92.54098510742188 -18.797311782836914 -51.031429290771484 255 255 255
-85.08921813964844 -13.520578384399414 -51.424072265625 255 255 255
