151.50049812154623 -0.398399791109072 -680.1208502409122 75 204 254 
152.2521629682945 -0.3639893518647366 -684.5586750117001 75 204 254 
149.59611639313601 -0.40106274155800126 -682.8383168032681 75 205 254 
148.14579101372027 -0.2770718129395968 -683.6486660598931 74 205 254 
142.6861252984922 -0.14907371891681986 -682.8911533106289 74 205 254 
149.6279184957437 -0.22481623704643372 -679.3952281228871 75 205 254 
144.0803268780885 -0.18143961667174846 -680.2394244360052 75 205 254 
150.25736923225864 -0.34021642238803906 -683.4345208802083 75 204 254 
149.40353554364413 -0.412779728747382 -683.3201448137397 75 205 254 
149.0810234155087 -0.2537682526035958 -677.5542662289236 74 205 254 
149.43442910185786 -0.3627778993961961 -684.1760000251853 74 204 254 
147.69416671815574 -0.3619490110031194 -682.1267298926534 74 204 254 
150.80265616331516 -0.2884797567647963 -679.8065719781495 75 205 254 
145.8976746208365 -0.16850903128211403 -682.3503777872895 74 205 254 
146.68012084751072 -0.27196668942248614 -684.2044811098833 75 205 254 
150.82114453679546 -0.35523620860246474 -678.1349241076657 75 205 254 
152.4196310727297 -0.3486823146295519 -684.0877333456301 75 204 254 
152.86904223461798 -0.30414930477116187 -682.0041043105144 74 205 254 
151.95512949444867 -0.3678758624574554 -684.6440252030346 75 205 254 
142.49012088447736 -0.20213374123353933 -683.4497785768114 74 205 254 
144.08236437200333 -0.322823136382004 -684.4499528468856 75 205 254 
149.7620877827211 -0.2627117375698518 -678.9540309891155 74 205 254 
145.5208259977332 -0.20450212707041082 -678.8576097729531 74 205 254 
148.0697950156278 -0.22614858882128708 -682.0727032895571 75 205 254 
145.31686266218975 -0.10762058033284383 -680.5784408226305 75 205 254 
149.555292842432 -0.3605137109153622 -683.2898649196325 74 205 254 
149.28292623581717 -0.39550519705165055 -682.1828593990464 75 204 254 
148.7153732749349 -0.374751355118474 -684.4277529544918 75 205 254 
144.27093988899833 -0.2926249109496677 -684.049546634941 75 205 254 
147.06357194582085 -0.2111719547999762 -680.578030261117 74 205 254 
146.86495216216935 -0.17201382351760586 -680.2108355335484 75 205 254 
146.15816001424895 -0.12472958059268358 -679.8051355621486 75 205 254 
148.94869465453513 -0.3160572416777674 -682.4727450583928 75 204 254 
151.36518090049347 -0.3376199839447729 -685.1155454610091 75 205 254 
145.095763086125 -0.23882967006007672 -680.6700441877211 74 205 254 
150.48760009224327 -0.3282060592088305 -681.4061870784668 74 204 254 
146.0434230271286 -0.3103567690824649 -684.4635475595466 75 205 254 
147.6965188263665 -0.2461967029361558 -683.0064047088567 75 205 254 
146.1640648943676 -0.2924128354445408 -684.0950837425196 75 205 254 
149.8596041371762 -0.2611722344946399 -680.5474811191347 74 205 254 
145.8569137478932 -0.29330817065131765 -679.4267972517562 74 205 254 
148.1396041732595 -0.26617173484088585 -683.1493498643481 75 205 254 
146.78801871599032 -0.1347230626246736 -679.5557952520461 75 205 254 
149.40940483563566 -0.3654494501720196 -684.1918232932292 75 205 254 
145.03829032605563 -0.24479823733967798 -678.9820335226458 74 205 254 
144.29488820860522 -0.20636713952040164 -679.7616172639923 74 205 254 
148.44829760620888 -0.24379003856984838 -682.1991013383599 75 205 254 
151.627388860898 -0.30651841324038553 -681.2411348101118 74 204 254 
145.79123263828214 -0.14133322249556102 -680.7575763212624 75 205 254 
150.30737883343068 -0.30844145787039334 -681.82824251349 74 204 254 
146.89193474435035 -0.33059705933237726 -681.3037543585972 74 204 254 
147.78911473230983 -0.19497641958157796 -681.4191779340272 75 205 254 
151.71345021420444 -0.31933935142401726 -681.7014652128997 74 205 254 
143.92164416214774 -0.1731709229938474 -680.710653134775 75 205 254 
143.7302135299808 -0.17526543368708936 -681.1414346462045 75 205 254 
149.38849556017365 -0.3333657295206969 -682.6544145598241 75 204 254 
147.59087980494266 -0.1985257282365458 -681.8820253930411 75 205 254 
149.59794802616722 -0.30328343244178857 -680.61026044649 75 205 254 
146.59155472797414 -0.18050539430310764 -681.5906262683561 75 205 254 
147.89965904120427 -0.2524481019063609 -684.5500826178114 75 205 254 
147.801080117556 -0.3038998237396129 -684.1170429320881 75 205 254 
145.5510552143623 -0.3371217151889061 -683.4928998981438 75 205 254 
152.36976347005438 -0.321343461443492 -681.2984241897251 75 205 254 
150.63331519154815 -0.24964500279997104 -680.2074975870419 74 204 254 
150.2967934525615 -0.304575936300683 -685.2685588416551 75 205 254 
148.68549818324965 -0.24681077207422142 -681.7545296683461 75 205 254 
148.44901156829667 -0.4053624498236852 -683.7596447133122 74 205 254 
146.71034844870422 -0.19376080385238748 -682.6207432271033 75 205 254 
151.64742878352286 -0.3232201214195145 -683.2732189814327 75 204 254 
148.55782109057972 -0.37552217653335607 -684.7248215294883 75 205 254 
146.10310738653305 -0.2601357673420477 -679.32287577819 75 205 254 
144.93704613510144 -0.16384134296871977 -683.0905236647778 75 205 254 
152.8737150329981 -0.3565025849745789 -684.2626245052493 75 204 254 
146.20363632735973 -0.22491992272191652 -684.0544453125644 75 205 254 
146.4952400667917 -0.26400935029498296 -679.4888993477331 74 204 254 
143.33186980810086 -0.2496859788166237 -683.6832585778799 75 205 254 
145.92076226174385 -0.31960450412262986 -682.5345574817901 75 205 254 
152.80117745330028 -0.3511977029311826 -683.1952742555084 75 204 254 
144.9665094286512 -0.23381256709914844 -680.4781041667607 74 205 254 
149.27234604934833 -0.34577744577040015 -677.0981476227921 75 205 254 
143.9002415302229 -0.15689983220731207 -684.2927502991854 75 205 254 
147.47033572929328 -0.30792133560985846 -683.5232234989886 74 205 254 
145.70505117148633 -0.22839540806332792 -683.3090742675671 75 205 254 
150.53760282942 -0.3202426807155696 -679.094648094437 75 205 254 
149.0113037508539 -0.28801400391269993 -684.4397750549286 75 205 254 
151.45917408628708 -0.2805105323135155 -678.6868103307773 75 205 254 
151.4907945222717 -0.36610932567733645 -682.9082218053657 75 205 254 
143.61826330890477 -0.20411321897576684 -682.7409329569156 75 205 254 
144.80355904670728 -0.26515632895589114 -682.6694600827718 74 205 254 
145.8660788175762 -0.06605707282379836 -679.2231041965592 75 205 254 
153.41373115232733 -0.34468531502555155 -682.8917762924508 75 204 254 
150.57794624735493 -0.3260645526925652 -682.4731581437759 75 204 254 
148.3534235970573 -0.34350372240012916 -684.2687573736448 75 205 254 
146.39599544726428 -0.30429193201186866 -684.5174849724053 74 205 254 
147.99679429172156 -0.39835989607127775 -683.361906268958 75 205 254 
146.2331042983678 -0.16853396697804524 -680.9270510060638 75 205 254 
147.17079313851303 -0.08569045015802779 -682.6751035196246 74 205 254 
145.53422983697936 -0.18195739520285859 -682.8452055991115 75 205 254 
146.34632370421812 -0.1012022553013967 -679.342196853972 75 205 254 
143.86787834824676 -0.2729414021101366 -683.9307268984157 75 205 254 
149.4573206058449 -0.2108945244285234 -680.3472090197444 75 205 254 
149.28934118746122 -0.20711863885857706 -678.734054601261 74 205 254 
152.58958253904012 -0.3429204673763149 -683.6506865637784 75 204 254 
149.70934106153095 -0.29557275607184774 -678.276198529668 75 205 254 
144.0264504985609 -0.22959145530644065 -681.846908366781 75 205 254 
153.15960247912042 -0.3218743236517696 -682.1977840075687 75 204 254 
147.32422462460278 -0.1680031580760648 -681.219935652943 75 205 254 
150.33834146117294 -0.2625073642218192 -679.4403132186231 74 205 254 
146.00564597605177 0.011480015503298802 -678.8381140086269 75 205 254 
144.21121408746188 -0.2050536581909279 -681.3738491672204 75 205 254 
151.2349593198854 -0.3685356759670544 -678.4724973238265 75 205 254 
148.5007391848576 -0.29738816275989866 -682.315693802888 74 204 254 
144.41739597091302 -0.20578380831585452 -680.8740908809057 75 205 254 
145.45974900433472 -0.1379383864586421 -680.0990476079241 75 205 254 
143.36888209533683 -0.19994543531725117 -682.0941113419881 75 205 254 
145.63046587805795 -0.11196421259297562 -681.239431634953 75 205 254 
148.90032519405736 -0.38499045697157275 -684.0637690446379 75 204 254 
147.290937675674 -0.25273445886170975 -684.8688435897013 75 205 254 
149.43884636546056 -0.3246622673393116 -677.6041549412915 74 205 254 
152.25802010474138 -0.34354360198347766 -682.9722503050418 75 204 254 
145.690706569611 -0.09377638275398503 -679.643878392675 75 205 254 
149.83766246375907 -0.29309527654133927 -681.6796541160893 75 205 254 
150.71162558483903 -0.35672237129327034 -683.6003207693329 75 204 254 
145.75831920620357 -0.2569067451465328 -683.9639768817527 75 205 254 
146.34491768651708 -0.2623412256081883 -683.6166542112203 75 205 254 
151.76699137937283 -0.36218534043951855 -683.4588033203885 75 204 254 
145.2234223413809 -0.22004963160644042 -683.7495888296164 75 205 254 
147.0771667184196 -0.2137626412073974 -681.7705377972997 75 205 254 
149.71460308561808 -0.22002815371147566 -679.7446754450874 75 205 254 
144.71625232848888 -0.32463779444097085 -684.190336713475 75 205 254 
145.15332965701938 -0.07636239649057774 -681.073977208181 75 205 254 
152.81309548435334 -0.328548854338222 -681.603191888558 74 205 254 
144.7439082819835 -0.23084573898357785 -679.9332799130309 75 205 254 
153.3304208375411 -0.34665909031297204 -681.8583272131166 74 204 254 
150.19822357438255 -0.3195866868013866 -679.110387361783 75 205 254 
147.8907844663659 -0.23772012221329675 -682.519148532531 75 205 254 
150.7524749690033 -0.32456252812262587 -682.0022853853374 74 204 254 
152.98900790233932 -0.3664072421343869 -684.2455105956066 75 205 254 
150.4393475265381 -0.42102574728969255 -683.9454328729025 74 204 254 
144.6595951058842 -0.2612001438925686 -682.0746154327529 74 205 254 
151.78306206148244 -0.3796853096917303 -683.5242454761917 74 205 254 
152.09702115034432 -0.33588268318360637 -680.7635694011672 74 205 254 
145.59412931948106 -0.2166693606977077 -683.4512275678987 75 205 254 
149.6654061684685 -0.46309484699080894 -684.1334439610007 75 205 254 
150.22333322842155 -0.39255096170793635 -682.5528448786808 75 205 254 
149.70608252806295 -0.3941810185756882 -684.132406479056 74 205 254 
145.66984118873253 -0.2871673608447134 -685.3687030881722 75 205 254 
145.49468345669055 -0.30137648346341006 -684.3701207795788 75 205 254 
150.56897542495372 -0.2930481904719535 -679.809455877287 75 205 254 
141.78403305724038 -0.5185153320359959 -677.4389816196327 75 204 254 
141.37198608175026 -0.39998227050024404 -681.0865769222485 74 204 254 
141.6201634499246 -0.452530149089033 -683.3112075660861 74 204 254 
143.28105816368497 -0.13242695157025164 -676.8264318736145 75 205 254 
142.05011943474162 -0.6145715355221082 -677.606355374272 75 204 254 
141.42901410106407 -0.3541200740631272 -678.4628064108867 75 205 254 
143.16893311280865 -0.4957162924205303 -681.6376421939942 75 205 254 
145.734785201259 -0.17679174126459873 -678.7421830423154 75 205 254 
141.99694733833311 -0.4514605566410532 -682.3975339845441 74 204 254 
142.07547162416853 -0.4468941955383334 -679.1824144700919 75 205 254 
140.9444134684938 -0.4275580380766355 -683.5760999658797 74 204 254 
141.85078491133373 -0.4338400138400438 -681.2655384990608 74 205 254 
141.95192828084922 -0.34753581049034743 -677.0910945199007 75 205 254 
141.88136792513208 -0.4319931914937518 -679.6531366061033 75 205 254 
141.43519608384335 -0.4675279538815529 -683.6537918367936 75 205 254 
143.63222247706167 -0.5400694712699172 -679.2686511600768 75 204 254 
142.58719709210234 -0.4597072451201418 -682.0758349380999 74 204 254 
144.47096064038624 -0.5357789151132408 -680.0732225856149 75 204 254 
142.55011627246796 -0.46910095184916933 -679.3700819535222 74 204 254 
142.42850385758302 -0.47871574916903814 -678.2519551330612 75 204 254 
144.26974913073167 -0.17301772216486988 -677.5678970603724 74 205 254 
142.2680237506719 -0.4755646777555844 -683.0519998703913 74 204 254 
145.47675854617506 -0.4040626545782553 -678.5630017902924 75 204 254 
144.96810380946843 -0.5281504383500444 -681.4346201821575 74 204 254 
141.1462610357136 -0.4317533553135364 -683.1549829054475 74 205 254 
142.46317087073362 -0.48563308352163315 -682.5646444691392 74 204 254 
143.14872185127433 -0.567650731617535 -678.7562576680234 75 205 254 
143.6015591673757 -0.5452566395219911 -677.99740438219 75 204 254 
143.8470093385433 -0.5384634350269915 -683.081025126959 75 205 254 
141.72218728350703 -0.38734051525990143 -680.1713290129795 74 205 254 
142.14602811725396 -0.4377230927907023 -681.8879438995386 74 205 254 
140.35486511682825 -0.40719168323314303 -683.8190896514589 75 205 254 
141.81342657634963 -0.40657781343715893 -677.450858170191 74 205 254 
139.62909611277223 -0.3679250876110425 -683.1614154391867 75 205 254 
144.23962712069041 -0.3144997420838145 -677.9011065942344 75 204 254 
143.366740914492 -0.22374945436207927 -677.1615229086507 75 205 254 
142.5391840878416 -0.1228486707602725 -676.3731459337561 75 204 254 
141.24122057638635 -0.3995011425567938 -678.8570852442041 75 205 254 
144.14594151692367 -0.4539682177060733 -678.0717741565135 74 204 254 
140.7177071314307 -0.4421778784353796 -683.8276840408665 74 205 254 
141.610320133656 -0.333941890808088 -677.9630864437887 74 205 254 
144.07002755893004 -0.5566982073451001 -679.5326115642567 74 204 254 
142.7900397634139 -0.5092942263460589 -682.657615857177 75 205 254 
145.11552145836163 -0.4069244605061515 -678.3903590752889 75 205 254 
142.81316314138564 -0.4758600767695649 -681.6134618267332 74 204 254 
142.84107315341657 -0.5413212224124235 -678.5122433297963 75 204 254 
142.49770287577195 -0.6287107409142996 -677.6943795918663 75 205 254 
144.12604065618237 -0.5155820450252548 -681.0099566394451 75 205 254 
141.66601972251635 -0.4111800606024545 -681.7390483065755 74 204 254 
143.5297412902474 -0.1653213777844531 -677.0658590838572 74 205 254 
141.08809816057254 -0.37125609777856905 -679.3752571677592 75 205 254 
140.05169283745727 -0.33066217317429825 -682.2027109284581 75 205 254 
142.32107263823775 -0.45619661440524695 -681.4539794669158 74 204 254 
145.80407520124757 -0.5073534982105752 -678.7260808967766 75 204 254 
140.72218057606574 -0.36219358959488535 -681.367604733975 75 205 254 
144.16803132347187 -0.5229301249673517 -680.0201689981209 75 205 254 
140.64449534836922 -0.42546102932568264 -682.9433825621669 74 205 254 
143.14073589968893 -0.4645471158285881 -680.6809779087231 75 204 254 
140.90489521307512 -0.33656077839801135 -679.8737785591758 75 205 254 
141.24120184684088 -0.38535378862524894 -681.5352851586905 74 205 254 
144.62376707726466 -0.5392235295258425 -678.1581137728278 74 204 254 
142.88686888536637 -0.47474076221429407 -682.1194806129724 74 205 254 
141.57446698195744 -0.42666846213714127 -679.0337986711688 75 205 254 
142.98615991753687 -0.46508733714176564 -681.1580136403493 75 204 254 
141.3456970048046 -0.44111591326850874 -682.6668606014154 74 204 254 
139.85749708887175 -0.3701596246815626 -683.7273304338299 75 205 254 
143.88076233944213 -0.19990019101183254 -677.3583171395921 75 205 254 
146.11445759014407 -0.21719474163821406 -679.0641686182232 75 204 254 
142.08436586376408 -0.4532753330146315 -677.576535035348 75 204 254 
141.797214512028 -0.3753867517666123 -678.5410346046519 74 205 254 
141.99836740244322 -0.40767927678183646 -680.7771566423577 74 204 254 
140.9438269999657 -0.3638960660029795 -680.9389460728038 75 205 254 
144.39946552600392 -0.557140324520387 -679.7566573760506 74 205 254 
144.52082688330913 -0.5320832520094729 -681.2035854409447 75 204 254 
142.49869199197852 -0.4379314588343117 -680.9686351074379 74 205 254 
143.29797369101897 -0.49327132047318756 -681.3324696076565 75 205 254 
142.67808529459708 -0.44038524978008375 -680.5260812034879 74 205 254 
141.99657926817915 -0.3834076233011716 -678.0724875129561 74 204 254 
140.49811082778152 -0.3941897963470602 -683.4379355631511 75 205 254 
142.80423526124608 -0.46634479041561505 -680.0154194313069 74 205 254 
145.98012090566584 -0.4039105165476693 -678.9394875016583 75 205 254 
140.86065817243139 -0.39589848810386563 -682.4866005146467 75 205 254 
144.66494917064506 -0.3564881694277089 -678.1353410149161 75 205 254 
143.194638901901 -0.5032975307633301 -679.0491552758346 75 204 254 
140.0107513244315 -0.38558846239516065 -683.2254025407991 75 205 254 
142.37204347487838 -0.449770558916768 -679.8465285075382 74 205 254 
143.97802838297224 -0.5203367194314472 -679.9076210472041 74 204 254 
141.2781227341187 -0.3621518600512381 -679.9451854058017 75 205 254 
141.41220208747148 -0.4001423927396983 -679.4971430076519 74 204 254 
142.99435796174365 -0.10378471883944673 -676.5441791489611 75 205 254 
141.08086499216537 -0.3414901988448582 -680.4106481540848 75 205 254 
141.0647301158224 -0.3733165792444808 -682.0260791864329 75 205 254 
141.5243537944518 -0.4098518706610399 -682.185777315415 74 204 254 
142.30997017740287 -0.3824801486995488 -677.2431903764276 74 204 254 
142.67681427440303 -0.6725933134939313 -678.256125381467 75 205 254 
142.15005831643208 -0.19896465121328877 -676.5973163106081 74 205 254 
140.40863048885575 -0.35814107048460997 -682.3360176543791 75 205 254 
140.18951785454752 -0.389423701500208 -682.7592323577605 74 205 254 
139.83984467403678 -0.35395273152674367 -682.700554028431 75 205 254 
142.74759603986269 -0.44747491753244883 -678.8902336646611 75 204 254 
144.19309281694802 -0.4801816685690916 -678.3740605727794 75 204 254 
140.45589975461942 -0.4789700087756321 -680.9534245536231 74 205 254 
142.53590681699012 -0.450342573680123 -676.9205075622858 75 205 254 
139.98613669502828 -0.4525344556763917 -679.2325402638492 75 205 254 
145.65865050999548 -0.43287986361927366 -678.954713705498 75 204 254 
143.4587603678495 -0.5381010051028774 -678.2328747795973 74 205 254 
140.068698431939 -0.49873344939159914 -681.9007087382912 74 204 254 
139.76338572172358 -0.49132062901765394 -678.8335127957552 75 205 254 
141.85655104555048 -0.5465310587010599 -681.5234008146977 75 204 254 
143.55241104448447 -0.3511195956232749 -676.9334247705995 74 205 254 
141.19539696107273 -0.47117389734711335 -677.5098117376872 74 205 254 
140.59005917001713 -0.4534435997570352 -676.4607217997028 75 205 254 
139.25268408895684 -0.5055864664697607 -682.6593442149633 74 205 254 
142.0416967591604 -0.5378810741459086 -681.037247272359 75 204 254 
142.96082832237843 -0.4412080024477696 -677.1058624540235 74 204 254 
141.90346347119254 -0.5210817213567056 -679.9015259743497 75 204 254 
138.4081928317534 -0.4395943876013515 -682.3547443866419 75 205 254 
143.8632427444863 -0.33831290512432055 -677.1464362547003 75 204 254 
142.0073549953394 -0.5973747140352641 -682.0338318763077 74 205 254 
141.644821606979 -0.5145674623784329 -677.6288876361638 74 204 254 
142.6764692019316 -0.37607176364684314 -676.5093564219839 74 205 254 
140.86126899506937 -0.468108839378897 -676.8494860180093 75 205 254 
142.31190009848277 -0.5505161473820133 -681.0666385092283 74 205 254 
142.73942184624372 -0.3095808174389516 -676.049020632465 74 205 254 
143.7950820841377 -0.4984238488320196 -677.8241634651957 75 205 254 
143.18794894535088 -0.5528810293173603 -680.2682566223392 75 205 254 
142.88735094496775 -0.5532701069839483 -680.2799795604807 74 204 254 
141.62093968025232 -0.5756785206250701 -682.8656741995253 75 205 254 
142.17340877145824 -0.3890507174364144 -676.2903214516284 75 205 254 
139.09625744998982 -0.5179969943473184 -683.1017384634416 74 205 254 
141.7322902656739 -0.5344260790280337 -680.364540712241 75 204 254 
139.78952199094593 -0.4616841190998109 -681.2627876872045 75 205 254 
139.08301988997664 -0.4224523993626912 -680.4839783102533 75 205 254 
141.75830170597888 -0.393382032249745 -676.1122746969234 75 205 254 
141.14087096289495 -0.5143214204414743 -679.0512023769613 74 205 254 
139.5292215726218 -0.5354804793572674 -683.2338343704137 75 205 254 
140.20893772590455 -0.4084648465514418 -677.6696958490508 74 205 254 
141.3179537789732 -0.2736173809740281 -674.95302961183 75 205 254 
140.72908045737756 -0.4892458878380257 -676.7284620535971 74 205 254 
144.65037196325255 -0.41828749900656437 -677.9734203570584 74 205 254 
140.76593760886792 -0.42153779769837474 -675.8350236961296 75 205 254 
141.9586231379818 -0.5055478724263915 -678.336160086088 74 204 254 
140.9335400022748 -0.4975598893790938 -681.157876207067 74 204 254 
145.48011475117272 -0.360862442055935 -678.7730620358105 74 205 254 
141.3279867385777 -0.49463143313615276 -678.6021176093944 74 204 254 
141.5837376056955 -0.28007659775362015 -675.1082741760624 75 204 254 
140.55824839315858 -0.4557378894409787 -676.669934445815 74 205 254 
145.69278569548644 -0.3832447235233314 -678.9831616165702 75 205 254 
142.2354782260434 -0.550491474899677 -680.5600507594446 75 204 254 
139.182938141276 -0.4407150403923845 -681.532893093541 75 205 254 
142.31114440710115 -0.31881034975087275 -675.8360793988238 75 205 254 
140.69929487756735 -0.4931680083378369 -678.8764681952337 75 205 254 
139.76032550993267 -0.48062080855534894 -678.7404841941343 75 204 254 
140.01272307736184 -0.45970180330090216 -680.7895840709978 75 205 254 
138.91705870599617 -0.5163743252288668 -683.3989811464339 74 205 254 
142.25673120760334 -0.541421387907433 -678.9596946399595 75 204 254 
141.8411740210363 -0.49561081724862444 -677.252697482541 74 205 254 
140.58157084516566 -0.4222069212013384 -676.6123346145912 75 205 254 
141.3670875748395 -0.49962039390778834 -677.1198558567456 75 205 254 
141.48111993711734 -0.48337382268622253 -678.1395925207661 74 205 254 
145.44528187299738 -0.40044327129837853 -678.7571087322345 74 205 254 
141.5571570957024 -0.44943454472683 -676.5746777439675 75 205 254 
141.25731017327672 -0.5124201980347927 -680.1951087928729 74 204 254 
141.0436039978174 -0.4563696953985712 -677.9684825919901 74 204 254 
140.75781778947416 -0.5046159181369472 -681.600776226138 74 204 254 
144.71905935581643 -0.43564114046176794 -678.1056824609017 74 204 254 
139.61134845066871 -0.467642742984534 -681.7261010162844 74 205 254 
138.55424577413845 -0.4262765445732022 -681.8723355459238 75 205 254 
140.82776022962457 -0.5738983458035403 -682.7043313381209 74 204 254 
139.8823772101843 -0.45364137871271915 -678.5733483271312 74 205 254 
145.32696269154806 -0.33701397997870686 -678.5935839032976 75 205 254 
140.2611203465918 -0.48184032377092745 -681.4093604716 75 205 254 
140.7373674253673 -0.38925038440803217 -676.2595910248864 75 205 254 
141.3375276879019 -0.5709903909537353 -682.8513715989934 74 204 254 
140.5322522119493 -0.427547071252083 -677.7929053817733 75 205 254 
142.3510344122841 -0.47771384259991834 -677.4170645757172 75 205 254 
142.14874644690346 -0.5700557891799969 -681.6901830851737 74 205 254 
138.80405184602498 -0.41556980429361 -681.405719500551 75 205 254 
139.88849126158524 -0.5234463515251218 -682.3548671174914 74 204 254 
141.5517191972641 -0.5258530076727119 -680.837299678527 75 204 254 
140.70007027498312 -0.4396911330010642 -677.3715022399393 75 205 254 
141.37280930793312 -0.5216320303494957 -681.2969965236574 75 204 254 
143.4970637562549 -0.46968342454159195 -677.6528766925617 74 205 254 
141.40381939290407 -0.3462903079208477 -675.6235255077804 74 205 254 
141.11495389217902 -0.5076735864930457 -680.6711960330177 74 204 254 
140.1913545322605 -0.55548861550347 -682.9599582682187 74 204 254 
141.9370736088688 -0.3219958298594978 -675.7479676673426 75 205 254 
143.02459383017137 -0.373458924510218 -676.6809401553246 75 205 254 
143.06888900364882 -0.28624885071657413 -676.2932110587594 75 205 254 
141.215371640788 -0.5396651637006329 -681.7926811053012 75 204 254 
143.26059506932 -0.44685940861452345 -677.3346550809424 74 205 254 
140.87246445606885 -0.4093880512791461 -675.8090522950719 74 205 254 
143.52614294317976 -0.41658689987470954 -677.3072046191095 74 205 254 
140.62823282904188 -0.4910355079918469 -680.4832843034279 74 204 254 
140.42096020526222 -0.4514096713435869 -676.9925367981407 75 205 254 
139.70091321789235 -0.5388103670230171 -682.8194961109804 74 204 254 
142.00411743214713 -0.4635227615061579 -676.7324627349865 75 205 254 
140.34497549675868 -0.4201959575522949 -677.2276408087289 74 205 254 
140.96437701731156 -0.48325373786985004 -679.5688402081796 75 205 254 
140.14487241418217 -0.46911344240590136 -680.3077857497245 74 205 254 
143.31640504393334 -0.3974325748706793 -680.7518089960411 75 204 254 
141.5778765964019 -0.3504817816963808 -675.2903988152137 75 205 254 
142.53881622053606 -0.3874034206922996 -679.927790057382 74 204 254 
142.47056355239283 -0.36076086805644536 -677.2210918279776 74 204 254 
142.08240516747898 -0.39008514817064555 -676.3230836828204 75 204 254 
142.2366291513533 -0.37721969062905814 -676.5723218507854 74 204 254 
143.02018207343872 -0.4013797883532799 -680.866754798361 75 205 254 
142.8487414953788 -0.389497588629685 -680.592280608812 75 204 254 
142.65467443538373 -0.3969782603931433 -681.0348172749336 75 204 254 
140.32784746652356 -0.2878068703572545 -680.1623667791115 74 204 254 
140.97518666656214 -0.26870237136286956 -675.5812416879244 75 205 254 
141.56943951559572 -0.3599960201589445 -679.5767535881906 74 204 254 
143.0346030218456 -0.3509649600677731 -676.5894554010085 75 205 254 
142.1563317195862 -0.3965281697474614 -676.1625437721203 75 204 254 
143.11230087238278 -0.3892327176998043 -680.5754551945482 75 205 254 
141.8526342251841 -0.38555830429609994 -681.8192727885462 75 204 254 
143.9992609514539 -0.40331673821896885 -678.7144848610527 74 204 254 
137.19077744395653 -0.15515732785358427 -681.6337228159646 74 205 254 
142.19456311180096 -0.3862555267836205 -680.8707699839637 75 204 254 
141.31036338046565 -0.32999599595000273 -678.9435167471801 74 204 254 
143.7292741800741 -0.3921198521847984 -679.8119147859463 75 204 254 
143.11239970077816 -0.4360448476030907 -676.9038493514464 75 204 254 
142.8872666900802 -0.4005205626667294 -681.1688456728936 74 205 254 
142.37371773401605 -0.3772646113341578 -680.3853029777675 75 204 254 
143.9821440170655 -0.4254507235375389 -678.5362633320658 75 205 254 
143.63263736664345 -0.38431126593762155 -679.3330378264385 75 205 254 
141.684029131933 -0.37122644046324194 -680.6848328658301 75 204 254 
142.6669852026644 -0.4487913625032922 -676.694663775354 75 205 254 
142.0982734847177 -0.37762649465370934 -679.7548744877205 74 204 254 
142.67086646983617 -0.4112941357695208 -681.7318765736793 75 205 254 
145.75756834380616 -0.3574176873366426 -681.549185517259 74 204 254 
141.75079068000895 -0.3216638196816959 -676.4827494845787 75 205 254 
141.6897189787756 -0.3311343167734293 -676.268429176524 74 205 254 
138.2919693041794 -0.17571693314797088 -678.8133559786737 74 205 254 
141.76534510090934 -0.3476269170796069 -679.0545319469463 75 204 254 
142.1480639552413 -0.30001967878101077 -678.1995172166276 74 204 254 
142.03601174585447 -0.3930582313372559 -681.3272471453175 75 204 254 
141.60163633429764 -0.2929580755663661 -674.8972619476804 74 205 254 
144.3698125867087 -0.41648613058879747 -679.1219807781771 75 204 254 
144.0877166880926 -0.3956125537777968 -678.9327576623432 75 204 254 
143.81596692217636 -0.40166830213927973 -680.9427753684173 75 205 254 
141.52844312669015 -0.29279444760445283 -676.8618236397512 74 205 254 
144.47775723634038 -0.39384003017795255 -680.6529802764184 75 205 254 
139.0508672890168 -0.20499096358017166 -679.1940944093412 75 205 254 
144.0000435355625 -0.3962265720222842 -680.4734638729796 75 204 254 
138.33577641870215 -0.18948718284774113 -681.051880657587 75 205 254 
139.30680032007538 -0.2782298991436969 -681.4088229151367 74 204 254 
143.8916144285326 -0.3739312083338042 -679.3552448531223 75 204 254 
144.39685446299887 -0.38200433535878364 -679.5448820437034 75 205 254 
142.97466178720276 -0.42892229939124427 -677.3394103676164 74 204 254 
144.2881054385986 -0.4030464215325189 -681.1180821175559 75 205 254 
142.4838684094271 -0.4076739395597162 -681.49543199586 75 204 254 
141.54202425567678 -0.3700358152486283 -681.126832903793 75 204 254 
140.93454693325117 -0.2584622154449159 -674.1049432767695 74 205 254 
143.64237338644915 -0.34951243702348744 -679.061259357722 75 204 254 
141.88279716649353 -0.37815625334526626 -675.9684325208357 75 205 254 
141.12867736756363 -0.33342861422007175 -675.0813896751906 75 205 254 
141.44566134682844 -0.3445608653905925 -680.014820703129 74 204 254 
140.63875479057782 -0.27654536708403743 -674.9399341486503 75 205 254 
143.69501736836705 -0.4122474348607419 -678.2734738010327 75 204 254 
141.45587331501525 -0.30659167108743013 -676.5725339259413 75 205 254 
143.3304269043568 -0.44436553497383624 -677.6349807725796 74 204 254 
141.27294441180004 -0.35059577057703617 -680.5218794286928 74 204 254 
144.73734379795783 -0.39601437100463066 -679.7625927286174 75 205 254 
142.7841812430307 -0.4155900253559617 -681.493701037983 74 205 254 
143.1671356619732 -0.38626221598292165 -680.4105913564589 75 205 254 
142.71855467233274 -0.3779800374669522 -679.4513564317112 75 204 254 
141.3695487132103 -0.3841507264955224 -681.6439048443017 75 204 254 
143.55994519972174 -0.3612522319771081 -678.6911124646078 75 204 254 
142.28219678026693 -0.39170654330942156 -681.8778936656955 74 204 254 
142.02748457201432 -0.3294696250174267 -677.0490384446524 74 205 254 
143.52258009637669 -0.3947657833128666 -680.3415353959143 74 204 254 
141.41383700691142 -0.3318710944237928 -675.7301965706972 74 204 254 
143.3771220301205 -0.37194906716532294 -679.1812937402412 75 204 254 
140.8092165307158 -0.315714165201614 -674.4473740849949 75 205 254 
143.4405151267345 -0.3935771823017724 -679.809822870491 74 205 254 
144.10062289867255 -0.41430450788087203 -681.5718350621119 75 205 254 
142.9154385136242 -0.40653405306108326 -681.1331248042221 75 205 254 
139.53291365151105 -0.11555364165419668 -675.4961633722166 75 205 254 
141.86274895397713 -0.3614277738593836 -680.2264012727005 75 204 254 
143.21839980088131 -0.3868330445742023 -679.6278753583301 75 204 254 
142.184127814693 -0.3106101623204216 -675.5636533713214 75 204 254 
140.79686313665854 -0.3206996854091777 -680.3271163233399 74 204 254 
141.10530934591634 -0.3445205694702427 -679.3417599344376 74 204 254 
138.68576682810468 -0.23536646142457673 -681.1520537337102 75 204 254 
140.3111297622286 -0.2849976138055119 -674.2997669303769 75 205 254 
141.27126221363193 -0.30927828733105844 -674.6762886836258 75 205 254 
142.3895245087776 -0.3193194594086357 -675.8247014201783 75 204 254 
143.16274011867998 -0.40617404717397143 -681.2252440204915 75 204 254 
139.4948159992451 -0.23345323422989672 -679.3626920014863 75 205 254 
141.67545409096172 -0.27769795437633604 -678.0094419423955 74 205 254 
140.72821367160893 -0.22455151992451938 -677.6580270791466 75 205 254 
141.27496574792676 -0.28563303184130806 -676.2031491675612 74 204 254 
142.99281467845287 -0.40844489176222787 -681.7061765894109 75 204 254 
141.9975050308904 -0.3293515121474764 -675.4436963754181 74 205 254 
140.97447989525983 -0.32406669485150275 -679.8177747574789 74 205 254 
144.58638627531494 -0.40533034785652333 -681.6274283634717 75 205 254 
143.69981369795448 -0.3520562529992146 -678.9680860685029 75 205 254 
140.94952316049165 -0.36535308135041067 -681.4458396696668 74 204 254 
140.8269647503635 -0.25139064038018333 -676.059972889613 75 205 254 
144.39196259965564 -0.33378275301401583 -679.7302660116727 75 205 254 
141.43441320905245 -0.4134391211395698 -681.5452521266411 74 205 254 
137.50596075865312 -0.01664526378191944 -677.215410450264 75 205 254 
141.0423532081504 -0.3061484120894713 -679.9848028519837 75 204 254 
142.74343269409493 -0.3985339062018989 -681.1523427130461 75 205 254 
142.6896506225809 -0.31567418500286504 -678.4773758947198 75 204 254 
140.7152570882606 -0.19091196212522643 -676.6209953464304 75 204 254 
137.03292226131916 -0.09066358594126722 -679.008252514169 75 205 254 
141.07660556697934 -0.1885713112559193 -675.8237925295138 74 205 254 
143.13881544375454 -0.32623771342367025 -678.6608487306789 75 204 254 
141.1494864823759 -0.31397665966523736 -680.582627385054 75 205 254 
141.9528672376476 -0.29810305049377916 -678.7991423385743 75 205 254 
139.2083660066268 -0.35177144228042945 -681.8723451984645 74 204 254 
141.7281544278098 -0.31600545520800427 -679.8645478231437 75 205 254 
142.23540383132604 -0.2508022274828079 -676.8176055273308 75 205 254 
142.4652482446781 -0.2598564897839175 -677.0335937822667 75 205 254 
141.41116928097938 -0.3261299477285249 -680.6313036910065 75 204 254 
143.2979379939294 -0.3589431253283166 -679.757109391738 75 205 254 
144.6424272942559 -0.33069685625267464 -679.902905529243 75 205 254 
140.53943670230984 -0.35390334463943685 -681.3992175519465 75 204 254 
141.74431220023294 -0.27424305824082396 -678.0607894242266 74 204 254 
140.85526808038546 -0.192666705369267 -676.2174547061152 75 205 254 
139.79983481683885 -0.23885429559241356 -678.9468245021101 75 205 254 
140.91901641451227 -0.39358876865724834 -681.4794490133859 75 204 254 
138.8888318297096 -0.04425988579382878 -674.3333618208114 74 205 254 
139.0076699338583 -0.18592738931676056 -679.7034109353908 75 205 254 
141.0675088127538 -0.3611636843247785 -681.1772075760526 75 204 254 
142.58268500911092 -0.30239413206205423 -677.9116149800457 74 205 254 
143.99821315008168 -0.32363076622396303 -679.1126440590008 74 204 254 
137.29248083703118 -0.08202805762951204 -678.7004152207573 74 205 254 
141.41113634938912 -0.3283174143843306 -680.0744778784075 74 204 254 
141.13794241253044 -0.2273061284736979 -676.7672893094947 74 204 254 
141.18568480857945 -0.37663785504117353 -681.4057542222965 74 205 254 
142.18893203488167 -0.29345761904765144 -678.7432118957354 74 204 254 
142.8894053283026 -0.2848827152612694 -677.649037666628 74 205 254 
140.9945040255643 -0.21335705594724974 -677.2800163502824 74 204 254 
137.83528903048744 -0.22346051471570405 -681.3906385372146 75 205 254 
142.15286685888123 -0.3429848123348629 -679.9262916921541 75 204 254 
138.04578087492885 -0.29546007604698943 -682.0910200582088 74 205 254 
141.72671503531654 -0.2172502277565247 -676.1696295654571 75 205 254 
144.78334536263844 -0.32644510923986925 -679.9977369857518 75 204 254 
141.78994842226763 -0.35488196978620756 -680.8188684532117 75 205 254 
142.13615119269815 -0.29770940565728043 -678.2676846247072 74 204 254 
143.58084374237308 -0.309501500928822 -678.4931939229815 74 205 254 
141.79653171002911 -0.3381497807880578 -679.2432330620793 75 204 254 
139.474359597584 -0.08901044665176183 -677.2618852840529 75 205 254 
142.81028101636898 -0.3561362485442592 -679.5973323666052 75 205 254 
143.7747266298256 -0.3593272163564629 -679.9478762073982 75 205 254 
142.4506981660506 -0.36606931313811764 -680.5349973041605 75 205 254 
141.99921443540376 -0.346299265769173 -680.416379703647 75 205 254 
141.57409248711645 -0.3200427848168719 -680.2541951423827 75 204 254 
140.9303413509486 -0.2879650576738513 -678.8658619587363 75 204 254 
139.33358269535367 -0.06947742733663098 -674.5542300482401 75 205 254 
142.5351274121857 -0.3155457077814914 -678.9472373048071 75 204 254 
142.07842167884803 -0.3298518734536815 -679.211024801684 74 205 254 
141.21905091542862 -0.31607094245323264 -679.4813720235571 75 204 254 
136.68885053473423 -0.06742427911865256 -678.9666469102428 74 205 254 
140.39733014385527 -0.2671660115599712 -680.2941581642151 74 204 254 
138.64138590008093 -0.10081413617278301 -677.9389385478472 75 205 254 
137.87994958997132 -0.33636400070342276 -682.2780100893855 75 205 254 
139.55350079831808 -0.2903147738494347 -681.0493156628705 75 205 254 
138.26549565602892 -0.25547832187641717 -681.6168242965784 74 205 254 
140.5408178243274 -0.2806630538916819 -679.8375506135508 74 204 254 
143.40683491652138 -0.38279149663665546 -680.880296715616 74 205 254 
140.71627390213695 -0.3214209289235894 -680.9283857810399 75 204 254 
140.7924479607234 -0.15489250222149487 -675.1301068388786 75 204 254 
142.36092093926513 -0.29994913344949303 -677.8350729175257 74 205 254 
140.27167940504413 -0.2695252657352052 -679.1398897001457 74 204 254 
140.20555336947885 -0.2791755961140945 -680.7005940031614 74 205 254 
141.457427648435 -0.2067215053717968 -675.9304362774096 74 205 254 
141.64071179844655 -0.25528322550017 -676.9931418832788 75 204 254 
139.90698556287367 -0.10880281705351447 -674.2368954239606 74 205 254 
142.0924541209055 -0.4106990121193945 -681.3663150793295 75 204 254 
142.61152883195228 -0.3560990080550521 -680.0878122772822 75 205 254 
141.5579172777775 -0.27210669600505355 -678.5977118837177 75 204 254 
143.09796947495389 -0.36339166786230237 -680.2650520897148 75 205 254 
144.3068810795463 -0.31923548326951856 -679.3390487030885 75 205 254 
141.26581698960408 -0.3579386347108944 -681.1346156361717 75 205 254 
139.30029040919766 -0.2086235201420985 -678.7772632285521 74 205 254 
141.37768683677922 -0.31665322055252876 -679.0650723119031 75 204 254 
140.81781935428972 -0.19249637560177568 -677.7801276168547 74 205 254 
142.10579605190986 -0.2699780992932901 -677.1758545501895 74 204 254 
140.07304908580033 -0.2509368947287953 -679.6690359690144 74 204 254 
137.64851771343396 -0.10357544291471577 -678.8174921319194 74 205 254 
137.9574915410062 -0.2102964906131648 -681.0263307260793 75 205 254 
138.11778005452345 -0.1533286590327645 -678.7883476718877 75 205 254 
139.6893985492735 -0.11748476172462041 -675.0716571372731 74 205 254 
139.77418660227627 -0.08491281229390957 -673.7562988429518 75 205 254 
139.82636282235342 -0.11777506284219719 -675.2249675886164 75 205 254 
140.4132751924194 -0.15658440941841967 -676.0466570124325 75 205 254 
142.88354709828948 -0.3030015998117497 -678.0186730762236 75 204 254 
142.39884216288183 -0.30744271868752104 -678.3945125240612 75 205 254 
140.76638226628708 -0.29744099400855006 -679.290036422786 75 204 254 
143.443467156482 -0.3387709786599 -679.3282008579661 75 205 254 
140.47852649870387 -0.2548545847514827 -678.6898179231393 74 204 254 
142.36415062312278 -0.34670147964912257 -679.4166870994113 75 204 254 
139.89470617688974 -0.1025164428254266 -673.8454846943102 75 205 254 
142.9762284788061 -0.3298315564742724 -679.1313002411248 75 205 254 
142.48707096821718 -0.4129945922952789 -681.4120466071348 75 205 254 
142.46413410312485 -0.2787617290551161 -677.369873786814 75 205 254 
136.78705328009346 -0.2905019061610785 -681.9291598689288 75 205 254 
141.75899373665231 -0.3185697278459205 -678.1082625894471 75 205 254 
138.54948876101474 -0.271156225396159 -680.6376821264832 74 205 254 
139.50459508398933 -0.33420469660263663 -681.0344215882807 74 204 254 
141.08863690155758 -0.3785702690743342 -681.0559367927111 75 204 254 
139.9304944676295 -0.21806535523686232 -678.5303870702735 74 204 254 
140.9119737645085 -0.20465724058621326 -677.7985204198734 74 205 254 
141.8017881134846 -0.30496925333634195 -679.2214431664817 75 205 254 
142.76447549622173 -0.32575582629400834 -679.5723469654428 75 205 254 
140.72392197799405 -0.283792083655106 -679.3321940841521 74 204 254 
137.4271615789172 -0.23448483661956931 -680.7372413547537 75 205 254 
138.77185043400965 -0.09328029458531173 -674.3473088728006 74 205 254 
142.09316590293815 -0.3267561330596189 -678.2419767216544 74 205 254 
138.04802073457398 -0.2408704783447151 -680.4948996762226 75 205 254 
141.4729413923651 -0.26266499063889803 -677.5183716372345 74 204 254 
137.52496363881752 -0.09574675467105376 -677.6041846289121 75 205 254 
137.9546157870768 -0.20172187557337917 -679.4405054936367 75 205 254 
140.48085564592236 -0.27567463835755124 -679.1927714463029 75 204 254 
140.99123835127907 -0.30779300046692537 -679.9745565590118 75 204 254 
140.30440680235563 -0.1729332331411948 -677.6233291135767 75 205 254 
140.05243472418908 -0.3654587534099871 -681.1645337800989 75 205 254 
142.27538940463626 -0.3191733717149736 -679.3987154288228 75 205 254 
137.17771163522963 -0.1830389305804383 -680.125395225525 75 205 254 
136.25703279569547 -0.04982619422529577 -678.2129046323406 75 205 254 
136.69508240554592 -0.15558688401754406 -679.9558174281655 75 205 254 
141.20467058329714 -0.32226399170724385 -676.7638261189779 75 205 254 
139.8102706233168 -0.3630475731744056 -681.2018785178972 75 205 254 
135.7088799678639 -0.06884784859654136 -678.5381243333794 75 205 254 
142.43123848457512 -0.3115253286589166 -678.9548589782914 75 205 254 
139.27901964761435 -0.21951717390349934 -678.7281173540005 75 205 254 
139.7073804707254 -0.30210332405007634 -680.5587792639814 75 205 254 
138.2361340067768 -0.2305365285568568 -680.0184775257009 75 205 254 
142.8073549015163 -0.32723056999240807 -679.213175938326 75 204 254 
141.14431190222433 -0.23302513663844326 -676.4822029416486 75 205 254 
141.46533070907077 -0.32263579508858875 -680.1476369929574 75 204 254 
136.94561428456703 -0.19504438328443285 -680.5548031307354 75 205 254 
135.71876552078368 -0.24111261086800884 -682.0638103874442 75 204 254 
138.4345343954571 -0.08030695775810415 -676.8851117218937 75 205 254 
137.92658167876166 -0.01118628219839124 -675.592528663105 74 205 254 
140.68055387526934 -0.19888412837137093 -677.7522830763655 74 205 254 
142.10499804057343 -0.3277047945976692 -679.893044011496 75 205 254 
138.76616123132735 -0.19818471261054516 -678.6278600283833 75 205 254 
141.53388933502023 -0.33578976476088496 -677.0350471630205 74 205 254 
137.20017372268381 -0.06014463965776429 -677.4134782631575 74 205 254 
138.92298461303642 -0.16593708807776064 -678.0409498752125 74 205 254 
139.1856294718772 -0.27840121078230506 -680.4002711920996 74 204 254 
143.2182783952469 -0.32942715197389383 -679.7642567961617 75 205 254 
137.91798436073552 0.017522428089509212 -673.9647273101058 75 205 254 
139.64415245160103 -0.25794625968407914 -679.3911418349014 75 205 254 
142.01334254149253 -0.2935956377454012 -678.7255136486309 75 205 254 
141.16723316532483 -0.30009683194912373 -679.5239390798115 75 204 254 
137.27038142576538 -0.25874811005695353 -681.2335777630196 74 205 254 
138.9213822444889 -0.03054084285360492 -673.5503528725179 75 205 254 
136.62544920656882 -0.08606205506580267 -678.3653005828569 74 205 254 
138.3063769600092 -0.032766550874196554 -674.1798593611862 74 205 254 
142.4088819141276 -0.34595683662373666 -680.5257363721129 75 205 254 
140.34888808008745 -0.2401309459672074 -678.6764436593662 74 204 254 
141.87630001459607 -0.3111846029844214 -677.2531710276131 75 205 254 
140.48262295164508 -0.21468301327401473 -678.2915451897986 74 205 254 
137.5162221305941 -0.17404338005619113 -679.3205921814823 74 205 254 
139.82836644970774 -0.17019909942021538 -675.7614131837347 75 205 254 
142.8807155502324 -0.35369454486343077 -680.6658108032595 75 205 254 
137.07783740577645 -0.27863173440269406 -681.6669319831286 75 205 254 
140.08505061356828 -0.16461638617933616 -676.9633289773332 75 205 254 
139.15053300317516 -0.24248023783011075 -679.2981885236803 75 205 254 
140.60391554202693 -0.20176688974572343 -676.7053873720894 75 205 254 
141.49747032364917 -0.2604573561963708 -678.657943998674 75 204 254 
141.26033458493546 -0.2393686551605354 -677.943171767202 75 204 254 
139.85055352142894 -0.14717124021434191 -677.3030226895324 74 205 254 
141.83180238228067 -0.3147354290687865 -677.7182249574739 75 205 254 
141.38896493515256 -0.34733535904070933 -677.4618605574332 75 204 254 
140.172084385932 -0.32591057531337597 -680.7597038507611 75 205 254 
141.31404505209073 -0.28508806732806846 -679.0296394259415 75 204 254 
140.55099092868807 -0.28961931665817087 -679.812246343334 74 204 254 
140.7579537351758 -0.39003016910320554 -681.2508402896441 75 205 254 
138.1741373331017 0.10177508750810826 -672.6809741362046 74 205 254 
138.72684174037892 -0.25190341850429476 -680.1874436135131 74 205 254 
140.61944446053877 -0.23835566809544684 -678.6367249832009 74 205 254 
140.03120035955337 -0.27200666239324 -679.5668338673789 75 205 254 
140.35818475756156 -0.38096635944785096 -681.2219419587907 75 205 254 
141.74753364235733 -0.3627272816630116 -680.8059925174255 75 205 254 
136.0077823867572 -0.09632001275271129 -678.6038629903801 75 205 254 
139.99174693417362 -0.16201426001513486 -675.3348849181793 75 205 254 
140.2010044079136 -0.266303718331363 -679.1857395004919 74 204 254 
140.32261743956803 -0.3000080179134974 -680.2485805542408 75 205 254 
141.3477387759543 -0.38940506623200744 -677.7798688891253 75 205 254 
136.40525062080724 -0.2578970930137281 -681.8808981500877 75 205 254 
141.64488742219515 -0.3141190455592433 -679.7055308555624 75 204 254 
142.38454434433282 -0.31201423580585175 -678.5238110109269 74 205 254 
140.6351402285887 -0.2834957249071959 -678.9623617710783 74 205 254 
139.4679176146995 -0.19203671267516675 -678.3062984413305 75 205 254 
139.90077583900717 -0.3227091536983151 -680.7208664544906 75 205 254 
136.42899133297755 0.02466538363483739 -676.6763266368542 74 205 254 
139.71096173815903 -0.24275532627601404 -678.9767876259335 74 205 254 
136.66091657316719 -0.12508677042342775 -679.0924367391686 75 204 254 
140.60279619041836 -0.3566601265485163 -680.9412597812928 75 204 254 
138.63844916041407 -0.21967571462046198 -679.0717261080088 75 205 254 
137.9127470705726 -0.26520628943936675 -680.9414278560855 75 205 254 
140.24394195751051 -0.2796290519713631 -679.7199870028875 75 205 254 
140.8708562345444 -0.2665052774071395 -678.9008520595272 74 204 254 
138.71848873085492 -0.23964999683787536 -674.5213398542634 75 205 254 
135.75516541632058 -0.3052670711640548 -681.2653276825861 75 205 254 
137.20190924691047 -0.29480272669384977 -680.2425684460907 74 204 254 
138.1239261687298 -0.24058900501824 -677.9525667589267 74 204 254 
139.10560190904476 -0.27912287242906775 -678.2444022968542 75 205 254 
141.06775769327447 -0.3722288497123438 -680.1189655829284 75 205 254 
141.58522314081708 -0.33783865735570373 -678.7342696222702 75 205 254 
136.60327030353326 -0.23404822601424247 -678.917407892127 75 204 254 
136.20047480297134 -0.09336160781315428 -677.3006008858993 75 205 254 
139.13908403123588 -0.3475769823403718 -679.916271574631 75 205 254 
137.04401401433344 -0.029610336567141182 -673.7749723141995 74 204 254 
136.94648401240437 -0.04219724227005717 -674.9150306354761 74 205 254 
137.4418724839525 -0.2109892709647454 -678.2612601695461 74 205 254 
138.5718710000207 -0.2618597395409292 -678.1097409242309 74 204 254 
137.0519722326943 -0.10420654213154634 -676.4633645444638 75 205 254 
139.50253693977328 -0.2623532766722896 -677.9874093370679 75 204 254 
138.87886985118774 -0.310396638987811 -678.6899739318102 75 205 254 
135.39800057138217 -0.07388405472247594 -677.96673826576 75 205 254 
140.09790557959113 -0.35895674534075184 -679.8130654032205 74 204 254 
140.5139389134612 -0.31399631671298334 -676.9103848071487 75 205 254 
135.46805262022843 -0.31381294565175644 -681.5044744272703 75 205 254 
138.6684195117884 -0.31602834665302826 -679.2130826835456 74 204 254 
141.43562227534719 -0.3420321871477032 -679.2000422566341 75 205 254 
141.14261705078997 -0.3244707792748409 -678.5301700499398 75 205 254 
140.348663190488 -0.30050661617149466 -677.7141497062654 75 205 254 
138.3497041897713 -0.38710161821282796 -680.9757838789997 75 204 254 
139.795158281265 -0.406949090690647 -678.941303160716 75 204 254 
137.51632643200597 -0.3524807371645551 -680.9080846700911 74 204 254 
138.84644249676631 -0.383304703247334 -680.7530219557874 74 205 254 
139.27347876154903 -0.3340037440354804 -678.899310696512 74 204 254 
140.47872616800072 -0.32345364367181606 -678.8473698302763 75 204 254 
137.04519316905007 -0.3191176129902882 -680.704255134143 75 205 254 
140.28841034143386 -0.35856626988521256 -679.2795910278992 75 204 254 
140.67764507496642 -0.3022147750962496 -678.3783310355419 75 204 254 
139.70913906930537 -0.30090840974660527 -678.5314218851235 74 205 254 
139.8749905381395 -0.2966425568649518 -676.0862803555606 75 205 254 
139.7401112545866 -0.3866024664632768 -680.571550806241 74 204 254 
