4.632236957550049 5.3268723487854 58.89821243286133 255 255 255
1.9780089855194092 0.5138469338417053 63.22611618041992 255 255 255
-9.856314659118652 -1.3679560422897339 81.8629150390625 255 255 255
-11.953072547912598 21.391809463500977 126.54845428466797 255 255 255
-3.863520622253418 5.9865522384643555 69.60983276367188 255 255 255
10.16180419921875 8.536371231079102 47.12362289428711 255 255 255
13.671551704406738 9.272882461547852 52.89836502075195 255 255 255
15.136866569519043 4.905084609985352 52.74740982055664 255 255 255
857.08349609375 -963.2939453125 3038.457275390625 255 255 255
21.185319900512695 2.1075823307037354 64.08440399169922 255 255 255
12.88197135925293 5.37355375289917 51.84818649291992 255 255 255
-3.193530559539795 2.4533634185791016 42.98270034790039 255 255 255
-9.009491920471191 9.782824516296387 51.967193603515625 255 255 255
-73.14234161376953 11.349274635314941 66.35285949707031 255 255 255
-63.795921325683594 0.7730022668838501 49.415000915527344 255 255 255
-74.96051788330078 7.257387638092041 58.198890686035156 255 255 255
-76.31521606445312 4.125406265258789 52.987178802490234 255 255 255
-77.87845611572266 10.483563423156738 51.10901641845703 255 255 255
-75.40935516357422 12.542298316955566 62.89136505126953 255 255 255
-68.46110534667969 -12.247991561889648 -43.50737380981445 255 255 255
-78.20306396484375 -8.207488059997559 -12.653444290161133 255 255 255
7.386204242706299 -7.46093225479126 7.949382305145264 255 255 255
8.098169326782227 -4.832364559173584 -10.257742881774902 255 255 255
10.012500762939453 1.294822335243225 16.62302589416504 255 255 255
9.015913963317871 5.643884658813477 28.86387062072754 255 255 255
17.264694213867188 -9.954358100891113 9.422001838684082 255 255 255
-29.470592498779297 11.085598945617676 57.75029373168945 255 255 255
-32.65769958496094 10.82701301574707 58.104000091552734 255 255 255
2.445039749145508 6.151966094970703 58.76856231689453 255 255 255
2.966287136077881 7.9698100090026855 41.30204772949219 255 255 255
-81.04512023925781 13.502291679382324 69.77132415771484 255 255 255
-77.91861724853516 9.900002479553223 70.63524627685547 255 255 255
-86.25603485107422 14.031061172485352 78.76069641113281 255 255 255
-77.09323120117188 11.149356842041016 78.15662384033203 255 255 255
-75.74726867675781 10.995491027832031 78.13994598388672 255 255 255
-84.44690704345703 15.091635704040527 72.76449584960938 255 255 255
-78.56497955322266 10.028437614440918 78.64043426513672 255 255 255
-77.20999908447266 11.038969039916992 79.30708312988281 255 255 255
-10.03608512878418 4.700287818908691 68.6727523803711 255 255 255
-8.701018333435059 13.781623840332031 80.28085327148438 255 255 255
-22.9581298828125 12.90483570098877 66.85267639160156 255 255 255
-9.924798011779785 5.1002912521362305 68.97112274169922 255 255 255
-56.042213439941406 3.753574848175049 71.61199951171875 255 255 255
13.56607437133789 7.052299976348877 53.313472747802734 255 255 255
6.930775165557861 8.733957290649414 47.44637680053711 255 255 255
-7.053550720214844 -3.4025352001190186 82.9467544555664 255 255 255
5.05938720703125 4.244103908538818 58.81965637207031 255 255 255
-2.418657064437866 1.8107966184616089 70.06969451904297 255 255 255
-3.9841339588165283 -2.5099873542785645 83.16773223876953 255 255 255
11.791753768920898 7.5872015953063965 56.94361877441406 255 255 255
-1.2610431909561157 4.364778995513916 64.3615951538086 255 255 255
22.213884353637695 0.09733014553785324 79.12574005126953 255 255 255
2.834843397140503 6.932271957397461 60.498924255371094 255 255 255
-9.92233943939209 2.477555513381958 74.49546813964844 255 255 255
4.822689533233643 8.064093589782715 59.246883392333984 255 255 255
11.246296882629395 12.447895050048828 69.06498718261719 255 255 255
2.0733675956726074 1.111599326133728 63.843624114990234 255 255 255
5.179289817810059 1.7964239120483398 61.34907913208008 255 255 255
5.905831813812256 10.899932861328125 63.32231140136719 255 255 255
-5.404674053192139 16.402101516723633 96.73675537109375 255 255 255
-77.45635986328125 15.166908264160156 74.4146499633789 255 255 255
-86.67214965820312 10.305670738220215 86.22801208496094 255 255 255
-86.42566680908203 13.87519645690918 78.60325622558594 255 255 255
-76.5518569946289 14.912063598632812 70.96514129638672 255 255 255
-86.16264343261719 10.733217239379883 86.29429626464844 255 255 255
-77.4908218383789 12.067572593688965 76.42432403564453 255 255 255
2.626953125 11.518162727355957 69.66451263427734 255 255 255
-10.578675270080566 12.317471504211426 77.12199401855469 255 255 255
-7.361363410949707 5.300375938415527 70.2557373046875 255 255 255
-7.599931240081787 6.433717250823975 67.65279388427734 255 255 255
-7.14456844329834 6.593217372894287 66.21391296386719 255 255 255
2.207592248916626 7.268303394317627 60.791202545166016 255 255 255
0.16863326728343964 12.616995811462402 66.40562438964844 255 255 255
-12.667284965515137 13.33265495300293 89.5078125 255 255 255
-36.92747497558594 7.580562114715576 75.75009155273438 255 255 255
-17.694820404052734 14.895644187927246 87.1456527709961 255 255 255
-0.5417456030845642 13.661927223205566 85.37681579589844 255 255 255
-9.575202941894531 5.447193145751953 71.06358337402344 255 255 255
3.824965238571167 2.4238572120666504 60.14225769042969 255 255 255
15.883584022521973 1.2866668701171875 72.83429718017578 255 255 255
18.337602615356445 3.0201969146728516 56.21735763549805 255 255 255
18.471118927001953 9.222698211669922 53.87423324584961 255 255 255
17.652559280395508 8.932857513427734 52.35049819946289 255 255 255
-3.9859607219696045 6.014008522033691 70.0220947265625 255 255 255
21.64487648010254 -0.007128480356186628 78.18093872070312 255 255 255
20.460363388061523 3.4847946166992188 53.395294189453125 255 255 255
-57.19212341308594 13.229920387268066 73.18826293945312 255 255 255
-41.895164489746094 14.609789848327637 73.57257080078125 255 255 255
-43.07181930541992 5.043835163116455 65.64453125 255 255 255
-45.5344352722168 4.419945240020752 65.78221130371094 255 255 255
-32.54851150512695 8.043540954589844 73.65570831298828 255 255 255
-60.76038360595703 14.318592071533203 69.9988784790039 255 255 255
-68.47166442871094 9.687158584594727 39.72426986694336 255 255 255
-74.78984832763672 9.289190292358398 60.94857406616211 255 255 255
11.388407707214355 -8.271247863769531 -9.334081649780273 255 255 255
8.797052383422852 -8.292091369628906 -9.104643821716309 255 255 255
8.642800331115723 -6.174327373504639 -9.345739364624023 255 255 255
-21.942264556884766 -4.001224994659424 19.220956802368164 255 255 255
-31.46807289123535 -42.02210998535156 140.25125122070312 255 255 255
13.797578811645508 -7.242187023162842 -6.253928184509277 255 255 255
-13.978992462158203 -1.8591986894607544 7.501684188842773 255 255 255
12.031136512756348 -9.549077033996582 -1.0588147640228271 255 255 255
-5.7389326095581055 -1.4685680866241455 -13.491701126098633 255 255 255
-10.403084754943848 5.359572887420654 68.52479553222656 255 255 255
-13.45083236694336 12.41856575012207 64.72259521484375 255 255 255
-10.035451889038086 9.180335998535156 63.177547454833984 255 255 255
-30.278743743896484 -21.359149932861328 -76.68765258789062 255 255 255
-36.49745559692383 -16.155275344848633 -34.837345123291016 255 255 255
-28.478872299194336 -4.833967685699463 -32.85230255126953 255 255 255
-31.90674591064453 -13.146917343139648 -35.13264465332031 255 255 255
-59.64863967895508 -5.432273864746094 -38.544090270996094 255 255 255
-0.8246258497238159 -22.60980796813965 -82.64849853515625 255 255 255
12.896153450012207 6.080104827880859 52.56377029418945 255 255 255
3.096575975418091 2.6810622215270996 62.89686584472656 255 255 255
20.195907592773438 6.9041619300842285 56.4727783203125 255 255 255
-3.6117517948150635 16.87739372253418 106.90339660644531 255 255 255
-2.8237290382385254 0.34081417322158813 75.09210205078125 255 255 255
13.401249885559082 4.7941718101501465 52.413883209228516 255 255 255
6.2335615158081055 9.163208961486816 49.28998565673828 255 255 255
687.1371459960938 -312.2469482421875 1096.109130859375 255 255 255
0.2651890516281128 -0.7592112421989441 79.95526885986328 255 255 255
13.341499328613281 6.993708610534668 52.90755081176758 255 255 255
-11.408352851867676 -2.058070659637451 85.01282501220703 255 255 255
93.34748840332031 -40.986351013183594 485.40313720703125 255 255 255
-8.479881286621094 -0.6306386590003967 72.50557708740234 255 255 255
-1.0505082607269287 6.887576103210449 41.35205078125 255 255 255
-16.520286560058594 -2.8069870471954346 100.26995849609375 255 255 255
-0.22340485453605652 2.0938704013824463 33.01266860961914 255 255 255
3.907616376876831 0.6332969069480896 81.90450286865234 255 255 255
-53.977603912353516 6.617647171020508 66.56083679199219 255 255 255
-51.94754409790039 7.999420166015625 73.43716430664062 255 255 255
-56.13788604736328 15.01882553100586 78.02960205078125 255 255 255
-2.8152332305908203 11.174883842468262 78.07079315185547 255 255 255
-74.0162353515625 11.5669527053833 55.87839126586914 255 255 255
-74.89624786376953 0.456908643245697 50.70343780517578 255 255 255
-84.02301788330078 -14.618586540222168 -58.95667266845703 255 255 255
-74.2560806274414 4.43446683883667 44.38923263549805 255 255 255
-73.47805786132812 5.5217061042785645 62.279945373535156 255 255 255
-76.96083068847656 5.756931304931641 54.69074249267578 255 255 255
-48.445030212402344 -6.262060165405273 -39.13053894042969 255 255 255
-55.89064407348633 -13.048038482666016 -40.50965881347656 255 255 255
-54.774932861328125 -5.191880702972412 -36.918128967285156 255 255 255
-34.328861236572266 -6.5454630851745605 -39.87419128417969 255 255 255
-48.10069274902344 -8.387984275817871 -39.83424758911133 255 255 255
-19.719131469726562 -13.861330032348633 -36.89078140258789 255 255 255
7.8449554443359375 6.013718128204346 33.20439147949219 255 255 255
-0.9772857427597046 0.7563602328300476 33.42818832397461 255 255 255
20.827726364135742 3.4556102752685547 60.962982177734375 255 255 255
0.8092057108879089 8.069619178771973 43.48469543457031 255 255 255
217.4918212890625 -401.22802734375 1314.6341552734375 255 255 255
6.479248046875 8.77653694152832 53.183589935302734 255 255 255
22.323041915893555 2.7530012130737305 59.931068420410156 255 255 255
-29.883155822753906 11.876959800720215 61.10908889770508 255 255 255
-22.194049835205078 3.610747814178467 80.20464324951172 255 255 255
-18.938133239746094 5.335172176361084 59.34312438964844 255 255 255
-4.6951775550842285 11.022409439086914 87.10858154296875 255 255 255
0.47395581007003784 5.858899116516113 62.319190979003906 255 255 255
1.3013337850570679 8.950606346130371 47.91444778442383 255 255 255
6.077437400817871 2.1913275718688965 60.0264892578125 255 255 255
1.9304121732711792 0.20728559792041779 62.85818862915039 255 255 255
14.008585929870605 6.60061502456665 56.322593688964844 255 255 255
2.982898473739624 8.776939392089844 47.386322021484375 255 255 255
11.445096969604492 7.461535930633545 56.65634536743164 255 255 255
7.2967352867126465 8.859719276428223 57.36566925048828 255 255 255
6.762843608856201 12.293891906738281 70.65231323242188 255 255 255
1.4415053129196167 9.088984489440918 63.147518157958984 255 255 255
-52.61133575439453 21.56328582763672 106.74315643310547 255 255 255
-38.81102752685547 -12.551048278808594 -40.93800735473633 255 255 255
-38.74923324584961 -17.38381576538086 -38.464935302734375 255 255 255
-34.36314010620117 -13.110604286193848 -40.572235107421875 255 255 255
-55.178810119628906 -3.8803699016571045 -29.077817916870117 255 255 255
527.7816772460938 -375.194580078125 -425.1814270019531 255 255 255
-41.03730010986328 -17.999235153198242 -40.012977600097656 255 255 255
-14.633893013000488 4.709518909454346 74.41071319580078 255 255 255
-168.68505859375 27.545703887939453 122.84716796875 255 255 255
-89.56661987304688 -19.13610076904297 -76.3884048461914 255 255 255
-79.41768646240234 -2.5492560863494873 -26.10270118713379 255 255 255
-36.0007209777832 -32.654415130615234 -103.19783020019531 255 255 255
-81.77811431884766 -0.6236568093299866 -11.285459518432617 255 255 255
-36.514564514160156 -32.19253158569336 -101.07025909423828 255 255 255
-58.920928955078125 -11.446260452270508 -34.6308479309082 255 255 255
0.6038522124290466 7.66365385055542 38.92924118041992 255 255 255
15.716266632080078 4.945001602172852 48.81808090209961 255 255 255
-9.197285652160645 0.881664514541626 76.9422607421875 255 255 255
3.6328694820404053 6.263535976409912 59.54300308227539 255 255 255
5.175964832305908 8.066405296325684 59.22576141357422 255 255 255
-52.38760757446289 15.933680534362793 82.06050872802734 255 255 255
-60.72307205200195 8.690347671508789 67.9748306274414 255 255 255
-8.255404472351074 -26.259870529174805 -21.1291446685791 255 255 255
-10.699543952941895 -10.801619529724121 -38.008670806884766 255 255 255
18.90080451965332 -1.1636265516281128 76.60623168945312 255 255 255
3.6019647121429443 7.149319171905518 59.6400260925293 255 255 255
588.6699829101562 -146.33331298828125 942.5517578125 255 255 255
-75.00717163085938 0.7982484102249146 45.10481643676758 255 255 255
-72.53573608398438 4.8357744216918945 46.298370361328125 255 255 255
-78.2867431640625 -0.967974066734314 -4.30440616607666 255 255 255
-72.65576934814453 4.253864765167236 44.98619079589844 255 255 255
-38.01487731933594 9.74458122253418 74.37106323242188 255 255 255
-42.78972625732422 3.5957789421081543 65.43815612792969 255 255 255
-41.68515396118164 6.099612712860107 65.85858917236328 255 255 255
-15.10412883758545 9.027128219604492 67.18852233886719 255 255 255
-18.520919799804688 5.818750381469727 73.23468017578125 255 255 255
-37.9984130859375 8.03740406036377 75.61392211914062 255 255 255
-37.02536392211914 5.902834892272949 87.09440612792969 255 255 255
-16.90386390686035 13.016129493713379 71.50568389892578 255 255 255
-27.562110900878906 11.841780662536621 61.70408630371094 255 255 255
-53.984561920166016 14.360210418701172 72.47956848144531 255 255 255
-61.616329193115234 16.83148765563965 86.98219299316406 255 255 255
-16.294727325439453 5.731828212738037 73.86456298828125 255 255 255
-91.41036987304688 6.6951003074646 79.49808502197266 255 255 255
-23.573453903198242 12.008060455322266 61.433128356933594 255 255 255
-62.83396530151367 12.174238204956055 88.39985656738281 255 255 255
-60.52412033081055 2.342862606048584 73.7250747680664 255 255 255
-493.2137145996094 -162.2557830810547 230.0448455810547 255 255 255
21.547691345214844 2.5824882984161377 59.843631744384766 255 255 255
-69.95805358886719 -4.5357890129089355 -22.898263931274414 255 255 255
-80.42879486083984 -8.437383651733398 -15.731457710266113 255 255 255
-71.94255828857422 -3.2120511531829834 -24.412729263305664 255 255 255
-42.50231170654297 -20.836410522460938 -66.9101333618164 255 255 255
-168.3158416748047 -542.8408203125 -677.6997680664062 255 255 255
-87.87716674804688 -26.180490493774414 -70.67457580566406 255 255 255
-6.563739776611328 7.601696014404297 67.91509246826172 255 255 255
-6.768911838531494 11.240860939025879 72.29185485839844 255 255 255
-65.12265014648438 2.542860984802246 50.84267807006836 255 255 255
-22.1876163482666 4.567628860473633 60.13454818725586 255 255 255
-16.9028263092041 5.445356845855713 59.41130447387695 255 255 255
-17.90696144104004 4.758072853088379 74.20156860351562 255 255 255
-32.965782165527344 2.52643084526062 64.21792602539062 255 255 255
-32.69550323486328 3.0954182147979736 64.04795837402344 255 255 255
-35.755653381347656 5.089560031890869 86.391357421875 255 255 255
-118.20960235595703 -463.0220642089844 -972.6297607421875 255 255 255
-68.06048583984375 -5.945379257202148 -27.378829956054688 255 255 255
-82.09944152832031 -9.137763023376465 -22.859329223632812 255 255 255
-90.30795288085938 -35.23111343383789 -88.98860168457031 255 255 255
-71.77326202392578 -0.48570016026496887 -10.585432052612305 255 255 255
-76.9647216796875 -13.619165420532227 -49.922874450683594 255 255 255
2.7303009033203125 6.830603122711182 60.803306579589844 255 255 255
3.533261299133301 6.879696369171143 61.10013198852539 255 255 255
3.412924289703369 7.760700702667236 61.87424087524414 255 255 255
-16.87230682373047 12.847497940063477 70.01122283935547 255 255 255
-0.568580687046051 5.664666652679443 64.28870391845703 255 255 255
-0.3547734320163727 12.900005340576172 68.59679412841797 255 255 255
5.489210605621338 6.088468551635742 59.634063720703125 255 255 255
8.250187873840332 9.922149658203125 65.05423736572266 255 255 255
3.432166576385498 6.2690839767456055 60.201725006103516 255 255 255
1.8793023824691772 11.770133972167969 63.89158630371094 255 255 255
26.469614028930664 10.366058349609375 66.58477783203125 255 255 255
-10.92785930633545 3.289801836013794 73.82762908935547 255 255 255
-1.6435911655426025 13.113804817199707 69.56130981445312 255 255 255
3.104386806488037 11.542169570922852 69.7229232788086 255 255 255
-32.0467643737793 13.357172966003418 68.61560821533203 255 255 255
-18.615724563598633 3.3766798973083496 57.802249908447266 255 255 255
-17.224178314208984 4.205183982849121 73.9967041015625 255 255 255
-6.443348407745361 10.75873851776123 74.87207794189453 255 255 255
-4.018976211547852 10.52446174621582 73.40191650390625 255 255 255
-9.021510124206543 4.701741695404053 69.46514892578125 255 255 255
-21.513442993164062 12.047208786010742 66.68724060058594 255 255 255
-9.003254890441895 5.129365921020508 68.8161392211914 255 255 255
-4.46981954574585 10.76770305633545 74.67076873779297 255 255 255
-3.3689112663269043 11.521068572998047 81.83300018310547 255 255 255
-5.646535873413086 13.771018028259277 75.54048156738281 255 255 255
5.97539758682251 6.158527851104736 30.925323486328125 255 255 255
-2.6917998790740967 2.6871445178985596 34.21146011352539 255 255 255
-31.940189361572266 4.964518070220947 61.57701110839844 255 255 255
-19.076629638671875 8.21296501159668 58.96091842651367 255 255 255
-35.94206619262695 6.429980278015137 84.74591064453125 255 255 255
-222.00332641601562 12.172842025756836 158.6432647705078 255 255 255
-19.206708908081055 7.76187801361084 58.69102478027344 255 255 255
-105.23876953125 20.658239364624023 110.14872741699219 255 255 255
-21.055585861206055 11.079937934875488 56.156211853027344 255 255 255
-19.01174545288086 12.752959251403809 80.92221069335938 255 255 255
-9.309219360351562 11.83497428894043 61.9526252746582 255 255 255
-59.93991470336914 17.599262237548828 92.81707763671875 255 255 255
-5.8766865730285645 -2.477998733520508 82.7149429321289 255 255 255
10.966510772705078 6.392317771911621 57.19367218017578 255 255 255
9.283795356750488 8.423666954040527 45.69007873535156 255 255 255
11.818620681762695 8.910676002502441 57.401390075683594 255 255 255
-89.95813751220703 7.969212055206299 45.40241241455078 255 255 255
-75.79925537109375 -0.07697229832410812 44.73468780517578 255 255 255
-74.01245880126953 6.290325164794922 63.30545425415039 255 255 255
-76.287841796875 0.006825236603617668 46.91175842285156 255 255 255
-79.80645751953125 8.474386215209961 68.08626556396484 255 255 255
-82.6576156616211 -7.20631217956543 21.59662437438965 255 255 255
-74.5323257446289 7.269371509552002 52.180076599121094 255 255 255
-72.84193420410156 11.659221649169922 65.74833679199219 255 255 255
-94.14157104492188 0.6958556771278381 4.910865306854248 255 255 255
-77.80974578857422 7.45007848739624 67.64434814453125 255 255 255
-33.96516036987305 17.01317596435547 100.13762664794922 255 255 255
-2.163337230682373 9.62196159362793 73.3001937866211 255 255 255
-4.60362434387207 14.209443092346191 87.6955337524414 255 255 255
-1.304409384727478 6.745692729949951 65.93135070800781 255 255 255
8.59152889251709 -8.745450019836426 -22.668428421020508 255 255 255
9.981172561645508 -5.052409648895264 -14.07252025604248 255 255 255
12.010028839111328 -7.582900047302246 -6.489166259765625 255 255 255
13.48197078704834 -5.0170745849609375 -5.508625507354736 255 255 255
10.29809856414795 -9.547478675842285 -28.459041595458984 255 255 255
8.60698413848877 -12.901779174804688 -17.766633987426758 255 255 255
8.874448776245117 -4.807210445404053 -29.668853759765625 255 255 255
8.399534225463867 -12.743289947509766 -18.17007827758789 255 255 255
10.365612030029297 -1.8920680284500122 -16.270944595336914 255 255 255
-20.464651107788086 6.670573711395264 72.32774353027344 255 255 255
-20.433753967285156 6.663949489593506 72.31509399414062 255 255 255
-10.639538764953613 4.780172824859619 69.52289581298828 255 255 255
-17.726940155029297 4.4645185470581055 73.88371276855469 255 255 255
-88.33799743652344 7.304231643676758 82.60063171386719 255 255 255
1.893509030342102 0.06923908740282059 64.0893325805664 255 255 255
17.24595069885254 0.8374449610710144 76.21588134765625 255 255 255
15.131622314453125 10.932469367980957 67.3865737915039 255 255 255
-33.73126220703125 21.046382904052734 124.72632598876953 255 255 255
-11.505979537963867 13.750814437866211 83.38671875 255 255 255
-8.458684921264648 13.00256061553955 92.4482650756836 255 255 255
-2.13983416557312 11.075484275817871 67.08690643310547 255 255 255
2.737680435180664 0.8884661793708801 65.6024169921875 255 255 255
11.996192932128906 6.307321071624756 56.788516998291016 255 255 255
-9.64519214630127 2.5129692554473877 73.85102081298828 255 255 255
15.462090492248535 -0.6445549726486206 75.04888916015625 255 255 255
-20.784069061279297 16.986042022705078 101.19540405273438 255 255 255
-73.1229019165039 -3.063249111175537 -0.10767477750778198 255 255 255
-69.46228790283203 -3.7659342288970947 -9.876225471496582 255 255 255
-82.34187316894531 -3.6581320762634277 -5.931487560272217 255 255 255
-69.48240661621094 -8.194783210754395 -1.2459983825683594 255 255 255
-80.38379669189453 -12.534506797790527 -7.292959213256836 255 255 255
-62.50080490112305 -8.188560485839844 -45.028560638427734 255 255 255
-39.52961730957031 -15.602154731750488 -34.92443084716797 255 255 255
-40.58350372314453 -15.1503267288208 -34.613399505615234 255 255 255
-39.405731201171875 -7.434294700622559 -42.983062744140625 255 255 255
-56.074363708496094 -11.411765098571777 -37.28190612792969 255 255 255
-19.640031814575195 -10.087121963500977 -45.02629852294922 255 255 255
-57.08548355102539 -11.60623550415039 -43.29566955566406 255 255 255
2.7150468826293945 -13.723544120788574 -37.295440673828125 255 255 255
-35.9563102722168 13.974791526794434 72.17755126953125 255 255 255
-26.36585807800293 11.727375030517578 61.59347152709961 255 255 255
-45.56843566894531 14.445464134216309 72.80351257324219 255 255 255
-33.07991027832031 10.812749862670898 58.03849792480469 255 255 255
-56.79308319091797 2.2219486236572266 71.7373046875 255 255 255
-46.65378952026367 11.667634963989258 64.40203094482422 255 255 255
-38.72489547729492 -13.285527229309082 -35.89397048950195 255 255 255
-46.41023635864258 -6.496368408203125 -37.634849548339844 255 255 255
-29.569128036499023 -12.053291320800781 -35.91048812866211 255 255 255
-46.86368179321289 -9.643608093261719 -25.818944931030273 255 255 255
-52.73021697998047 -3.985389232635498 -29.429372787475586 255 255 255
-1798.4052734375 -695.6563720703125 1780.1046142578125 255 255 255
-53.944820404052734 9.640551567077637 74.23270416259766 255 255 255
-70.63260650634766 13.653633117675781 68.45182037353516 255 255 255
-38.087947845458984 6.72721529006958 86.64073944091797 255 255 255
-72.15079498291016 -14.706055641174316 -44.31747055053711 255 255 255
-32.35646057128906 4.179065704345703 63.62220001220703 255 255 255
-35.557212829589844 0.9087469577789307 62.83851623535156 255 255 255
-20.104429244995117 8.032423973083496 58.84540557861328 255 255 255
-0.4401402771472931 -0.3012199401855469 72.18707275390625 255 255 255
-1.9988727569580078 6.80916690826416 36.38637161254883 255 255 255
-65.78672790527344 4.6581244468688965 57.183258056640625 255 255 255
-64.1900634765625 4.77238655090332 53.61945343017578 255 255 255
-76.49855041503906 5.326521873474121 56.05837631225586 255 255 255
-52.606597900390625 -4.919601917266846 8.237606048583984 255 255 255
-76.39163970947266 3.178760290145874 33.395999908447266 255 255 255
-82.30860900878906 -1.0463124513626099 20.170501708984375 255 255 255
-55.148765563964844 -3.205317735671997 12.955897331237793 255 255 255
-74.80464172363281 -5.159750461578369 -14.334429740905762 255 255 255
-81.71414184570312 -0.016051432117819786 -10.689225196838379 255 255 255
-61.05525207519531 -5.344640731811523 3.2000412940979004 255 255 255
0.6426679491996765 7.128060340881348 41.04837417602539 255 255 255
-2.160611391067505 -0.603000819683075 76.33773803710938 255 255 255
-86.81188201904297 7.640866279602051 36.08880615234375 255 255 255
-64.79246520996094 5.9369025230407715 54.65167999267578 255 255 255
-64.53968048095703 -2.7098731994628906 8.20224380493164 255 255 255
-68.3358383178711 9.75014877319336 39.785335540771484 255 255 255
-75.41973876953125 2.885286331176758 45.86759948730469 255 255 255
-61.423763275146484 -1.0052086114883423 50.8409538269043 255 255 255
-65.4543228149414 1.7011139392852783 48.54492950439453 255 255 255
-66.36510467529297 -10.836565017700195 0.8361416459083557 255 255 255
-78.68115997314453 0.785753071308136 46.62998962402344 255 255 255
-74.1956787109375 4.7095417976379395 58.4797477722168 255 255 255
-108.12947845458984 2.8366780281066895 22.387073516845703 255 255 255
-86.9061050415039 4.4824676513671875 32.79246139526367 255 255 255
-12.897921562194824 8.950353622436523 66.95609283447266 255 255 255
-32.98506546020508 13.871013641357422 76.8464126586914 255 255 255
-13.562912940979004 9.407122611999512 67.28711700439453 255 255 255
-2.7107396125793457 13.965570449829102 86.10208892822266 255 255 255
-75.97054290771484 -13.689396858215332 -28.508657455444336 255 255 255
-77.88438415527344 6.069781303405762 28.789875030517578 255 255 255
-77.67552947998047 11.805407524108887 48.17598342895508 255 255 255
-75.90522003173828 7.121124267578125 56.73530960083008 255 255 255
-74.9422607421875 12.478936195373535 61.94237518310547 255 255 255
-63.516178131103516 -0.7140718698501587 49.67552947998047 255 255 255
-65.80027770996094 2.4160563945770264 47.42269515991211 255 255 255
-61.93336486816406 -3.2095448970794678 43.93136215209961 255 255 255
-77.59182739257812 1.2409719228744507 60.247257232666016 255 255 255
-74.25833892822266 7.084489822387695 64.17910766601562 255 255 255
-82.13463592529297 10.611627578735352 57.561134338378906 255 255 255
-79.19316864013672 2.017263650894165 52.32868576049805 255 255 255
-76.51355743408203 4.308189392089844 62.112361907958984 255 255 255
-58.622066497802734 15.7382230758667 77.83885192871094 255 255 255
-86.03187561035156 12.554497718811035 74.3460922241211 255 255 255
-109.92471313476562 12.61251163482666 118.91238403320312 255 255 255
-77.86287689208984 15.393985748291016 76.43711853027344 255 255 255
14.50074577331543 -0.6753659844398499 76.8960189819336 255 255 255
-9.105315208435059 3.301891803741455 65.4050521850586 255 255 255
18.890207290649414 -1.1669330596923828 76.6389389038086 255 255 255
0.368194043636322 9.147917747497559 48.63918685913086 255 255 255
16.264638900756836 3.200862169265747 66.7872085571289 255 255 255
-20.132261276245117 8.001313209533691 58.707054138183594 255 255 255
-43.6077880859375 11.203907012939453 63.958900451660156 255 255 255
-21.391136169433594 7.226653575897217 58.315731048583984 255 255 255
-33.153202056884766 4.131994724273682 61.80242919921875 255 255 255
-23.0455379486084 12.236963272094727 59.81658935546875 255 255 255
-1.0203776359558105 4.63680362701416 23.076824188232422 255 255 255
4.921972274780273 -0.858293890953064 11.159883499145508 255 255 255
-74.11146545410156 12.471357345581055 60.79270935058594 255 255 255
-73.11649322509766 12.63847541809082 63.040225982666016 255 255 255
-65.21331024169922 2.1790785789489746 47.46961975097656 255 255 255
-74.9654541015625 4.197102069854736 47.243595123291016 255 255 255
-27.584678649902344 -11.103594779968262 -26.90889549255371 255 255 255
-48.40719223022461 -9.660002708435059 -25.702299118041992 255 255 255
-36.31663513183594 -4.622703552246094 -25.70041275024414 255 255 255
-48.50181579589844 -8.67178726196289 -26.01667594909668 255 255 255
-48.856483459472656 -11.312893867492676 -39.910343170166016 255 255 255
-61.329010009765625 16.9013614654541 84.77413177490234 255 255 255
-105.06549835205078 14.44612979888916 111.0003890991211 255 255 255
-46.559879302978516 15.0656099319458 78.74372100830078 255 255 255
-66.74295806884766 2.7359211444854736 73.95256042480469 255 255 255
-97.816650390625 14.778092384338379 136.7161865234375 255 255 255
-32.900360107421875 7.793914318084717 74.21344757080078 255 255 255
-37.6135139465332 5.820521354675293 85.6798095703125 255 255 255
-38.08409118652344 14.325013160705566 76.4304428100586 255 255 255
-31.899810791015625 5.5145416259765625 62.89688491821289 255 255 255
11.093785285949707 6.210177421569824 57.5135383605957 255 255 255
22.186311721801758 -0.007324839010834694 79.21466827392578 255 255 255
19.717042922973633 2.7543723583221436 67.92101287841797 255 255 255
9.724708557128906 11.889974594116211 72.14984893798828 255 255 255
1.390786051750183 9.218467712402344 63.907920837402344 255 255 255
-3.2632501125335693 -2.1289618015289307 84.11042022705078 255 255 255
18.097679138183594 2.13897442817688 63.96290588378906 255 255 255
21.244415283203125 -0.6555739641189575 68.54041290283203 255 255 255
19.014890670776367 6.781535625457764 57.2093505859375 255 255 255
2.3606009483337402 7.358489513397217 60.14530944824219 255 255 255
2.211958408355713 8.97530746459961 48.057655334472656 255 255 255
-4.003807067871094 12.242440223693848 73.84822845458984 255 255 255
3.467564821243286 6.20751953125 59.82493209838867 255 255 255
-5.312887668609619 11.446462631225586 60.34907531738281 255 255 255
-9.52439022064209 7.755852222442627 81.8438720703125 255 255 255
4.554306983947754 13.740489959716797 82.11249542236328 255 255 255
0.6919318437576294 12.010645866394043 74.31683349609375 255 255 255
-9.025289535522461 5.76776647567749 67.0267562866211 255 255 255
-30.453344345092773 7.090752124786377 60.7733154296875 255 255 255
-33.95065689086914 2.6334972381591797 62.106056213378906 255 255 255
-21.256427764892578 10.601354598999023 67.396728515625 255 255 255
-37.745994567871094 10.191960334777832 73.8201904296875 255 255 255
-57.62858200073242 1.6938331127166748 67.6858901977539 255 255 255
-38.225399017333984 10.971129417419434 74.53360748291016 255 255 255
-39.88394546508789 10.242111206054688 76.1078109741211 255 255 255
-68.66112518310547 12.770357131958008 62.955787658691406 255 255 255
-62.02136993408203 5.270707607269287 69.8587875366211 255 255 255
-58.253379821777344 3.701192855834961 72.62451934814453 255 255 255
-53.19685745239258 9.165311813354492 73.30944061279297 255 255 255
-78.13164520263672 -16.896230697631836 -61.35901641845703 255 255 255
-14.665817260742188 6.889179229736328 58.1891975402832 255 255 255
-87.40716552734375 4.148529529571533 63.14762496948242 255 255 255
-49.29495620727539 9.950965881347656 58.164283752441406 255 255 255
-103.01744842529297 3.0046586990356445 64.12200927734375 255 255 255
-12.65584945678711 12.267457962036133 66.16339111328125 255 255 255
-75.66463470458984 7.715640544891357 66.22547149658203 255 255 255
-75.53712463378906 5.531836032867432 61.74374008178711 255 255 255
-78.65264129638672 9.159005165100098 70.36285400390625 255 255 255
-73.56526184082031 12.98431396484375 75.8461685180664 255 255 255
-76.22586059570312 12.351142883300781 61.684085845947266 255 255 255
-74.22221374511719 5.379639148712158 65.21237182617188 255 255 255
-79.73178100585938 8.284730911254883 69.99810028076172 255 255 255
-75.23816680908203 14.384989738464355 69.09940338134766 255 255 255
-15.079306602478027 14.042394638061523 82.480224609375 255 255 255
4.377676010131836 3.547769069671631 59.1115608215332 255 255 255
-2.1117985248565674 1.2832920551300049 74.16171264648438 255 255 255
3.454406261444092 3.1243460178375244 62.792537689208984 255 255 255
2.810236930847168 2.764772653579712 63.78615188598633 255 255 255
15.304015159606934 11.729328155517578 71.90526580810547 255 255 255
-4.0980401039123535 9.168493270874023 69.44152069091797 255 255 255
6.109426498413086 -0.4103054106235504 68.7909927368164 255 255 255
-40.90079116821289 5.056674957275391 82.13449096679688 255 255 255
-62.89613342285156 1.3994382619857788 52.66401672363281 255 255 255
-31.658687591552734 10.773300170898438 62.78362274169922 255 255 255
-593.9345092773438 -209.37271118164062 633.8677368164062 255 255 255
-91.3482437133789 15.101603507995605 132.26380920410156 255 255 255
-57.265621185302734 3.7782139778137207 68.06218719482422 255 255 255
-57.6405143737793 4.7783284187316895 66.35871887207031 255 255 255
-64.96798706054688 11.66008472442627 89.86428833007812 255 255 255
-54.787776947021484 5.911985874176025 70.46623992919922 255 255 255
-57.94297409057617 4.681891441345215 66.29566955566406 255 255 255
-57.75416946411133 3.7111096382141113 66.24429321289062 255 255 255
-58.28172302246094 2.850338935852051 66.05876159667969 255 255 255
-17.73798942565918 6.261914253234863 73.79405975341797 255 255 255
-19.366819381713867 5.721705913543701 74.11579895019531 255 255 255
-31.653764724731445 6.747830867767334 82.89511108398438 255 255 255
-20.30826187133789 10.885210990905762 56.48161697387695 255 255 255
-32.82204818725586 1.176904320716858 63.27150344848633 255 255 255
-29.255456924438477 8.161954879760742 78.57307434082031 255 255 255
-47.29047775268555 9.915840148925781 58.05855941772461 255 255 255
-16.442516326904297 5.168863296508789 58.56988525390625 255 255 255
-35.15147018432617 12.180098533630371 81.13456726074219 255 255 255
5.282169342041016 6.232826232910156 58.92807388305664 255 255 255
4.2124714851379395 6.703192234039307 59.893184661865234 255 255 255
8.543878555297852 8.32581615447998 46.40029525756836 255 255 255
16.078920364379883 3.2748498916625977 66.65452575683594 255 255 255
11.439228057861328 3.320023775100708 61.90760803222656 255 255 255
1.3831558227539062 0.5844395756721497 63.6484489440918 255 255 255
-4.866124153137207 4.055958271026611 51.30774688720703 255 255 255
7.2312445640563965 9.371912956237793 57.254146575927734 255 255 255
12.476828575134277 5.175307273864746 54.6591682434082 255 255 255
13.379565238952637 4.559618949890137 54.780052185058594 255 255 255
-1.1923669576644897 9.813867568969727 51.46685791015625 255 255 255
11.419633865356445 9.922755241394043 56.198551177978516 255 255 255
5.3696393966674805 9.538002967834473 50.67515182495117 255 255 255
12.491995811462402 5.1984758377075195 54.733158111572266 255 255 255
5.194795608520508 9.343092918395996 49.719276428222656 255 255 255
4.001887798309326 9.159175872802734 48.91181564331055 255 255 255
1.2411601543426514 9.096639633178711 48.56010818481445 255 255 255
0.0397476963698864 9.488865852355957 50.036529541015625 255 255 255
-66.93766021728516 5.505949974060059 73.70123291015625 255 255 255
-135.9501953125 20.500545501708984 95.33218383789062 255 255 255
-10.177338600158691 4.963145732879639 69.2994613647461 255 255 255
-33.472938537597656 1.452821969985962 64.1968994140625 255 255 255
-9.195945739746094 3.9137051105499268 73.07363891601562 255 255 255
-5.68087100982666 6.698197364807129 70.50537872314453 255 255 255
-5.565160751342773 6.588137626647949 69.52958679199219 255 255 255
-19.98114013671875 16.98491859436035 100.34222412109375 255 255 255
-22.56349754333496 12.830366134643555 66.63290405273438 255 255 255
-30.733522415161133 6.827045440673828 60.80356216430664 255 255 255
-83.71094512939453 5.384102821350098 24.361648559570312 255 255 255
-76.46014404296875 6.9853925704956055 45.121337890625 255 255 255
-69.01390838623047 -4.052120208740234 -1.4389047622680664 255 255 255
-66.2464828491211 4.233068943023682 49.39039611816406 255 255 255
-73.72582244873047 2.082371473312378 45.1247444152832 255 255 255
-46.38593673706055 6.013798236846924 66.11829376220703 255 255 255
-46.62599182128906 5.900381088256836 66.1156234741211 255 255 255
-58.0528678894043 2.399282693862915 69.80093383789062 255 255 255
-493.36181640625 -75.61190032958984 330.2487487792969 255 255 255
-31.920671463012695 6.228264331817627 61.34784698486328 255 255 255
-3.2125253677368164 1.4948359727859497 42.587223052978516 255 255 255
-33.299583435058594 0.7033303380012512 63.94830322265625 255 255 255
-20.703041076660156 12.683079719543457 68.20281219482422 255 255 255
-48.43476486206055 8.217422485351562 62.84732437133789 255 255 255
16.810443878173828 -14.572240829467773 -35.996578216552734 255 255 255
71.06932067871094 -19.81736946105957 -40.31002426147461 255 255 255
-4.834376335144043 -7.3749260902404785 -42.16255569458008 255 255 255
-44.681121826171875 14.631159782409668 74.05876922607422 255 255 255
-78.94121551513672 -4.576000213623047 -30.719877243041992 255 255 255
69.3366470336914 -173.0286407470703 -255.16021728515625 255 255 255
-73.75308227539062 -12.211502075195312 -45.87837600708008 255 255 255
-74.73983001708984 -16.58698081970215 -45.050296783447266 255 255 255
-74.22200775146484 -7.147543907165527 -42.53665542602539 255 255 255
-80.23462677001953 -20.1053524017334 -54.933509826660156 255 255 255
-86.52710723876953 -17.244821548461914 -69.88980865478516 255 255 255
-75.02063751220703 -10.92495059967041 -50.8528938293457 255 255 255
2168.47314453125 -1381.58837890625 4502.693359375 255 255 255
-3.2311174869537354 1.6728370189666748 42.92274475097656 255 255 255
13.455108642578125 7.900555610656738 48.04533004760742 255 255 255
1.098260760307312 8.529053688049316 44.57372283935547 255 255 255
10.089963912963867 8.450542449951172 46.62882614135742 255 255 255
-59.252479553222656 4.902745246887207 68.30365753173828 255 255 255
-37.5445442199707 10.782647132873535 73.5909194946289 255 255 255
-60.276119232177734 2.3779118061065674 65.29457092285156 255 255 255
-53.90345001220703 10.145574569702148 73.96357727050781 255 255 255
-58.67097091674805 4.460939407348633 67.0616683959961 255 255 255
-57.97514724731445 7.788704872131348 66.33364868164062 255 255 255
-70.33163452148438 -4.57944917678833 -8.675930976867676 255 255 255
-80.0035400390625 -0.6300642490386963 -11.153660774230957 255 255 255
-35.78412628173828 17.137792587280273 102.64103698730469 255 255 255
1.3599120378494263 9.282626152038574 64.46448516845703 255 255 255
-9.485837936401367 6.363740921020508 68.24440002441406 255 255 255
-24.263303756713867 4.80654764175415 77.98614501953125 255 255 255
-0.6446715593338013 6.916810035705566 64.2301025390625 255 255 255
-75.12366485595703 13.256241798400879 66.49288177490234 255 255 255
-74.12416076660156 13.145635604858398 60.768348693847656 255 255 255
-75.64341735839844 3.401055097579956 48.173831939697266 255 255 255
-47.064815521240234 6.586391925811768 60.682289123535156 255 255 255
-19.188234329223633 7.486941814422607 59.09233474731445 255 255 255
-19.260860443115234 6.214846611022949 58.01707458496094 255 255 255
-29.568675994873047 3.3665127754211426 61.94144058227539 255 255 255
-19.287891387939453 7.519232749938965 57.73070526123047 255 255 255
-22.301977157592773 5.182376384735107 59.21007537841797 255 255 255
-75.17110443115234 6.762273788452148 56.97267532348633 255 255 255
-81.47540283203125 5.0757904052734375 7.518230438232422 255 255 255
-63.858394622802734 -5.177340507507324 19.272537231445312 255 255 255
-86.85869598388672 5.551823616027832 29.59359359741211 255 255 255
-75.81265258789062 3.4246881008148193 51.181114196777344 255 255 255
-75.875 0.283302903175354 47.71470260620117 255 255 255
-3.0132226943969727 2.848376989364624 44.12220764160156 255 255 255
9.257623672485352 7.952138900756836 46.26945877075195 255 255 255
-6.205939769744873 0.030704757198691368 45.22687530517578 255 255 255
-10.258450508117676 -0.12304049730300903 79.7219009399414 255 255 255
11.647265434265137 10.054248809814453 56.79346466064453 255 255 255
-3.6488289833068848 1.371333122253418 41.579322814941406 255 255 255
2.767825126647949 6.950085163116455 60.845611572265625 255 255 255
2.6676833629608154 11.416339874267578 68.94731140136719 255 255 255
3.8060414791107178 6.936363697052002 60.411163330078125 255 255 255
-8.472877502441406 2.414623260498047 72.47447204589844 255 255 255
-17.69163703918457 6.532052516937256 71.12994384765625 255 255 255
-18.012277603149414 5.0603413581848145 73.16345977783203 255 255 255
-10.297934532165527 5.36045503616333 69.65437316894531 255 255 255
-15.244528770446777 6.215640544891357 58.61137390136719 255 255 255
-20.79254150390625 5.300424575805664 76.24234008789062 255 255 255
-83.61307525634766 12.95182991027832 62.04042434692383 255 255 255
-14.742349624633789 7.195947647094727 57.92817687988281 255 255 255
-16.05474090576172 5.288883686065674 58.31585693359375 255 255 255
-17.282060623168945 5.500842094421387 73.11125183105469 255 255 255
-11.583548545837402 -0.5566806197166443 64.0935287475586 255 255 255
20.188934326171875 1.6261999607086182 64.27950286865234 255 255 255
9.558880805969238 12.038002014160156 73.30089569091797 255 255 255
-16.065868377685547 13.857281684875488 103.37246704101562 255 255 255
-4.839515686035156 3.618919849395752 52.40235137939453 255 255 255
17.06027603149414 2.3967506885528564 62.72409439086914 255 255 255
11.886531829833984 7.474030017852783 57.56920623779297 255 255 255
3.84283447265625 22.65879249572754 135.35691833496094 255 255 255
14.036611557006836 8.75244140625 53.31053924560547 255 255 255
5.346312522888184 6.717441082000732 58.904354095458984 255 255 255
7.461175441741943 -4.243881702423096 6.4229207038879395 255 255 255
12.63769245147705 -3.4930098056793213 5.657981872558594 255 255 255
4.931249618530273 -3.269045114517212 26.454282760620117 255 255 255
-41.69628143310547 14.520679473876953 73.3696517944336 255 255 255
-63.6226921081543 3.2517383098602295 68.65689086914062 255 255 255
-74.65414428710938 16.16701316833496 74.05211639404297 255 255 255
-414.3047180175781 -67.1065902709961 167.36572265625 255 255 255
-80.4891586303711 5.050268173217773 75.02745819091797 255 255 255
-2.3237838745117188 2.4225804805755615 42.12830352783203 255 255 255
15.347161293029785 -9.828227996826172 169.82122802734375 255 255 255
16.304061889648438 8.615374565124512 52.82057571411133 255 255 255
-0.9460697770118713 0.844504177570343 33.126583099365234 255 255 255
-58.20974349975586 5.729503154754639 70.9663314819336 255 255 255
-53.486976623535156 8.813889503479004 72.47320556640625 255 255 255
-109.2375717163086 -7.330946445465088 72.67335510253906 255 255 255
-52.635597229003906 9.645200729370117 73.45401000976562 255 255 255
-56.94149398803711 9.414433479309082 69.82996368408203 255 255 255
-73.66520690917969 16.10392189025879 77.59571838378906 255 255 255
-61.6396369934082 10.966391563415527 88.53170013427734 255 255 255
-120.02078247070312 12.284010887145996 127.63551330566406 255 255 255
-64.19676971435547 4.337347030639648 71.3458480834961 255 255 255
-12.405932426452637 12.505961418151855 66.75507354736328 255 255 255
-28.26735496520996 12.372566223144531 63.124725341796875 255 255 255
-24.484102249145508 4.376008987426758 81.92577362060547 255 255 255
-18.535734176635742 5.722958087921143 75.15132904052734 255 255 255
-32.68214416503906 2.3355469703674316 64.2679672241211 255 255 255
-19.294145584106445 4.476512908935547 74.67986297607422 255 255 255
13.39577865600586 1.370996356010437 72.73576354980469 255 255 255
7.908696174621582 7.849879264831543 41.40830993652344 255 255 255
11.922929763793945 6.1953444480896 57.61259841918945 255 255 255
0.6565134525299072 7.058012962341309 40.66050720214844 255 255 255
-4.394837856292725 13.031535148620605 85.28968048095703 255 255 255
-58.41626739501953 -6.673117160797119 -35.2719841003418 255 255 255
-37.767433166503906 -12.872098922729492 -34.818416595458984 255 255 255
-38.474327087402344 -16.987552642822266 -36.18722152709961 255 255 255
-66.78756713867188 -10.987735748291016 -38.817352294921875 255 255 255
-49.3336181640625 -6.726592540740967 -37.466312408447266 255 255 255
-19.56372833251953 -13.212443351745605 -36.88456344604492 255 255 255
-38.91171646118164 -14.989331245422363 -34.584190368652344 255 255 255
-39.43821716308594 -18.842025756835938 -35.82938766479492 255 255 255
-47.3591423034668 -6.183787822723389 -39.67909622192383 255 255 255
-48.42349624633789 -5.990804195404053 -39.305606842041016 255 255 255
-49.31256103515625 -6.371252059936523 -40.129520416259766 255 255 255
-37.88050079345703 -17.659107208251953 -41.00873947143555 255 255 255
-31.450454711914062 13.511685371398926 73.40264129638672 255 255 255
-19.52318572998047 8.0432767868042 58.73666763305664 255 255 255
-43.216888427734375 14.817591667175293 74.16284942626953 255 255 255
-28.585477828979492 4.643588542938232 81.47718048095703 255 255 255
-79.9872817993164 8.963619232177734 75.08787536621094 255 255 255
-82.94296264648438 8.216364860534668 62.46269226074219 255 255 255
12.688063621520996 4.5106306076049805 57.301979064941406 255 255 255
-81.15389251708984 5.528436183929443 68.6600341796875 255 255 255
-32.519649505615234 1.997448444366455 62.506805419921875 255 255 255
-262.1988525390625 22.204721450805664 153.6436309814453 255 255 255
2.6785895824432373 11.756057739257812 70.92092895507812 255 255 255
2.753788471221924 2.48833966255188 64.93412017822266 255 255 255
-21.20538902282715 2.6814727783203125 89.29585266113281 255 255 255
16.72289276123047 11.55400276184082 70.82577514648438 255 255 255
-9.84352970123291 -2.434644937515259 84.09417724609375 255 255 255
18.146957397460938 11.976629257202148 73.73863220214844 255 255 255
4.461177825927734 6.414636611938477 59.59978103637695 255 255 255
19.622438430786133 -0.14310222864151 64.49409484863281 255 255 255
-28.917627334594727 6.044577121734619 80.54732513427734 255 255 255
-71.46155548095703 2.9437429904937744 58.700950622558594 255 255 255
-27.101211547851562 11.598955154418945 61.07640838623047 255 255 255
-44.416038513183594 14.622671127319336 73.93172454833984 255 255 255
-76.06591796875 3.460742712020874 47.18721389770508 255 255 255
-39.76719284057617 14.273346900939941 71.37992858886719 255 255 255
-61.36927795410156 7.8586835861206055 73.59678649902344 255 255 255
-57.07463455200195 5.345861911773682 34.930015563964844 255 255 255
-74.86457061767578 12.47230339050293 61.54417037963867 255 255 255
-74.65544891357422 5.3452019691467285 51.838661193847656 255 255 255
-61.20612335205078 -15.843842506408691 -11.340216636657715 255 255 255
-75.67962646484375 2.9878313541412354 56.68966293334961 255 255 255
-76.02300262451172 9.684050559997559 40.799983978271484 255 255 255
-74.7615966796875 6.1752543449401855 20.300853729248047 255 255 255
-74.3606948852539 13.765292167663574 67.06615447998047 255 255 255
-84.68436431884766 6.55284309387207 55.152156829833984 255 255 255
-84.80665588378906 9.335835456848145 66.7181167602539 255 255 255
-88.88846588134766 5.980956077575684 45.17452621459961 255 255 255
-80.32717895507812 4.62632417678833 57.757965087890625 255 255 255
-75.15550231933594 8.025284767150879 78.66533660888672 255 255 255
-63.591392517089844 -7.00603723526001 -40.079708099365234 255 255 255
-51.02112579345703 -7.573090553283691 -43.308414459228516 255 255 255
-58.637874603271484 -9.636247634887695 -39.83649444580078 255 255 255
-52.372215270996094 -6.0600152015686035 -36.9256591796875 255 255 255
50.30167770385742 -11.425973892211914 -47.200408935546875 255 255 255
-75.86487579345703 8.348215103149414 78.79808044433594 255 255 255
-88.22111511230469 12.970376014709473 81.27342224121094 255 255 255
-81.67210388183594 18.444725036621094 86.3802719116211 255 255 255
-95.51053619384766 10.689186096191406 89.4685287475586 255 255 255
-91.21121978759766 15.649412155151367 84.72386169433594 255 255 255
-96.27739715576172 15.582053184509277 81.85800170898438 255 255 255
