3.548113999353731 -23.000744488767392 -230.3452121084062 106 102 90 
7.5265382451839855 -24.59806376776597 -230.2714535601025 136 131 128 
2.0707643347236484 -22.202312049883012 -228.27181032486575 196 183 149 
6.834873183514418 -23.96701259213959 -235.2608454851968 116 110 110 
7.613320650898345 -24.366831270099546 -234.75462125681315 119 123 131 
7.294274986299797 -24.004126077858327 -235.1713331569311 124 121 122 
0.6396540779356457 -21.827964966956834 -228.32645999670865 155 145 118 
0.9391603157287847 -21.80790240094415 -228.17045436977008 170 160 133 
0.8725255275591195 -22.03076799408985 -228.61697755771294 164 153 121 
3.9553303452038477 -24.981933365525148 -230.90310915487782 222 221 225 
3.981435493779486 -24.950808875138787 -230.8649010296507 111 109 112 
3.7078660791758153 -24.04224887909951 -230.43091926520927 103 101 102 
2.1742942644490313 -22.570767911151272 -228.77907433109687 165 160 149 
-0.10120982567843839 -21.99202308024554 -229.7730149044745 172 162 137 
-0.042175054835254855 -21.728872822411965 -228.55598371552685 150 140 113 
0.022730312940566932 -22.298391244616703 -230.52871423868004 199 188 166 
1.0467096167846819 -22.163110353664205 -228.600496699231 214 204 171 
0.11395428990357459 -22.42915679375152 -230.79688824622747 130 118 96 
-0.18921411889918716 -21.71302408712088 -228.95060085294165 174 164 139 
-0.11114396334453147 -22.064078642333847 -230.11568681927028 211 201 176 
-0.7521478619025288 -21.584920184610112 -228.84080492274828 126 116 94 
-0.7402431096790139 -21.585592180942285 -228.85748107088403 126 116 94 
0.10198183869384536 -21.72762300372858 -228.55627897194213 155 145 118 
0.40205040971497397 -22.166968277945067 -230.2148028457771 160 150 125 
0.9168169188335753 -22.047066742570536 -228.51047495796504 156 145 113 
0.7629282201879448 -22.413048078810444 -230.56884466693015 192 182 146 
0.5591326407428596 -22.356790476671925 -230.49184735238737 214 203 173 
0.06355233993313902 -22.320332959846503 -230.63853004972088 216 204 182 
-0.18932500994971235 -22.047490654227033 -230.08984902950803 219 209 184 
0.646862688805129 -22.295030550564647 -230.42016731636426 198 187 158 
-0.019857742667866773 -21.626259459851518 -228.30762094046565 218 208 181 
0.830892785526359 -21.37460611198768 -226.6817511936809 108 100 80 
-0.38844688906043245 -21.771308515832963 -229.27259635885443 216 206 181 
0.4166161397533159 -21.42572419071649 -227.2616031242217 133 123 99 
-0.00691753041101606 -21.361190012372703 -227.61029126796222 122 112 100 
10.112628435800701 -26.275466087902092 -230.26986303376736 163 166 173 
10.116797936866789 -27.191655125973355 -229.96407413422384 101 105 114 
6.9739664160099295 -24.49411106690515 -230.30101770827903 227 227 222 
9.466599981513994 -22.74396331568692 -230.10837038916867 61 66 72 
3.7576264503446453 -23.80318092945707 -230.5340592488185 68 70 72 
8.938225995013568 -25.743348940851433 -232.05948387481067 218 212 212 
6.805006582159109 -25.919676442633673 -235.3265333343257 223 222 219 
4.15473221942726 -24.663991509973044 -233.94358948758884 75 77 73 
5.0029943031145905 -24.89055266452771 -234.34842331895504 86 92 81 
4.278114703259831 -24.005757742760775 -233.87727078555957 56 62 58 
-0.1442338175877893 -21.504729018138132 -227.99469256038455 122 110 94 
0.6547604806129641 -23.88926873700468 -231.08453828356508 105 101 101 
4.3692923647550685 -24.620145039644196 -234.03780164266067 60 60 61 
-0.3256812198030019 -21.45382824677744 -228.08951994143254 166 155 147 
2.5545944528224425 -29.14796131984886 -240.75426375887739 141 141 153 
0.4032934304272402 -21.367585139424953 -227.03311147242516 167 160 149 
0.4491684630582 -22.418673652440464 -230.6377902969581 148 133 109 
-0.45095811377920825 -21.602970858492235 -228.47956577514816 216 206 179 
-0.6230628399368783 -21.5592860857162 -228.67187603643822 124 117 98 
0.7153672751818476 -23.653285385778602 -231.10628414911443 129 124 121 
0.7030022864888252 -23.546355242333043 -231.130508111545 108 103 100 
0.24516848783534329 -22.51369762304246 -230.84194745052176 203 191 169 
-0.19459238913624688 -21.80110699566736 -229.1671798462183 151 139 113 
-0.8439391413835864 -21.84533082101317 -229.89942367303325 182 172 145 
-1.4941782119771432 -21.698209445779803 -229.96195025695346 179 168 142 
-1.4666723139935556 -21.70293456187494 -230.00769069099692 179 168 142 
-0.6183393357060538 -21.92292590186404 -229.86674382652893 159 149 122 
-1.0619344971110962 -21.631952701781362 -229.3561846825503 134 123 99 
-1.1039667233340822 -21.638951133859553 -229.38087385254317 139 128 108 
-1.090947898838877 -21.64187523214389 -229.40156813554904 139 128 108 
0.6191795964422795 -21.565127652360186 -227.60243736832467 163 151 127 
-1.3311562123239753 -21.66638947208189 -229.7527345219116 154 144 119 
-0.6472464107241507 -22.12934371211969 -230.6897459027246 232 221 203 
-0.5064414976398837 -21.552386109234426 -228.47817130145017 132 118 103 
-0.14279887275195335 -21.257231585479992 -226.6908319793467 214 209 203 
-0.7989800705885557 -21.90857249464974 -230.20986986226822 203 193 168 
-0.8650065261949322 -21.898707643103116 -230.10794202590495 203 193 168 
-1.8210375101564011 -21.514428829806068 -229.32116098669212 201 201 196 
-0.44338755918222716 -21.880016588928434 -229.7339692608462 200 188 164 
0.509935811422153 -21.40912662898345 -226.97408105805948 120 110 84 
0.4685709216257976 -21.83571447147127 -228.56699194744627 143 130 104 
-1.2708367636874414 -21.650253721189614 -229.67634340179805 149 139 114 
-1.655743681046573 -20.947249859793637 -225.0774268502525 252 251 252 
9.965009737181731 -23.023141135921634 -229.82730953881133 189 189 182 
7.260504387201536 -26.25105449465505 -234.70310214376423 226 223 221 
7.42941569911504 -23.966246104075566 -235.2549675232337 201 196 196 
1.0302702410668019 -21.33778673274552 -226.29963902741207 98 88 75 
0.7602214226467225 -23.471353113165684 -231.12170056076377 164 158 156 
3.7519943694832847 -24.06819050408032 -230.53093258805677 219 217 218 
6.851163129471445 -23.594350890177093 -235.14631738526492 156 149 146 
6.308611302524284 -26.957193672914496 -235.47484676117972 124 132 143 
6.750043435126528 -27.04063706574273 -235.31007369824363 143 152 158 
6.729982602693511 -25.926228878804835 -235.44760589284232 230 229 225 
5.6490150401159696 -23.417328717889298 -234.75633030103614 187 181 179 
-0.5405966518422787 -22.177891456548032 -231.20339911731443 202 196 174 
3.7257709048187877 -23.293655628839225 -230.46937821795564 149 140 138 
5.638690234264388 -23.46122896794476 -234.55198583217964 111 104 104 
6.803380901322214 -24.970371818748788 -235.20328138323538 54 61 68 
7.174741306415015 -26.48980973144777 -234.8280485781168 89 90 95 
5.819877232966945 -23.572868849620207 -235.18999903852273 59 59 55 
6.913315695968805 -25.87922960153012 -235.3902389610112 118 117 113 
7.357898171889985 -26.07506203345149 -234.54392154390877 226 225 221 
6.54225049345925 -26.344682202617257 -234.81673509782166 86 87 92 
6.600535271954641 -26.35841692285183 -234.88712158651822 86 87 92 
7.24506962811688 -26.5634085205508 -234.80868811317964 139 141 143 
5.626705675762267 -23.485236641064606 -235.18068928400027 72 72 71 
3.9460560131565643 -24.63233247339494 -230.73473871515094 209 207 208 
4.331787543133601 -24.83515728565076 -234.43390363723768 224 225 220 
7.285756155387304 -26.188349590214372 -234.61260868482225 163 161 162 
7.336105291687787 -26.201298490959893 -234.65896132231072 163 161 162 
7.333743916476266 -24.050600855699646 -235.16535145709037 176 174 179 
7.502647242682784 -26.18469518175099 -234.48414562343197 176 174 175 
5.740631250724391 -23.508836563920365 -234.90184189018424 165 163 159 
7.448847184376149 -26.30291863054591 -234.68689896138096 221 219 220 
0.5859250813409176 -23.945829159352876 -231.03950113705196 80 78 79 
-0.09743316331579877 -22.195759439295784 -230.5672054332029 208 197 175 
0.7078960781678347 -21.840748015798 -228.18814880445814 149 136 105 
0.6414401586576304 -23.826958389454134 -231.0885012622315 176 173 166 
0.75580836961025 -23.19509604381145 -231.2036924321058 129 124 121 
0.74183019477789 -23.124080662883824 -231.19823083073956 158 158 148 
0.7994235859834049 -23.489839754532824 -231.29246745229938 65 57 57 
0.18445551565591245 -22.52739600469997 -230.89546672655518 198 186 164 
1.1971294575406404 -21.974176702153557 -228.6190192411316 167 154 122 
0.4628726643223615 -22.31468903424183 -230.39640123957702 196 185 157 
0.8212564773577355 -22.093968561393794 -228.60535922213876 160 147 115 
1.3897402314852485 -21.674208943622077 -227.4459173447402 192 177 154 
1.355319188987096 -21.803637403637914 -227.83199318080725 201 187 159 
1.7908119012643908 -22.113903571827358 -228.27382136332648 163 151 121 
1.1810468510005308 -21.930647050560772 -228.05135864879935 193 181 157 
-0.6583249334383936 -22.096260441190466 -230.7106111844278 132 121 103 
0.15881165814833764 -22.045324573334625 -229.94115441196158 155 143 117 
0.2422623639066046 -21.69026113682258 -228.13686620994338 211 200 170 
-0.772297830812775 -22.044579067799724 -230.59123866126515 177 167 149 
-0.06283739702635671 -22.33889015130247 -230.79189748970035 147 138 110 
1.0939726029657493 -22.194719083485175 -228.71664612403669 213 199 173 
-1.1275033114618793 -21.633144334475254 -229.44707931715283 153 142 124 
-0.4634719058262249 -21.2878232892445 -226.966871789519 102 96 94 
-2.008847095090786 -21.42793978817414 -228.69297197574127 92 91 86 
-1.1169926738309073 -21.72141642992847 -229.7829824526739 217 207 182 
-0.8674144171408074 -21.602463808208366 -229.0275910055483 126 114 96 
-0.9074714435669478 -21.599340776879355 -228.97918729631613 126 114 96 
-1.856783491867617 -21.744690944797135 -230.50093460836595 157 149 130 
-1.7677039727594206 -21.743701031347527 -230.48563954464743 147 139 119 
-1.755311503804549 -21.749395259543185 -230.5118621370593 147 139 119 
5.826725984989778 -23.402148024276844 -234.76876185126548 193 185 183 
-1.384271338682268 -21.77804777751384 -230.25739908544034 211 201 176 
6.585177681920712 -23.179411984882694 -231.13829730959154 173 175 164 
10.319915642284343 -27.275666435226896 -230.166417305376 110 114 119 
8.503749077232797 -23.487102188129484 -231.2130631467582 54 55 50 
-0.24809581710402995 -22.265336506323905 -230.79354774970028 149 139 112 
6.686264690895484 -27.519602253364127 -235.1970180772479 139 149 158 
4.042324026871029 -27.538709108576107 -238.93544915420938 226 225 225 
5.732786780918062 -23.685748611148796 -235.16908290555108 181 182 177 
7.4646032654789565 -24.58198905949441 -230.23183748891336 136 131 128 
8.773951798270446 -23.367691384078192 -230.65808913857575 203 197 197 
6.868385633466261 -24.54390129684604 -230.42333476805584 129 124 123 
9.819028872409007 -26.939310721793213 -231.6349434956769 134 138 147 
6.726577235523294 -25.92076821082746 -235.44507101650345 230 229 225 
7.2307560284837535 -26.18143269260569 -234.71872387887385 223 222 220 
3.68583668277401 -23.206193931520296 -230.47991048971505 139 135 135 
-0.3152934294640488 -21.532619401637223 -228.282870410905 148 143 120 
5.521128802961485 -23.6372234517869 -234.21482352651952 191 185 185 
3.570901377127086 -22.818607631682074 -230.48148399252744 116 113 102 
7.479305316999714 -26.17965454658181 -234.46228448242624 176 174 175 
4.228772738088864 -24.89809892301504 -233.9660288585926 141 140 138 
6.598842413680174 -25.84742840220063 -235.60079394589582 226 225 221 
6.107054255852276 -27.1379208030542 -234.64509695580585 99 107 118 
6.408040103536294 -27.151686150025263 -234.73424696918497 82 90 93 
1.1020888223246885 -22.003572300862118 -228.33944083185284 144 133 101 
0.5683104785145474 -22.27984007596361 -230.39614052410698 150 139 111 
6.925760159360422 -24.513327358424455 -230.3948435845283 233 229 225 
0.5156412091650964 -22.27107440822668 -230.40377125020382 202 191 163 
3.5259065907675904 -22.87107538925718 -230.35651881936013 138 134 123 
5.905368550613531 -23.574274561820936 -234.99851724316778 72 67 66 
5.82055705637535 -23.549160916880023 -234.92010827528705 72 67 66 
6.4256586665464255 -23.376405064261817 -233.8622207759662 168 161 153 
5.487461436877567 -25.233459381195846 -237.17549321365885 75 69 69 
3.8862143780669527 -24.12472462389407 -230.49913811917628 142 138 139 
3.5947098783040587 -22.98576790677899 -230.66677314512572 215 207 204 
0.9752482661780135 -24.790879152617954 -234.71729802215697 201 202 206 
0.2928109472522067 -22.33289981698514 -230.47993836740818 194 183 155 
1.098445906594634 -21.843452231835293 -228.0076167336067 205 193 169 
0.12692625668965718 -22.16289977451005 -230.24558780701716 202 188 161 
0.3327485554525822 -22.307477052959264 -230.41924449047593 194 183 155 
-5.884993457803233 -23.426112000344762 -231.0044412124824 224 225 229 
1.0401463367379193 -22.12445101991881 -228.54360981782986 165 151 120 
3.85138298167233 -24.11513267595423 -230.43191842122633 105 99 99 
0.7907664788351099 -23.08177699538807 -231.15110490873826 135 135 125 
3.792136547850646 -24.021072701580803 -230.3414459159781 105 99 99 
-1.2541219162008588 -21.937010740451935 -230.78417632774205 207 199 176 
1.8631445579892443 -22.205452731796903 -228.31204803717424 130 123 94 
-1.3641287753006708 -22.096946091434866 -231.04267767693625 157 150 134 
0.5988821252008734 -21.874699956609838 -228.4528617321522 169 156 125 
-1.6175540060207823 -21.720366282549993 -230.19031511352898 174 166 145 
4.224864477306738 -27.77510040410784 -238.73525024853666 120 119 117 
0.5590081564225358 -22.358373141997475 -230.4988392194582 214 203 173 
-0.12491269015413309 -22.380451030005002 -230.91252657744843 132 122 95 
0.7850510798681398 -23.051173952722756 -231.1937940323978 159 159 148 
-0.614919990550078 -22.142264347195333 -230.67183718482136 219 207 189 
-2.361796749556788 -21.88266453650491 -230.62982129543644 173 163 151 
-1.259076541588712 -21.689357588887958 -229.32293208493752 220 210 185 
-0.8346012025827605 -21.512423239342972 -228.72250565364124 196 185 172 
-1.0371770668608775 -21.71557231746729 -229.69033021521705 221 210 186 
-1.836478644151967 -21.648598549235423 -230.4197156364495 164 152 140 
-0.8195188586741011 -21.65052967908777 -229.02452427483223 222 211 189 
-2.1735167011987926 -21.785409097968383 -231.00149782012636 112 102 88 
-2.1940650613326937 -21.784126921053577 -230.96315849126535 112 102 88 
-0.6432596323776778 -22.157483931301527 -231.00550705751215 203 190 173 
4.26564393776799 -27.301036903236295 -238.55419246793832 221 219 220 
7.335297156469153 -24.387316710283486 -235.03717893602754 99 103 112 
-4.728559691613 -21.528081163499174 -228.8523630123476 81 83 95 
7.604181975716386 -24.79679787739922 -234.70084616744938 112 117 123 
6.223685909952991 -26.410961134221814 -234.78598211936622 109 118 126 
10.701672806947528 -24.86134563033252 -230.183017480658 139 141 146 
6.115570158229559 -23.687377443848305 -234.7257267563142 190 187 180 
-1.2784157965056835 -21.897715957051027 -230.46500935010505 221 211 188 
7.499869322610223 -25.1178555479002 -234.65659814537207 110 114 123 
7.491878226696912 -26.613692253332168 -234.8341147280301 159 161 159 
7.329333873458793 -25.328047419414833 -235.0889066661599 60 61 64 
5.398129335966942 -25.108045560570076 -234.23581353392947 228 227 225 
0.028577306339059305 -22.448947063588584 -230.94340727165158 140 130 104 
6.782993908390125 -23.245691729337235 -231.35942478763172 197 195 187 
5.37549754267306 -23.61504573852298 -235.01128793633046 62 67 62 
6.857040580160998 -23.219385480720234 -231.3185462409591 194 197 187 
6.563234504482949 -23.27996478715871 -230.9671277870533 65 68 59 
0.6799904738488607 -23.405079251188855 -231.1665486195626 152 151 146 
-1.2806149881979962 -21.63497192037111 -229.69912518614387 233 222 200 
-0.5457059416880696 -22.041406810765828 -230.4088097836522 160 149 130 
3.852059228164805 -23.99083540581817 -230.415557214386 150 144 144 
6.628793168761803 -23.44527023928594 -234.18239941040883 176 169 160 
0.5624957685034815 -23.852815313726346 -231.10748335916372 94 92 93 
1.7015960652513513 -22.239927018424325 -228.3860267928992 136 129 101 
1.7311547230718105 -24.290449788987424 -231.39170882651538 228 227 225 
0.9423103524796943 -24.72848499435799 -235.21726851064602 70 70 78 
3.589521480404173 -22.86406643776089 -230.31214643993383 93 88 82 
0.8385140228963479 -24.01004100089322 -231.08017577235944 109 108 106 
0.6412479231157704 -24.118749730584717 -231.17146614303724 79 77 78 
-0.21052324656342591 -21.508357687807354 -228.0035470320422 149 139 112 
0.5625004913496383 -24.852579694325467 -236.48065036221237 202 200 211 
4.022151532998947 -23.836770113645716 -230.40818015385875 145 139 139 
-1.2441116612640428 -21.39439673443325 -228.05965851393825 102 96 99 
-1.402029787705004 -22.01871273944028 -231.02284731502226 234 225 210 
6.8892332864479044 -25.902621998413718 -235.27219524106994 221 220 216 
-0.5732558914644699 -21.93488740304864 -229.92901069105747 162 152 127 
-0.1303710172863788 -21.540762878921996 -227.88957824237724 222 213 184 
0.8608032817214166 -23.158508166111634 -231.15641005036215 192 184 182 
0.6566298184657313 -23.90605818300756 -231.00155064544347 158 157 155 
0.4624975457003302 -21.897408701124004 -228.8249816522357 185 175 148 
-0.5885769121395157 -22.2046983022622 -231.10704396181194 130 117 98 
-0.04203195865082421 -22.42584792038069 -231.02880299047328 171 159 137 
-0.7027308002593173 -21.571238543722636 -228.8199047083417 149 138 117 
-1.2856616064563013 -21.65586345996725 -229.72593675775386 145 135 112 
-0.5894287621049585 -21.703130735380007 -229.1952230815242 191 180 158 
-2.8789419236943417 -21.636461109273952 -230.40797120045988 40 42 56 
-1.2919841930668383 -21.40104836524988 -228.17208336430454 98 91 99 
-1.765010336150553 -21.456517941232583 -229.21717143219436 255 250 246 
-1.955083427062732 -21.515454196287017 -229.4016018497647 93 88 88 
-3.91370756332266 -21.618700441278573 -229.1851047176139 62 61 67 
-2.4868919881941736 -21.54646264742418 -229.76327044131324 99 88 83 
-1.6907975719638557 -21.423967244076845 -228.5340338070813 105 96 89 
-2.705271514004096 -21.896582353586513 -230.45300791047165 219 218 226 
-4.29611943828958 -21.77951433624171 -228.87540432074925 236 239 247 
6.715337886697 -25.899158753132042 -235.59053802868266 215 214 210 
7.706484739587822 -25.157447853395116 -234.67886754990644 75 80 83 
10.175347201970752 -23.78098825206353 -230.52442020155337 83 92 99 
9.483240536228763 -26.100737241679315 -230.47562209213066 89 89 94 
7.026094761097269 -23.726801511805796 -235.27216174986785 137 131 129 
-0.4240642289850314 -21.927210682747045 -229.85957304881845 150 140 115 
0.6298696337130423 -23.845891966117456 -231.1518367836902 107 104 98 
7.280431527665456 -26.345210310976444 -234.60988485229487 156 154 158 
1.5025295329588602 -24.6564600771488 -234.97579599533225 64 64 76 
7.628559033904423 -26.283509413153418 -234.49779269729822 222 221 217 
7.118597177643608 -26.38786475824241 -234.78088898032266 195 196 191 
-1.317795939350077 -21.999609129591036 -230.9749990976233 215 208 191 
7.024481792200817 -23.210354917730943 -231.3286563416878 169 170 162 
3.9571684174114523 -27.832368769832513 -238.89554708750651 127 126 129 
7.78159028370078 -24.208484488102556 -234.92048889152346 98 105 111 
3.636436737947278 -23.836173217925783 -233.12802286436852 63 69 66 
5.333239757687949 -24.063808231724003 -232.41268418874012 86 93 96 
1.7485752401558727 -25.839150460314148 -231.13079082883849 237 236 234 
3.727562968595848 -23.378724538550756 -230.36446486504508 150 143 140 
-2.4580943442475274 -24.189157995648994 -232.74138603827936 129 130 134 
0.9108866632562496 -24.28599260886157 -232.3168383292308 193 193 195 
2.0663653716522816 -22.335358778770477 -228.49685721933773 170 164 138 
0.6465615117798791 -23.72701942204545 -231.05796535468747 161 152 153 
0.643284714873289 -21.577442344783528 -227.50298804258588 168 158 131 
-0.591394766308639 -21.553097567444 -228.56184689910467 141 130 108 
1.125059334005286 -23.661486488811157 -235.3832449374329 73 74 82 
-2.134719521369817 -21.743921788370514 -230.97435476959345 207 198 183 
0.8237769539868225 -23.366803695411498 -231.12159466203929 128 119 120 
-1.383328669752217 -21.66253603748746 -229.77740215482913 146 136 112 
-0.2859784088584263 -22.349637943375903 -231.14489264934164 148 135 117 
-2.3801853648765814 -23.979766801662375 -232.5705538114231 87 87 98 
-2.592548103111838 -24.009336701819237 -232.80448555217197 216 217 221 
-2.5903268656158502 -24.010579622381325 -232.80983766262358 216 217 221 
0.079960706630402 -22.313155681175736 -230.60531100906655 200 188 166 
-4.057249506150711 -21.44726491131459 -229.0517273120259 139 138 146 
-2.4010997051672263 -24.490478659033364 -232.74605630902735 187 187 189 
-1.6092617096022082 -21.937928409115003 -231.0757656114947 194 183 169 
-2.3483425351309393 -24.259564488402127 -232.83858033046926 209 210 214 
-1.780781624261607 -21.811703323570526 -230.75335728646962 213 202 184 
-1.0436572594126972 -21.623802885283776 -229.28913640847455 115 105 80 
-3.9888637253017123 -21.44853366579926 -229.1253146519652 239 239 248 
-2.6953280445584653 -24.182959223244758 -232.60380054778352 210 211 215 
-1.7598338388578014 -21.84553599979145 -230.87257818727238 161 149 133 
-0.5638249057152791 -21.842468610496887 -229.72682066210092 221 211 186 
-2.4473814351055694 -24.197158309075903 -232.76701039666057 129 130 134 
-1.4391977978578439 -25.276522368591408 -233.20847730235266 168 167 166 
-4.046788619307392 -21.3127288199358 -228.69293149174416 193 193 195 
-4.2181463384012545 -21.39470111659727 -229.0057558212539 42 44 56 
-4.242919238465049 -21.6752663856064 -228.90115044585997 80 82 94 
-4.6588456939104645 -21.695374511876693 -228.85891824991165 84 82 101 
-4.025427795495645 -22.21679119504729 -230.60825420515667 233 234 238 
-4.465203299126941 -21.52504830844473 -228.86283651516231 47 49 62 
-2.12553372196237 -21.69299003996516 -230.65170177282155 184 175 164 
-2.648095310911387 -21.983043920622546 -230.50170260333908 50 49 54 
-3.9980503242957894 -21.626243534418116 -229.14284023712145 211 210 215 
-4.0864234405555635 -21.321083802617842 -228.70259615859294 248 248 247 
-4.755656379187371 -21.542181426615546 -228.91922630651052 217 219 231 
-4.606206933751977 -21.64052795696201 -228.808252344001 196 198 210 
-4.5983805312433645 -21.641294342098952 -228.83096463248205 196 198 210 
-4.58474684717244 -21.565612616443012 -228.746129736919 151 153 168 
-4.3260747596560805 -21.67223597037706 -228.9054400373666 86 88 100 
-4.4167390294675215 -21.455803585820604 -228.81304903265965 135 137 150 
-1.6601356092859163 -21.433817152624314 -228.49841003687987 215 206 197 
-4.266860197686086 -21.64062869211702 -228.9749932924711 113 115 127 
-4.5976456614922085 -21.737878365035304 -228.85063287765524 247 248 250 
-4.836387901042428 -21.541589603283015 -228.95465786692 222 222 231 
4.281933496938606 -27.395261247922875 -238.80933280861913 116 114 115 
0.7030779240108842 -23.85382208073972 -231.101008662666 110 107 102 
1.4632349379870817 -21.897445385356143 -227.9336350671453 146 135 103 
7.799969397148544 -24.243176138216025 -234.8335850732276 51 56 62 
0.5270571302432643 -23.849288892360036 -231.18972782245365 131 129 130 
7.565012111578767 -23.38478325908923 -235.39755937207138 208 199 182 
7.191871400897824 -26.52822536191662 -234.75475157298666 123 124 119 
0.33935295252409503 -22.47120695558917 -230.81858879429052 119 108 85 
0.487460562232485 -22.426944492791534 -230.5394954993552 199 188 160 
6.199894667124838 -26.325880397828342 -235.08662794140497 96 95 105 
9.770025013654745 -23.555043623975937 -230.8664357844334 128 126 127 
5.0493055263955995 -24.96413212309139 -234.54627076379796 198 200 193 
-0.2763348948615345 -22.316843694615013 -230.99917761987209 164 154 127 
6.659396138526418 -23.201971104515344 -230.9451726242575 205 207 196 
4.600935604538535 -27.728304358723786 -238.9365170836831 233 231 232 
6.533394933728289 -25.056043735063636 -235.06740778810428 137 135 143 
7.524740783285807 -26.030308437613744 -234.52343706369751 156 155 151 
-1.983454896938028 -21.78712864916605 -230.8656289241897 115 108 90 
-1.9702405765840183 -21.785775207052332 -230.88440477619494 115 108 90 
-1.1739543708172135 -21.646163400018757 -229.46821916391474 140 129 109 
2.6731297722626834 -29.04409391486103 -240.7303356967613 241 239 240 
6.717939171797511 -23.40702505278142 -233.46256093948898 122 117 110 
6.8225406341157395 -27.177598354282317 -234.62325985597585 198 197 197 
1.0312468780456214 -24.736825645439502 -234.72559115238317 116 117 122 
6.5452078655610535 -23.095265563278097 -231.12047893643108 86 80 77 
1.6533740678467268 -25.042287751514 -237.17728362744398 227 227 234 
4.340614372290091 -27.849671490504754 -238.7276518424249 128 126 127 
3.566675860018222 -27.515243005950502 -238.72265052243884 128 130 137 
4.996644186423154 -24.37409980686367 -237.46328388563018 55 57 70 
3.1743239176974924 -28.880068811526982 -239.07422134934723 133 134 137 
4.326725417138846 -23.817944684872298 -238.82756677082995 148 148 151 
3.4991342070522506 -22.958491628086364 -230.13871947480305 177 171 165 
3.9197997583141984 -24.662419950581338 -230.55886231134443 155 154 152 
3.8845166342248234 -24.087803869196158 -230.24924051364943 107 101 101 
6.477431897128113 -23.316585160550765 -231.21139713783734 182 180 177 
5.924132634897376 -23.619462112575185 -235.53659538143242 174 175 170 
1.1249015615248794 -23.666786609980434 -235.39853163070194 73 74 82 
6.627258092443455 -23.37125039457171 -233.21235366086006 132 128 115 
0.6088484440432893 -21.922223594887782 -228.66532574375594 184 174 147 
3.0866194838545766 -29.214895456863772 -240.6918156506028 129 129 133 
5.263680588711949 -24.208398299338818 -237.60382715695775 116 117 123 
-0.03612102846378207 -21.347426597274087 -227.46813723796913 153 143 134 
0.6944018438854869 -24.883661221012098 -236.5838722236735 198 193 200 
3.847121564480318 -24.264339908130548 -230.72324493269898 231 225 225 
-0.4542042840010794 -21.858743370374903 -229.62919612030873 205 195 170 
-0.7942622268773505 -22.070981484224546 -230.9392607115775 167 154 138 
-0.6628602780735946 -21.744659746752077 -229.4857988582903 173 163 138 
1.093721648075615 -24.784240830439188 -234.9496426532276 100 101 105 
0.7729400128029624 -23.733820289909147 -231.08701347542876 91 81 81 
-1.5530131975003911 -21.82852552558917 -230.46476389466739 184 173 151 
-0.20377477640523978 -21.78093630000469 -229.14328852988592 144 133 111 
0.7743637346944467 -23.913966820345994 -231.0733524842836 86 85 83 
-0.2364695275533819 -21.99247478929562 -229.9441157816383 157 147 122 
0.8183765651908175 -22.47287730317405 -230.65594445562147 126 118 96 
-4.989344042048387 -21.80493936471604 -229.40899082979493 194 193 195 
-2.7821085135556274 -24.141166928611106 -233.1574194332394 87 87 95 
1.418313429775381 -21.938196936565163 -227.83742105945157 155 145 118 
-4.017144554072743 -21.96908757640217 -229.23921652166013 81 84 93 
-0.2345303844227402 -21.580362305539193 -228.23065683016887 214 204 177 
-2.4833306142818543 -21.639665456381273 -230.5908381063661 137 126 125 
-1.4422940001601319 -21.40951155883732 -228.25349949634446 211 205 205 
-1.7816191053681791 -21.869247504139437 -231.0193331850524 166 154 138 
-0.8523002586789374 -21.751280873960766 -229.66738086562228 192 182 157 
-4.346518809937649 -21.59208022106634 -228.85819019150347 230 232 240 
-0.2923524527116541 -21.812404136768052 -229.49374503065872 213 202 180 
-0.4347905569246109 -21.53408472929319 -228.41297918978836 148 138 112 
-4.034761333643644 -21.453167832031834 -229.09083161781064 144 143 150 
-1.8559003238321026 -21.423181100369106 -228.52850368244398 99 96 97 
-1.1407039582114606 -21.748115575722657 -229.89647495667566 209 199 175 
-4.9250115812517095 -21.863160679439602 -229.36294898497107 153 153 160 
-1.4776070180650294 -21.71800545967509 -230.12263044600462 163 151 140 
-1.473694847836299 -21.71706137522942 -230.12841572112518 163 151 140 
-1.810021643716368 -21.77177291139148 -230.7591468612022 141 132 117 
-4.134658604061954 -22.005736541334223 -233.67266472903725 110 101 94 
-4.134658604061954 -22.005736541334223 -233.67266472903725 110 101 94 
-2.496094805825436 -21.61617845269422 -230.7036484604369 123 118 115 
-2.651495415072219 -21.63409113098414 -230.47557893988926 157 152 149 
-4.866608690716092 -21.4804558467132 -229.424796485774 83 83 94 
-4.521662997226173 -21.415372798084263 -228.90330085555826 50 50 73 
-4.894848652138052 -21.553338553453905 -229.11563785890738 229 229 238 
-4.3737983407768155 -21.78265470360794 -228.98786461337534 239 238 243 
-4.897791491095191 -21.443648187327877 -229.670947467187 47 49 61 
-4.296581459944619 -21.69444073794992 -228.9743375794232 105 105 115 
-4.861962026326125 -21.40627200729668 -229.79613477974024 184 186 198 
-4.707787568517261 -21.551037838776736 -228.92887367516852 70 70 80 
7.449102219595602 -26.52253955573217 -234.27294198356907 113 113 121 
7.560523483617445 -25.342396305625904 -235.24255893675078 78 76 81 
4.2416275292588494 -27.79297936010976 -238.6794738506958 132 130 131 
7.385664176721889 -26.50365447741295 -234.3689690437518 145 146 146 
7.873345511100155 -24.37350487017158 -235.0088444540291 71 76 82 
-0.8533272903330271 -21.307010887441592 -227.21149945234873 194 189 185 
7.452413805320447 -25.382973829931274 -235.98577061414593 138 140 145 
1.0534447695618923 -22.15930623511342 -228.69487922177797 168 154 126 
4.950934681465313 -24.899171607027625 -232.01068386704537 213 207 207 
6.405796396585885 -23.374700801502645 -233.79309661986645 151 146 140 
3.6900602927276225 -25.03435054773093 -241.17814106818793 103 111 122 
4.649169187680428 -27.79338089469191 -238.20641813772585 233 231 234 
-3.797787771957502 -22.34692849999275 -235.4289736862072 136 130 103 
4.02204959173045 -27.534063535407114 -239.09924116670038 115 113 116 
0.3835588656082507 -24.016471807402063 -231.1110625135708 120 118 121 
2.1225062266956627 -27.117949809207694 -237.8885852966533 85 83 88 
3.697126709956649 -24.91563187012911 -241.16786402941727 71 84 93 
-1.288739447228238 -21.875072770426417 -230.51629130853067 190 179 155 
0.6410803115238508 -24.023186432910343 -231.14203647268474 96 94 97 
3.74735483247629 -24.640872923933856 -230.49025080017196 125 124 122 
-0.12337237363759357 -22.09271719931902 -230.1819459520503 168 158 133 
4.40042259244683 -28.938115862739657 -237.851831659614 142 140 143 
1.6124713369180625 -22.30341730230869 -228.45719941259176 147 138 123 
-2.652652155804361 -24.163436012052067 -232.64862692321384 142 143 147 
-2.6168725016278813 -24.189495797000834 -232.73908734933784 142 143 147 
-4.372905822675307 -21.659752368792784 -228.9451117965026 94 96 108 
-1.431525809946507 -22.756576895454778 -232.21367070223982 206 201 198 
-0.5068541674226736 -22.19900783299986 -231.0991330096616 204 193 175 
-5.790033253113634 -23.65285529114061 -230.87431482359864 120 121 125 
-4.921739882298667 -21.56890035620785 -229.09356687605458 233 233 245 
-2.543788233496855 -21.09664570806182 -226.38611746224427 254 252 253 
-4.1016207522977055 -21.925679889812564 -229.20011625618298 90 90 100 
-3.1065035542420105 -22.43014697967163 -234.4462656045502 193 190 188 
-0.6694193084689175 -21.594530680496227 -228.73814631988148 188 181 164 
7.435739867272503 -26.52122619711447 -234.4070299221509 151 151 159 
-0.5491296524315032 -22.073240371267318 -230.40349754342466 205 194 176 
4.30584108797828 -27.989707136810786 -238.72509122179895 207 205 206 
6.992525945716423 -24.018829401288123 -235.1180994357071 178 172 172 
1.638132311834525 -24.779335939866897 -235.24267530815754 64 64 74 
-1.7534979853365371 -21.740741203195302 -230.40710311964202 159 151 131 
3.8579649753243643 -23.8392026538098 -230.40065682049206 144 138 138 
7.473140769659409 -27.063719061825516 -234.56350864516997 164 166 165 
8.76867386824999 -25.18365461959145 -235.19194614878072 77 80 87 
4.21247632328506 -29.052268912609115 -238.41245042023888 120 118 121 
7.575884254385699 -24.221444630183363 -235.35702230116482 63 65 67 
8.233544142911782 -25.26180167648561 -234.9179753830096 150 149 155 
6.430860726237526 -27.48252098437858 -235.35980958073077 145 157 161 
3.821046613999229 -23.970999564927588 -230.33100393481118 97 91 91 
7.401182853537904 -24.21586375234181 -235.10309071575426 86 91 95 
4.034617673129034 -27.803092023697594 -238.911946247367 221 220 218 
-1.078194381363005 -21.383040365834955 -227.9956972507539 211 203 193 
6.0514713990256865 -23.461659938743487 -234.9040689559842 110 105 101 
-1.446805747041708 -25.30688250685157 -233.19417683981655 234 232 233 
-2.4149611462281513 -24.48407542509691 -232.71387223057275 187 187 189 
4.532221752053118 -24.70381947922271 -234.1347650466455 102 105 98 
-3.551015343033768 -22.134856014060208 -234.17863579809926 183 176 158 
6.097402963844942 -23.75579943087781 -235.14379568985038 90 89 89 
4.223496462183562 -29.005329921949716 -238.49371823942568 116 114 117 
5.411375522760608 -25.43019641353412 -237.31370405548702 189 187 188 
1.3537999935414007 -24.8004357287182 -235.08540195979913 168 169 174 
5.501792971788973 -25.410623716064038 -237.4556580822441 82 80 81 
4.67979556555521 -27.89650672919847 -238.31804908270962 183 181 182 
-1.3484861842315183 -21.675695756760966 -229.89809339114188 150 139 118 
-0.10605913517395038 -22.27633451162921 -230.64697815892504 147 135 109 
-1.299772254720125 -21.855849605356553 -230.756507927524 184 173 151 
-0.5303304025293869 -21.539002064734966 -228.4007950850713 136 124 104 
-2.195853157487676 -21.533757680583506 -229.52408516389707 188 186 186 
-0.6750181701851972 -22.074512152055195 -230.85852106751287 194 182 166 
0.7617841703983004 -22.117997608599257 -228.80071495775528 154 143 112 
-0.9653271257121361 -21.75710100816401 -229.60424399963733 210 200 175 
-1.9079847502986667 -21.432120082599823 -228.64239054154373 103 97 101 
-1.2637237963680263 -21.38302043920151 -227.90454186721198 102 99 91 
-4.025117737902065 -21.37490909200841 -229.16061996766598 58 55 66 
-3.9353970560038363 -21.330836549673045 -228.81680921866302 155 153 154 
-5.646117520806513 -21.58076984469065 -231.24169831511645 85 81 66 
-5.96271329553214 -21.630490613890963 -231.43590917807768 192 194 189 
-5.8753820865890845 -21.537430351967437 -231.26406951598395 60 62 68 
-5.671212645914693 -21.542627850144264 -231.29912111994543 69 69 77 
-5.667730841072142 -21.54269426225976 -231.31275063383717 69 69 77 
-5.830817409689232 -21.62873100958995 -231.1287817769341 179 176 103 
-0.03099894418267013 -21.524646613029407 -227.74615201849628 222 212 185 
4.458874078288872 -23.583171230399756 -235.42893431393344 159 156 154 
4.227190254411653 -28.94664376827305 -238.50228525596145 215 213 216 
3.062422812699026 -29.233465806955564 -240.51636487105708 125 124 129 
7.481600499184424 -26.465474372041875 -234.36526043344662 95 95 99 
3.0940618659996346 -30.05510648514202 -240.63802156193037 128 126 132 
4.20130282227386 -28.877967496272277 -238.53434548351487 143 141 143 
-4.529331047341159 -21.69497137322763 -228.93967859743913 99 100 107 
0.22578497825313093 -21.834154405174875 -228.6548391701525 183 171 147 
-0.996888766323579 -21.48485106652913 -228.35303936613005 189 184 175 
0.5599489977599177 -23.991436764824286 -231.01776933556414 112 106 106 
-0.7753369215328547 -21.623683387000405 -228.7020643195053 223 216 200 
-0.29058555930438956 -22.27195121342701 -230.93311530946386 184 172 147 
0.9431614111090454 -23.269080947647883 -231.21970624348654 148 143 143 
7.732620873755238 -23.736628476468482 -235.33207490195917 130 124 116 
-0.6020931199257973 -21.616231319074732 -228.63619261824147 223 212 187 
-5.706799522239621 -21.75957616459992 -231.24483727827726 63 62 82 
-6.019275879672307 -23.60981624841061 -230.78123352380274 112 113 117 
-4.474050217309653 -21.621957556605295 -229.04763296713207 103 103 113 
-4.7296334771716175 -21.56326119950313 -228.93211543940026 240 240 247 
-5.816440199040613 -22.166554186985845 -231.15990782668177 222 223 227 
-5.697367876756644 -21.766001232893203 -231.2763636301221 59 58 83 
-5.603875625105772 -21.562308627386145 -231.28793755564243 186 178 174 
-4.700020114599695 -21.571145943848794 -228.99119480949054 237 237 246 
-7.733034657945566 -20.887479243533917 -227.13867533815778 206 205 203 
-1.7320089480734566 -21.418900901432572 -228.4810366203438 100 94 91 
0.8027097520655531 -24.91807917275637 -234.5656255078825 162 163 167 
-1.3374916748771568 -21.41971297412303 -228.1684222608955 103 98 95 
-0.33343450422094634 -22.31039622100709 -231.0969879032649 196 183 164 
7.162670206280566 -23.783474910912595 -235.48787193728666 173 167 167 
6.921117034898387 -26.591080252970478 -235.46350293585348 110 115 119 
4.256760254609077 -27.87704975978741 -238.7390737892528 128 127 125 
-0.9321057311896794 -21.60207527954546 -229.10684190100778 133 122 101 
0.41847907913896165 -25.992754033056556 -244.82644564822988 189 188 194 
2.525045648694885 -30.164609167611964 -240.5478373667443 130 128 131 
0.82067476372643 -24.386935156678376 -230.8504010211338 205 206 209 
-0.38225813773686923 -22.286380422100297 -231.12045123350208 205 192 175 
0.28823583586670054 -22.10019818897254 -230.08081303204972 193 183 158 
-4.83349404119042 -21.570500758364442 -229.01695710107458 231 231 236 
-0.4852900600618426 -21.7175965535286 -228.94778860011405 202 190 166 
-5.579500547419613 -21.641134335588724 -231.25557076851106 209 201 194 
-5.579470254335035 -21.64117430683695 -231.2557671255363 209 201 194 
-3.215361501907779 -24.000037700662755 -234.30417402979032 109 110 115 
-1.5102917269986023 -21.40116775432967 -228.13546801414734 102 97 95 
-1.4573874602762231 -22.01615811695713 -230.96209098840572 243 234 219 
-5.973136585387067 -23.603773866404936 -230.83330878737195 201 202 206 
5.4589665618920264 -23.70667849929174 -234.3911760329282 66 62 60 
-4.926001179200497 -21.860646670318776 -229.46958157268782 88 84 89 
-7.552285463454496 -23.4214321274276 -229.9877539652351 92 92 100 
-7.478973701189759 -23.432917846190307 -230.008561213813 107 107 115 
-7.5186639223528715 -23.42215450729249 -229.91254860646902 170 170 178 
-7.942956544809377 -21.032072266828763 -227.13433905683604 220 221 215 
-8.001729159231203 -21.02207900222359 -227.24751807851436 103 104 98 
-7.934838116910271 -20.90217626605034 -227.14796584927996 90 91 83 
-7.887060894940532 -21.22482162704251 -226.9787685190051 221 222 216 
-8.089428302117952 -21.496371688437613 -227.36487543145722 216 215 213 
7.627843048305834 -26.324152692923537 -234.72240561836736 222 222 220 
-8.057009318400944 -21.099954036060538 -227.36795156497055 78 78 73 
-7.9630609235271805 -20.915261715992923 -227.1224226045685 185 186 180 
-8.188989841308072 -21.34266035088334 -227.60325853647953 67 67 64 
-8.30184077301368 -22.293545151875804 -228.18126584419383 176 155 150 
-8.30201584589497 -22.29167319419596 -228.17353052071817 176 155 150 
-8.288692108803758 -22.15596787897846 -228.21444167498288 170 149 145 
-8.285537139931435 -22.90655675190365 -228.13712823210318 177 164 158 
-8.332351682933904 -22.207002834536475 -228.1916295464172 112 89 82 
-8.147885036917742 -21.198006789813007 -227.51343595471835 152 152 144 
-8.31210643957857 -22.91151401296088 -228.0440849842584 167 154 148 
-8.131139505468639 -21.259038971755494 -227.50839702850766 156 155 153 
-8.318743554784731 -22.81640369896579 -228.1475877139667 112 99 95 
-8.041062360179268 -21.387850604188234 -227.27120477442506 196 195 193 
-8.316535977787453 -22.13109001825628 -228.19273934090563 110 89 82 
7.970129173538737 -24.485846235251696 -235.29705739270923 121 126 132 
6.902622756646423 -25.87042115949807 -235.44615705194423 208 207 203 
4.222814458936696 -29.040836908228243 -238.4275059040116 120 118 121 
2.6765738407107165 -29.12812680246096 -240.84008612379603 146 144 146 
7.806902096137804 -24.388058454032382 -235.15376427166552 68 72 81 
1.7460749792597596 -30.267134195126346 -242.59960894466394 204 201 206 
2.1146381218754016 -29.66100559411676 -241.5239363615474 149 151 163 
0.9655653816680001 -26.28101708930356 -245.79926201888566 179 178 182 
3.166227033611989 -29.310943482683385 -240.70628715427233 121 120 125 
-2.4054056112457545 -23.90973684386259 -232.8164791026528 82 82 90 
2.364531018053185 -30.340992779763873 -241.99063904492635 201 201 211 
1.322622821873722 -30.42754551252678 -242.52561609819034 241 239 242 
1.3189285407160014 -30.42025154465871 -242.51508241457964 241 239 242 
2.4782429393342227 -30.249158425015846 -241.53669234350667 199 200 204 
4.262626153150791 -27.37980195540651 -238.77660347278834 112 111 109 
1.8326211504698904 -30.623019250296025 -242.59093769761185 227 225 230 
2.651864671241782 -30.155629060152496 -241.02573555180774 194 192 195 
-1.7007824332584676 -21.738777158601188 -230.33003563397426 163 152 131 
1.1550676619521596 -26.339804250731092 -245.7917696932898 83 82 88 
4.210129068053547 -27.665578271158687 -238.8691452953866 218 217 215 
1.4264233829454724 -30.487804875030452 -242.3991897497986 128 126 129 
5.545100224108026 -25.45844594074603 -237.35380184154576 69 67 67 
5.704750890351775 -25.26968446413322 -237.4522806881493 155 153 158 
-1.8957341238561867 -21.531259454008794 -229.31809703753868 115 110 108 
3.0532955259726293 -29.36556717765149 -240.51714557986085 170 168 174 
6.073323946664132 -25.7772495571551 -234.65759407532175 177 176 172 
1.3541629879200485 -26.506213174247527 -231.4645651857664 121 119 124 
0.9300312719695256 -24.895555805435592 -236.91680379806994 225 224 225 
0.848144990253985 -24.96092867066115 -236.64656919747347 73 71 80 
-0.08437492203653107 -22.47232187727319 -231.10266436842818 188 177 151 
0.5754746075823647 -23.47543159736693 -231.05402265942445 138 134 125 
-1.1858925057182859 -23.677207789692112 -233.2065842599398 102 108 119 
-4.05782881226186 -21.622945570098864 -229.05376721725446 241 240 243 
-2.726317922840124 -21.73543070000771 -230.431720538497 176 171 169 
-4.498428369246881 -21.743994761963762 -228.98584682362144 125 124 129 
-3.415264280343493 -22.399764484643782 -234.54813625402898 158 151 135 
-3.660560228170894 -22.16149582316458 -234.08013394208692 211 204 188 
-6.5065359702617656 -23.769866661855566 -232.13237871549939 65 65 75 
-3.532454551726019 -22.152235875082777 -233.83144772865347 173 165 152 
-4.982142873660706 -21.755024118903407 -229.3476858262481 99 97 108 
-2.154422283511707 -21.443823040912246 -228.5885267818503 200 199 197 
-4.0743733122590555 -21.90222491546471 -229.30171363949748 193 194 199 
-4.109628883383294 -21.88302969098979 -229.1920676565066 110 111 116 
-5.682812860985308 -21.972299091342 -231.23284110591857 71 70 57 
-4.966176982560526 -21.697795355908664 -229.57684228666983 66 60 61 
-4.92126957015158 -21.789177432948556 -229.2697427194286 206 206 214 
-8.077187224434056 -21.008964250303364 -227.23826601927672 187 186 182 
-7.976971170409513 -21.009687148835354 -227.22956088410783 184 185 179 
-7.896767739594978 -20.987687790795153 -227.07059855468515 223 224 218 
-8.13117283976942 -21.348157268096237 -227.54899621329648 217 218 213 
-8.603877974634003 -22.413545677400393 -228.02483233694835 101 89 88 
-8.443386383613202 -21.903259093811123 -228.24468134854027 175 174 172 
-8.451831332012375 -21.264443109566386 -227.49837146862254 215 215 205 
-8.254464721735772 -21.436592735024846 -227.72503322975234 95 96 91 
-8.540632844883774 -22.120464553627762 -228.07166219005953 164 145 132 
-8.537755531098597 -22.049566166210706 -228.0928460832973 170 152 140 
-8.52056155541672 -21.585133654091674 -228.1133622124907 197 187 185 
-8.427143792885843 -22.067782135325345 -228.15791216078583 176 157 140 
-8.204364674021505 -21.232631584896872 -227.47292524558964 98 98 88 
-8.353300738189375 -21.21661155393688 -227.3922859710661 117 117 107 
-8.472692635716172 -21.616713143242656 -228.16313655881578 96 90 89 
-8.277988577632527 -21.43217062769946 -227.7551709834873 162 163 158 
-8.64355849085372 -21.655011707949214 -228.3867522135405 75 65 64 
-8.450809714805871 -22.492044885243267 -228.0598661697735 200 186 173 
-8.592117958683701 -22.432912106744862 -228.03406145533143 76 62 58 
-8.466013750446407 -22.765324428585803 -228.02803436499602 192 177 170 
-8.543573930410233 -22.450436899746194 -228.0844294785436 143 129 120 
-8.543573930410233 -22.450436899746194 -228.0844294785436 143 129 120 
-8.264815495417324 -22.26155659355745 -228.21081950043552 150 135 130 
-8.467238420601731 -21.557111773813496 -228.17152962374286 108 109 104 
-8.586179534674713 -22.363659074180795 -228.05029668282896 92 78 76 
4.763136193850556 -29.0961026010306 -238.91621139480432 224 222 223 
6.963021785836943 -25.880700818626575 -235.43044216697075 116 110 107 
4.405518495186385 -29.010791535181575 -238.0025838399648 165 163 166 
-0.6496161454478084 -21.59418196329376 -228.7116748866791 175 163 140 
-0.11470865114206674 -22.34961941138698 -230.92268127880027 180 168 146 
2.242210480994629 -23.01522461491094 -232.30227622288885 178 177 172 
1.3279792310780465 -26.217257061910068 -245.75264286278698 151 156 174 
2.0214751330011893 -30.27886263601229 -242.24139586202705 191 191 201 
2.915153783793869 -30.08550409365639 -240.34777595864142 155 155 157 
4.36516966898381 -29.274690474465004 -238.5755012648924 186 184 187 
1.4891253753912963 -30.599804175046792 -242.45732966372975 239 237 240 
1.514605157937666 -30.530459806171002 -243.32723506796566 212 210 213 
1.4297782223345337 -30.4126416707083 -242.78687342989127 137 135 138 
1.4412439334660405 -30.405684995205725 -243.27977537722418 174 174 176 
3.0515814646498995 -29.391530983440475 -240.5855911168138 179 177 181 
2.884313102079375 -28.06068493946153 -238.49590084382717 244 242 243 
6.332284257627435 -23.42937749166824 -233.85942124626092 124 119 113 
-0.20232998883005848 -29.602473177607415 -241.3071910896191 232 230 231 
-0.26443599748560587 -26.560797160754092 -236.13868737116525 239 239 236 
-7.578939537352269 -23.455222664395226 -229.94935532647634 231 231 237 
-5.912582931079285 -21.568404392074285 -231.39146918080795 180 174 173 
-6.243861904262019 -24.25586437623359 -230.51402047830913 204 205 209 
-8.562217923856636 -22.476705135433 -228.02347674271164 189 174 166 
0.5281345175822452 -25.39912279789049 -230.49352176836743 220 218 219 
-8.311895459651993 -22.768597221508294 -228.12600445980505 113 102 102 
6.629181180234454 -25.98513441732379 -234.37461035042108 207 206 205 
1.3680535435828745 -26.2884279485562 -245.39693121019678 78 79 95 
6.072706763626243 -23.7859972780863 -235.05219094113505 152 152 153 
5.313480585838292 -25.156053620821446 -237.35827579025093 181 178 187 
1.7993334140554396 -30.050414190476364 -242.3829785110885 128 129 141 
2.954195787991651 -29.28793452854316 -239.12110535089434 147 147 157 
1.4407282651235676 -30.36673464162237 -243.40737647996576 230 228 229 
1.8916493420590825 -30.572569607180135 -242.73200950530506 120 119 126 
1.3704227027944285 -30.236020210774253 -243.0542648251344 225 223 224 
-2.0426115900689013 -21.824451551268126 -230.89580034935722 205 196 181 
-3.254841027809505 -23.99652344844509 -234.22342162624335 107 108 113 
-0.22992820892612542 -21.939711350768157 -229.60523365149453 163 153 128 
6.607141226232201 -25.10925404601113 -235.3357589283732 108 112 121 
-0.9836578436082277 -21.989611323734906 -230.37992020711647 159 147 131 
-2.433250782164592 -24.466558824102364 -232.995666422181 215 216 220 
-1.3201433555747997 -22.167831317727213 -231.87486339358884 159 152 136 
-2.6569245856144335 -21.76047718677397 -230.4296584122182 202 193 186 
-5.531821739134941 -24.28240043123843 -230.99519720271866 201 200 205 
-8.55750791189081 -21.806986554030104 -228.14270814157038 67 55 55 
-4.423252875110649 -21.87803607550588 -228.99248439517572 240 241 245 
-8.67296133847509 -21.590202539537685 -228.40070882462845 91 88 84 
-8.17356346456019 -22.900008417220256 -228.08750128910674 230 231 231 
-8.60334793780963 -22.611864313084485 -228.0185026806409 82 68 69 
7.984416303535468 -26.33379523366792 -236.80573379461782 113 112 108 
