80.25666370566456 3.1704734739044733 -16.477651498190475 124 114 97 
82.29824139714236 3.4164924997692605 -14.258109408831855 124 117 98 
81.92741888134753 3.254019550537243 -12.651195020182856 216 206 181 
81.2265575488349 1.9805641778493843 -11.276131195397662 129 124 121 
81.24399692629177 2.08949089286947 -11.278273995553347 108 103 100 
79.25339299261738 3.024616650787381 -15.759591072368243 141 128 111 
81.68396772733018 3.0094631351429184 -11.843374351731581 203 191 169 
81.92903842562217 3.311195764213437 -13.675020277663105 151 139 113 
82.66242989212208 3.3995785529380305 -13.031502022525618 182 172 145 
81.91618396305778 3.315729493342978 -15.926955328678178 100 95 93 
83.31830373491874 3.5257777080461494 -13.079140066418338 179 168 142 
83.29653813770126 3.5326273893116475 -13.030658771196396 179 168 142 
82.43298005168928 3.327498171273943 -13.019604526858748 159 149 122 
82.81632255735589 3.4765638499806197 -13.630294100340903 134 123 99 
82.52554629857862 3.395505531115369 -13.273058112469863 207 195 171 
82.86091860430338 3.473221399624154 -13.609672083816806 139 128 108 
82.85048520748768 3.4755819011507443 -13.587494004590594 139 128 108 
80.93409844597923 3.2328039988182935 -15.148209669687313 163 151 127 
83.13148657449861 3.5181381606230837 -13.26993069910097 154 144 119 
82.55859869856789 3.3075722159091407 -12.18019940724595 232 221 203 
82.15885886291966 3.3858128135779086 -14.433611724880848 132 118 103 
81.58438954774925 3.294269077478596 -16.187335488469202 214 209 203 
82.65468690785238 3.4089621006290463 -12.71173663564621 203 193 168 
82.70787117618572 3.3928257510890463 -12.820167163563127 203 193 168 
82.25020045583352 3.3887424872350485 -13.646702772441104 229 217 191 
82.08578851173209 3.3607050678377437 -13.61897720601202 229 217 191 
83.56761304442242 3.547123999833679 -13.778149127920567 201 201 196 
82.24395031341191 3.3481767039672903 -13.137582035825414 200 188 164 
80.96844724328457 3.240210489708476 -15.803853237866527 120 110 84 
81.03059545765252 3.3393981922671756 -15.84053262456691 152 147 123 
81.19655480362792 3.175975005470887 -14.171400961448033 143 130 104 
81.85219203195257 3.297435309136153 -14.822808632730537 220 208 182 
83.34772771445239 3.446101247963394 -14.627695517108933 214 205 197 
83.06257761888259 3.519786169373656 -13.340522942456744 149 139 114 
81.46445318979433 3.2170602335755127 -14.308024591959962 159 147 123 
82.8935648209382 3.1664027319591925 -17.99229774263884 252 251 252 
71.20805147352141 1.2403782506059087 -10.92954874602464 84 89 99 
72.2931502179218 -0.5877906076171273 -9.795964231804078 175 180 186 
70.74386141600223 0.9719905255002543 -11.200495540888944 66 74 73 
71.72985480670845 2.0186864540875056 -10.706212022098857 89 98 107 
71.90471893651846 2.7510041404812346 -11.590290488586398 189 189 182 
71.71972532845612 2.633868717056105 -10.669654082986565 183 180 175 
71.5124615030915 1.0610164558475808 -10.347691544220528 87 83 86 
75.12131547024329 0.5595951835393036 -6.456243201192695 226 223 221 
75.06841847927716 2.9152803168459798 -6.418998296766606 201 196 196 
80.37072400521222 3.1849126413082534 -16.41244193982959 98 88 75 
81.1876793013837 2.1633096219764867 -11.297143336723959 164 158 156 
78.13436553133354 1.5934456474533638 -11.38922307857975 219 217 218 
71.87469648782238 1.9899556828552507 -10.052783958677065 128 132 136 
71.72948125530523 2.5152277799903398 -10.049541463595087 174 168 168 
72.2230031955814 2.8288042666753284 -11.207340269092434 183 181 182 
75.63643426708526 3.2258672963709056 -6.674696421776872 156 149 146 
76.14617579782526 -0.0023339491736256712 -5.659861662855537 124 132 143 
75.74753974511069 -0.09553232231905301 -5.841916719740372 143 152 158 
75.68621815624364 -0.09912588966392671 -5.749561701524609 143 152 158 
75.74588393865551 1.0157864095840041 -5.870532785563473 230 229 225 
76.78490139610037 3.2545769260218536 -7.230384755413766 187 181 179 
82.51492715066311 3.37926188346954 -11.660079474490821 202 196 174 
78.1687022834887 2.3329022159052637 -11.626722528363237 149 140 138 
76.29616790874408 -0.5076725028099027 -5.5403445709370835 151 154 166 
76.7691256852352 3.166018432974668 -7.419326860890905 111 104 104 
75.66262651283404 1.8960561535013003 -6.3143100360325235 54 61 68 
75.18809982851798 0.7381869131151984 -6.847012070178334 230 228 229 
78.31093884960347 1.9118295657954114 -7.8558291990951865 109 111 109 
75.21687296931145 0.3506835144948662 -6.291331914803489 89 90 95 
76.66549136686916 3.2073832091988983 -6.756075017500368 59 59 55 
73.7114374190127 2.5588991911618297 -10.655159175756038 84 82 77 
75.55789182498613 1.0575679325314118 -5.915524769588419 118 117 113 
75.00872242014223 0.7003421074133231 -6.638755018705634 226 225 221 
78.25040829572183 2.4749831986387942 -11.58993949005024 69 70 74 
75.84601898471783 0.4594126122098385 -6.407903011237828 86 87 92 
75.79655935802606 0.464417534045593 -6.33000094571705 86 87 92 
75.14320352818079 0.27805731549025675 -6.285336622083854 139 141 143 
76.85780988030676 3.2814722483081757 -6.807122208317399 72 72 71 
77.9553005137145 1.0984320032446933 -11.042307420691643 209 207 208 
78.02314810522537 1.7394934647087956 -7.373762901052206 224 225 220 
76.83686341711734 3.1632249308589584 -7.480101225559373 110 104 104 
75.08642231909472 0.6018026223062396 -6.555034122919942 163 161 162 
75.04189815130778 0.6018659488350866 -6.5014721761919425 163 161 162 
75.15059815426719 2.8086980979848635 -6.497653421008959 176 174 179 
74.85550514508097 0.5872015202931813 -6.655144436412737 176 174 175 
76.71001015670322 3.202079808785312 -7.058407239895171 165 163 159 
74.93138536110403 0.5144552401592848 -6.438510109688295 221 219 220 
81.61607038643939 3.334743249247805 -14.493453250176037 204 194 167 
81.34078159079597 1.6746728243274929 -11.289567459540702 80 78 79 
82.48377560247926 3.4427021338758816 -13.959270796338668 129 119 96 
81.99664558270162 3.2418880312385614 -12.220409424736934 208 197 175 
81.2388692742257 1.7021509245289237 -11.279526507984158 166 162 163 
80.91242147586566 3.0984618681639766 -14.509164859384859 149 136 105 
81.29416061382769 1.8039541089345792 -11.262622203126492 176 173 166 
81.20780266352486 2.4503390936589375 -11.28073375575514 129 124 121 
81.83569635368688 3.19487774066262 -12.163547727159358 220 209 187 
77.41448934213068 1.0348873660268325 -16.536951258958407 128 126 129 
71.62832718454862 2.780491320991586 -11.252552989528622 165 156 155 
81.22245690297875 2.517627672277958 -11.303666367107025 158 158 148 
81.16939567058114 2.185036040432307 -11.123265092310625 65 57 57 
81.75050552959932 3.0050987344124076 -11.795502518232029 198 186 164 
80.20415420609714 2.8669863739148136 -13.90674215422403 179 170 140 
78.37620960506449 2.8157471338145648 -16.926528300604097 130 118 87 
80.47723150395184 3.0873383740441573 -14.005886795688985 167 154 122 
81.45889615952427 1.378728695892661 -11.026076174068933 91 89 90 
81.41727172720454 3.114855923423619 -12.294237059042075 196 185 157 
80.71397788916045 3.1546203767572285 -17.408435512148433 94 95 98 
80.8460385408544 2.949746220203128 -14.035336629716317 160 147 115 
80.14806666013355 3.1285396500234306 -15.186227477694855 192 177 154 
80.2270246411212 3.0864520852681756 -14.787497321041124 201 187 159 
79.40538301398038 3.0699007443978834 -16.904528681911437 202 190 165 
79.84287677935603 2.9029702757071894 -14.239868881039829 163 151 121 
82.07454458439823 3.185234245670477 -12.256069466327059 151 141 114 
80.42429994185598 3.0030972218750525 -14.56668489209724 193 181 157 
82.48733100232374 3.445181062310267 -14.294151894238125 176 168 155 
82.1713288489466 3.281054552886612 -12.115536225393829 164 153 135 
82.5728342798993 3.343892697607169 -12.168763988723544 132 121 103 
81.66852405843194 3.261782882880001 -12.83046970172221 155 143 117 
80.19041353625998 3.126147183149814 -14.713826355267582 206 191 166 
81.37120765350609 3.211490948931535 -14.64639144657535 211 200 170 
82.6723043837385 3.362332793387046 -12.309036264040111 177 167 149 
85.75293854690412 3.253421432564388 -14.301930240103928 239 238 243 
81.98700511639066 3.1539559784272333 -11.966746389022699 147 138 110 
80.58706236092851 2.889279275831817 -13.873519401118138 213 199 173 
80.80186896632934 3.149653062520902 -14.584421922672963 214 203 173 
80.92790183913804 3.166525205681889 -14.555507136995761 208 197 167 
82.8925293306418 3.4924366502451365 -13.549652072916528 153 142 124 
81.13085527010384 2.4754853895093913 -11.361537073556246 198 198 188 
80.22453661613108 3.099004654482979 -14.863172072690928 208 194 167 
81.93586857872137 3.3104175742232105 -15.950339341417058 102 96 94 
83.67851019225871 3.4831268370377666 -14.426979975524928 92 91 86 
82.34318695315761 3.3448033337861762 -15.685127706945387 96 92 94 
82.9215822913957 3.4814468508549936 -13.203575803350452 217 207 182 
82.58353012140785 3.441682924218589 -13.932408023491073 126 114 96 
82.617388760676 3.4320848865231692 -13.984549345313225 126 114 96 
83.74338558188228 3.5827587138926122 -12.589031023534048 157 149 130 
83.65314056053299 3.5845718059793032 -12.593789975056172 147 139 119 
83.64395141117167 3.585430366780063 -12.565710688550705 147 139 119 
83.40274772430008 3.4366522238023194 -14.609282465908107 96 89 76 
73.12738800674308 0.7588202885933317 -8.795947150533589 212 210 208 
70.79950361264012 2.1071740445394025 -12.037886824009748 220 221 226 
76.61041526222138 3.2805781593372014 -7.2013197184726145 193 185 183 
71.27552563030181 -0.7767146176927435 -11.11995171115112 143 146 153 
83.24393525817486 3.5187632806635376 -12.762653002684601 211 201 176 
70.84241906988629 2.163499929262235 -11.980602352087093 71 72 77 
75.41615713366 2.7286089472256783 -10.676121108192097 173 175 164 
74.594774441387 2.9639850437410367 -9.648703028637318 138 133 130 
71.50705300079703 -1.2986309930586635 -10.260912842625665 110 114 119 
70.73508321418132 2.1435300001671913 -10.977241669486265 55 62 70 
73.5154219632543 2.5368437550550884 -10.313326622588166 54 55 50 
82.17253074365308 3.217140205261454 -12.003100457444518 149 139 112 
75.72577919055016 -0.5937158438667116 -5.758090816861042 139 149 158 
79.57099268527588 3.115306810304947 -17.5359694233898 144 140 139 
79.75747174162173 3.1040784344838546 -17.056412992396467 94 87 76 
70.50727176228136 1.1833337821546894 -11.320660294607952 83 86 98 
78.80827679094655 0.0907621781644724 -2.4420082190279615 226 225 225 
76.74701676471221 3.088660996293031 -6.760843737438972 181 182 177 
74.40339269580538 1.2034452475264816 -11.13489021582172 136 131 128 
73.1815524629327 2.542947701009793 -10.846017383690434 203 197 197 
74.63170926239019 2.690223169280029 -10.667581992340574 97 91 91 
75.01928424413586 1.2546208282254259 -11.026922945143825 129 124 123 
72.19145674354476 -0.6692572434783415 -8.974025899555862 134 138 147 
75.749063142018 1.0203806155592923 -5.874610407675558 230 229 225 
75.15418011967719 0.6294507309196712 -6.460282925680449 223 222 220 
76.28824307724024 -0.509280333334563 -5.545185589665994 151 154 166 
78.21141362448972 2.4185194292207832 -11.640887923572175 139 135 135 
81.94559821626149 3.370858368281498 -14.604980296681319 148 143 120 
76.84071456312608 2.9142522048577586 -7.719263999443072 191 185 185 
79.58634373416928 2.6445991647886062 -13.739239491051123 179 175 166 
79.10155142696823 3.8343171562849214 -3.9395743260940783 89 88 93 
78.3335951928101 2.7908844946674396 -11.740143739057261 116 113 102 
74.87608113954057 0.5861522629759601 -6.680118281171264 176 174 175 
75.3294849029454 0.3612609043287648 -6.332527166401071 200 199 204 
78.06655402815012 1.5695431442054257 -7.824000491139781 141 140 138 
75.89644907715112 1.1202583894327822 -5.755251884650548 226 225 221 
76.81672890459797 2.9718990016490054 -7.563143325532831 170 171 166 
76.24045554910764 -0.37193253163290535 -6.444898153616776 99 107 118 
75.95249269315691 -0.3512436050022532 -6.320884921019161 82 90 93 
76.77012261233875 3.329747724550679 -6.905370738871358 187 182 179 
80.53656033689317 2.9921917776165805 -14.280638208760713 144 133 101 
81.3133384679868 3.1537581997401336 -12.290216124054082 150 139 111 
74.95948161481085 1.2808117988083656 -11.05478040993357 233 229 225 
81.3667149721335 3.161480270147374 -12.290880840523513 202 191 163 
78.36180145569739 2.7099326160130506 -11.85435816369195 138 134 123 
76.55709911852377 3.1676252728669936 -6.931136591050336 72 67 66 
76.63212585444325 3.1706611638294158 -7.022424349586014 72 67 66 
82.13047314444691 3.393552868198852 -14.348100343508214 179 169 147 
75.95073493863212 3.126232605135624 -8.069977544292321 168 161 153 
75.90523980969363 3.133148136404694 -8.015073144021336 168 161 153 
77.20533318650823 2.014493139025044 -4.498677572259762 75 69 69 
77.99612392986676 1.537723842336852 -11.391750861888813 142 138 139 
78.32932136463188 2.6702984251713695 -11.520411403800288 215 207 204 
81.38926777491822 1.6856757156792348 -7.496226721453656 201 202 206 
81.59590338018475 3.1075474284230626 -12.228903481666613 194 183 155 
77.9812439790391 1.8210783603051417 -11.59216333688322 112 106 106 
78.3341147310172 2.5943180927525784 -11.821350070511143 105 99 93 
80.50266810576258 3.074388886694421 -14.638205225116153 205 193 169 
82.53732341348295 3.4521348969569443 -13.941600196092276 122 110 89 
81.7351730929044 3.21325733232025 -12.513099708178634 202 188 161 
80.4180623784141 2.9601676845191554 -14.35864188529172 143 134 106 
81.54933748123682 3.120750884991388 -12.288756428579907 194 183 155 
87.76760681196082 1.8650397148869324 -12.18617058516657 224 225 229 
78.44053316756569 2.731056721466695 -16.781410885940502 142 130 102 
78.46687020755492 2.8502308351140684 -16.999888313520913 184 173 145 
81.6257777669266 3.221263457517994 -16.716881274317657 209 201 201 
80.62063907621668 2.916785709982176 -14.062972594849313 165 151 120 
81.81866407555643 3.2126295575509665 -12.299090520758005 183 171 149 
80.65862477652712 3.003455256242712 -14.356514332279053 144 131 99 
78.02261732440562 1.5305027336043826 -11.462952610346031 105 99 99 
81.36713395397916 3.3156105807550427 -15.238057583584343 135 124 103 
81.1689765599823 2.5507090591893937 -11.353170906678393 135 135 125 
78.07220931411017 1.5992305459538105 -11.578537405122034 105 99 99 
80.30403899146489 3.111834794557745 -15.02280452765002 186 172 146 
83.17629610468427 3.4869434169542073 -12.202192898345281 207 199 176 
80.94800110983267 3.2355778724003317 -15.432285302572682 217 207 180 
79.77392958030102 2.8257259954184786 -14.173882807442176 130 123 94 
83.31394253992666 3.3832578296803955 -11.928684698263634 157 150 134 
81.05243004227574 3.1189016872145556 -14.257988171421662 169 156 125 
83.50349173392607 3.5552871884048285 -12.450294490420232 219 211 190 
83.4683358830045 3.5489619435901427 -12.867442093861094 174 166 145 
81.73794426056972 3.3239709405746227 -13.750359599787503 190 178 152 
78.59770116727532 -0.1751716770583885 -2.5612505512739183 120 119 117 
81.33358226002682 3.0996006006267245 -12.174206774863562 214 203 173 
81.88738142980745 3.4010082305991736 -14.813776775124893 177 167 149 
82.06257289663623 3.1372708996236693 -11.847821242665857 132 122 95 
81.61677443733208 3.3032012000538202 -16.18995871486848 110 106 101 
81.18052272538762 2.5897083777589263 -11.319446773002369 159 159 148 
83.6416879246436 3.6708508055925564 -12.466270104541932 169 160 144 
83.62208783791445 3.5936643335271303 -12.64035092730781 153 145 126 
81.63493620377128 3.052424661228548 -11.951730666949025 117 107 80 
82.52405779989883 3.292556055448462 -12.190881489261836 219 207 189 
83.38729674335295 3.536213793112897 -13.139586267437783 173 162 141 
84.25747636274939 3.45291891018398 -12.49135896630823 173 163 151 
83.00666287584636 3.4038968483092678 -13.672201234884247 220 210 185 
82.51531567098182 3.4632908841705117 -14.244082860712206 196 185 172 
82.83111913782531 3.4703937703567367 -13.28532790162158 221 210 186 
83.7152256097392 3.6593047087027015 -12.686961117505234 164 152 140 
82.534645175631 3.396469411488015 -13.919001938966947 222 211 189 
82.83123433297624 3.430519774315843 -13.614205087030951 221 211 186 
84.11834809317136 3.6390171751184255 -12.132106100163993 112 102 88 
84.13404958360488 3.630786556865206 -12.171849123860444 112 102 88 
84.43793859675309 3.5032822690704926 -12.597952030052854 177 168 160 
83.05894733155526 3.4381534968428893 -14.836154219449003 104 101 95 
84.1971377584039 3.638645698303972 -12.240536295492907 127 117 105 
82.6639848963595 3.4302459140422874 -14.962775817651417 110 105 109 
83.3581539433766 3.5258701953928977 -12.974476742034257 169 159 133 
83.64117386263882 3.6033296231835013 -12.870178152713462 176 165 144 
83.33446027779233 3.5638428913309856 -12.926714449500787 176 165 142 
82.08124569686663 3.3434157858279168 -15.992435864637343 124 119 120 
84.5539136856703 3.493863943843241 -12.740678942848215 143 140 140 
82.68584383705257 3.4712001969121706 -13.695096542907894 141 131 108 
82.59288185429287 3.3503707416546433 -11.867939785173563 203 190 173 
78.54470476027727 0.2483338243099013 -2.8387675732253648 221 219 220 
77.91376376510799 1.8954628427905327 -7.864637000877391 61 67 62 
75.12639549244403 2.4524090777932406 -6.545409067973189 99 103 112 
86.39456203687703 3.2914712943673683 -14.563429017466014 81 83 95 
74.8098640752278 1.9918197597157585 -6.747298656817264 112 117 123 
76.1569606119067 0.37287697716288476 -6.459373082824239 109 118 126 
72.73742491628883 2.199007355948625 -10.691991643840169 57 65 75 
75.87160661559602 -0.5182403874105999 -6.322182384934887 128 126 127 
71.17982620695321 1.0746362963750882 -10.746181590899035 139 141 146 
71.53676345868413 2.3881134904419654 -10.525210620655143 207 206 208 
76.31268285412105 3.0069880040080528 -7.145258684844631 190 187 180 
83.16197184369388 3.4532869419432095 -12.522605356075857 221 211 188 
74.9013398783737 1.664350529582401 -6.729601698092306 110 114 123 
73.86186688271215 2.4380799367037094 -11.122889447011582 67 68 61 
74.90041325944287 0.2464705806457247 -6.220956838353434 159 161 159 
83.88865152793866 3.5803010715841 -12.28945915102445 198 186 170 
75.11937820287082 1.5473759389797423 -6.283585548926393 60 61 64 
76.93517127419761 1.4805527021249243 -7.380927909234828 228 227 225 
81.91267074903797 3.084713531663784 -11.78480038415639 140 130 104 
75.24570644493659 2.722504818127336 -10.42446432207707 197 195 187 
77.08357340897578 3.1055247494103533 -6.970603939542933 62 67 62 
81.30516746885638 1.7388311863653692 -11.21190817074814 129 127 128 
75.08742825758937 1.6492192800872418 -10.889233197181415 88 97 83 
75.16775135182631 2.7425862102667775 -10.461420277061352 194 197 187 
75.41482551166831 2.5916770565034617 -10.821514827891026 65 68 59 
81.2741570995921 2.2339818846977084 -11.277969918345342 152 151 146 
83.07539355062976 3.5392558694228247 -13.323063245958561 233 222 200 
79.78875875495936 3.0948799530205324 -16.09403345680121 202 189 167 
82.42511821576194 3.335757702651457 -12.460123025109722 160 149 130 
78.02248423365953 1.6479656512895755 -11.506775058935661 150 144 144 
75.74163546483587 3.1467423558285117 -7.666404879000854 176 169 160 
81.37429276927286 1.77922194774944 -11.247512896247118 94 92 93 
80.48939826736418 3.1598718970806168 -15.2490561206384 220 206 180 
79.94260583860955 2.8008635707046503 -14.113141518641585 136 129 101 
80.24070788712592 1.4716451029264324 -10.739126293941363 228 227 225 
81.484689035243 1.8557378648142184 -7.030477116165251 70 70 78 
78.2933715794461 2.709948224990417 -11.89153683961426 93 88 82 
81.09384480717176 1.6331770916518524 -11.206626275851695 109 108 106 
81.07628849558864 3.1393948532600504 -14.12071078725635 167 154 125 
81.29856590353486 1.5381528172541927 -11.116486315163375 79 77 78 
81.32272055798919 3.2448344993307314 -15.312898388417308 223 213 186 
81.80780557056855 3.337539124308048 -14.868590249043486 149 139 112 
81.48845793844913 3.0536978126582204 -7.410547583091269 195 195 193 
82.01429854730245 1.9969342614263588 -5.824089788047242 202 200 211 
80.6879485123378 3.1846093054886513 -15.179793404224835 169 157 131 
77.85597061486621 1.8044777700707786 -11.529117310224134 145 139 139 
77.9349018247517 1.5271137604925942 -11.371844293336846 109 103 103 
78.185965001819 2.510710796509343 -11.624290726233355 141 134 133 
84.35155302826959 3.6087282732092127 -13.48000394226806 134 138 142 
81.80927025599335 3.3334393862518583 -14.773493799176777 164 154 127 
82.84257181219496 3.4117708742628743 -14.95909752895478 102 96 99 
83.35071483634694 3.4532514350625085 -11.969902241973545 234 225 210 
80.9471627172606 3.1672415612702824 -17.189421575340333 209 202 205 
75.56679585842309 1.0074640601202896 -6.0272021730409655 221 220 216 
82.39565708703 3.331801271215869 -12.951477801388355 162 152 127 
81.65580904780879 3.306796597118408 -14.811279152959427 218 209 180 
81.71360357994034 3.2845227259203167 -14.962284724550045 222 213 184 
81.09856422501599 2.4804874813529176 -11.322641973565549 192 184 182 
80.66527499781178 2.9652053135631835 -13.69231838290536 204 190 163 
81.26677846211732 1.7083582801685693 -11.327117072667239 158 157 155 
81.2330298100797 3.1728048715846944 -13.90860552389556 185 175 148 
81.4970355995507 3.258498004154073 -14.437502095049812 192 182 155 
82.55013885906676 3.329504065801585 -11.752758231232127 130 117 98 
84.11058641371562 3.6615552259749187 -12.250778458527973 207 198 183 
82.13495531521936 3.4478646231622894 -14.541657364236201 191 180 159 
82.237643837153 3.2594597383632102 -12.119704104830678 179 167 145 
81.99370087467352 3.1227849415498787 -11.71554445592669 171 159 137 
80.98063657355709 3.03361774236132 -14.072965508378982 182 172 144 
82.39524011096441 3.433882393098351 -14.121393485793197 149 138 117 
82.52847979021007 3.3119646748122156 -12.224205870863337 148 134 121 
83.08326827705443 3.5246135442285453 -13.292990365712477 145 135 112 
82.32625361729743 3.394042018370758 -13.715498460497 191 180 158 
81.884595436999 3.3581548876991603 -13.822242482989058 192 181 159 
82.66152226867918 3.434633951905827 -13.805145318874807 180 170 146 
84.74836788751227 3.618897444070008 -12.82113176100802 40 42 56 
82.9037549447732 3.4279423685290027 -14.85435730558517 98 91 99 
83.50042701847435 3.5831347578051336 -13.885367790910172 255 250 246 
83.71048147428007 3.557581043034432 -13.715543920493875 93 88 88 
85.62510673485457 3.315783460847821 -14.127238520201505 62 61 67 
84.28196784171699 3.5822600046813005 -13.419940615209246 99 88 83 
83.34348340427093 3.466893576183181 -14.54499037703991 105 96 89 
84.576252883559 3.383807369664519 -12.698812741835486 219 218 226 
85.96316867131661 3.072283932426255 -14.434544527738806 236 239 247 
85.68068889561982 3.408382461596184 -14.233410153539552 223 224 235 
82.70543546777738 3.232230052055579 -15.886192805357055 212 199 191 
75.77854005933689 1.0731473287631224 -5.740071264189819 215 214 210 
71.28514702262417 1.5911042867449958 -10.73288977590367 104 115 121 
71.97565466503869 -1.4084334740075655 -10.382749622169268 81 76 78 
75.33923639715394 0.4939275794421092 -6.389337523950623 147 146 149 
81.51590618146055 3.2363218436571985 -13.618207284504356 194 184 161 
75.2711756942673 -0.14948844232986253 -13.997453802443925 127 130 137 
79.62314196563821 2.802272915156288 -14.143843760742008 192 186 154 
80.02995290406434 3.129364867445629 -15.778356699796255 172 162 136 
79.69752686169517 3.219564503225474 -15.9664327471061 216 205 183 
78.10895726761514 1.5301180805695773 -7.841755563710773 168 167 165 
78.10093472311391 1.536648385196469 -7.830204760738379 168 167 165 
74.69826063156933 1.6405632671723835 -6.675320090087119 75 80 83 
77.0891514811747 1.76808543639162 -7.305061421182749 98 102 95 
71.76617345233626 2.1774908525011214 -10.720562686783431 83 92 99 
76.50457834664954 3.219054632490508 -7.2088101662068915 136 128 126 
81.35459837829745 3.2969674013681667 -15.293288094878895 121 110 88 
72.39931199558617 -0.12558176213910682 -10.323545178382282 89 89 94 
75.47561973749234 3.133099318057234 -6.5029001861738 137 131 129 
82.23924999093722 3.3309830715655013 -13.003197098188755 150 140 115 
81.313038371933 1.7990068630315985 -11.198412304556292 107 104 98 
75.08815364103182 0.4481715970535466 -6.522853809480594 156 154 158 
80.90063019072126 1.899010926174542 -7.215803027027622 64 64 76 
74.73022594866802 0.4999817963424543 -6.60512289927064 222 221 217 
75.24296967471942 1.3944972590209184 -10.65971120401883 88 91 81 
76.24308372540733 3.1386087116328065 -7.825361007617218 164 159 152 
73.98964548130687 0.7113028804484998 -3.5455545272257716 148 147 143 
75.26887292586244 0.4368426029894522 -6.36644249039194 195 196 191 
83.2616474935274 3.4652573686076695 -12.010800038821781 215 208 191 
75.00304339516396 2.7615939406698846 -10.43439462519131 169 170 162 
81.6460942264591 1.2813636181709718 -10.915203707928052 182 180 183 
75.95980266006347 3.1666197963032343 -7.638937937023005 165 160 149 
78.88184101342192 -0.20814733301197036 -2.4240889212352883 127 126 129 
74.67290436487067 2.6219520972452113 -6.64727451583871 98 105 111 
78.5730364469351 2.3897861344867892 -8.942697003745597 63 69 66 
76.796856561833 2.090238466830751 -9.387816968398283 86 93 96 
80.15958759043131 -0.09372864208274906 -10.639724956502135 237 236 234 
78.15228274617166 2.2268720440278114 -11.70878818647987 150 143 140 
84.56529176235966 1.6701497974557418 -9.938931229657562 129 130 134 
81.1683977664608 1.6420738997100446 -9.939705643669333 193 193 195 
79.59234701542789 2.74985758527007 -13.942364665366382 170 164 138 
79.85241795790498 3.120613587788875 -15.96387761523727 174 163 142 
79.51333601890272 2.6768748497776107 -13.679833114745634 177 170 161 
79.51790096925865 2.6759707876977825 -13.68766222113351 177 170 161 
81.54912920244827 3.0861399153570606 -7.501875817311305 206 203 199 
81.02879366927539 1.8865879392761162 -11.070189647532771 102 91 93 
81.28737504573164 1.8947619523764487 -11.31414271772825 161 152 153 
80.89770354482437 3.1999061128703943 -15.238852059558653 168 158 131 
82.25342140904435 3.399629797210734 -14.362293985813201 141 130 108 
81.34565024733858 2.9404372403299472 -7.089866201257895 73 74 82 
84.07736753546828 3.6752517544079266 -12.163264059454784 207 198 183 
81.12675032137224 2.2681368645279063 -11.313539037854717 128 119 120 
79.6664106677249 2.86259619193562 -14.467057704631213 188 178 154 
83.18636371460371 3.524877342500738 -13.252948438537434 146 136 112 
81.1492642044086 2.2487110807416584 -11.145721422842286 138 131 122 
81.59676714614554 3.3786286975107247 -15.267542604894905 189 178 162 
82.25157936039729 3.21113794838294 -11.648557564600978 148 135 117 
81.04086748256213 3.160404737708549 -15.326977029396852 185 175 148 
84.47128427044103 1.839914099047981 -10.142501621909917 87 87 98 
84.71014198990704 1.8528767682597223 -9.93399365151559 216 217 221 
84.70857050265049 1.852958728164746 -9.928279841378762 216 217 221 
81.8229111736299 3.144444503706735 -12.136601978923881 200 188 166 
85.75464975895534 3.4463444543910753 -14.311511385315194 139 138 146 
84.50313590902635 1.3804289734713542 -9.859792995431182 187 187 189 
81.39070186959886 3.0773534244774314 -11.952854031710675 154 142 119 
83.5644932578648 3.5337999336659274 -11.960827261712364 194 183 169 
84.46689948904056 1.628353823353611 -9.816369520719755 209 210 214 
84.35059029835152 1.6396976774747172 -9.764286313611608 204 205 209 
82.72811600305656 3.415386936789102 -13.740949663214366 213 203 178 
83.69763172520852 3.577081607472281 -12.320966334640543 213 202 184 
84.46339012346321 1.5819962430658767 -9.922402465446945 189 190 194 
82.79011280666339 3.4705043221163443 -13.694887374503782 115 105 80 
85.6958170012722 3.4646811132716486 -14.232165187796006 239 239 248 
80.96341577882396 3.048821675004249 -13.884971543833101 145 135 108 
84.78389016396355 1.634386328313992 -10.100745662368539 210 211 215 
83.69080899466309 3.5715632601399645 -12.195586442148523 161 149 133 
85.69472226786162 3.3930798892937792 -14.205110334559029 64 62 75 
82.36334011248431 3.3774280660208653 -13.166849334657966 221 211 186 
84.55764824632831 1.6685497577870312 -9.911103229278458 129 130 134 
81.8780551179061 3.363636505973929 -13.542222391820847 150 139 117 
83.87032225932279 3.577100264831218 -11.83957250877864 166 157 142 
83.58945631075048 0.7631911857581513 -9.124155203169963 168 167 166 
82.07392233648461 3.3695239224135074 -13.375599984305062 214 203 181 
85.7029233937652 3.4983149666915194 -14.68776609212463 193 193 195 
71.0137116129537 1.3991228175748327 -3.364105713649728 154 157 162 
85.90971917453228 3.4796859451448694 -14.386384659063765 42 44 56 
85.91568606259486 3.182056953976025 -14.42705744866554 80 82 94 
85.63840560724987 3.4077284260529814 -14.420736906629172 32 34 47 
85.93699473898205 3.2959330364684973 -14.527572998839364 60 62 74 
86.32276637698119 3.1333090368250476 -14.511273712737989 84 82 101 
85.89863548035407 3.043522312557955 -12.62836911944943 233 234 238 
86.1346082456846 3.3092840131506867 -14.523649905291581 47 49 62 
85.7660414536329 2.887293247378077 -14.074479732122134 230 230 238 
84.02963470055326 3.6537497863900086 -12.485820843603054 184 175 164 
84.5237351444363 3.3131177705697477 -12.625595422603588 50 49 54 
85.7034418324579 3.2950503741790396 -14.17613288104252 211 210 215 
85.74326596733474 3.4904339557926427 -14.681095185900311 248 248 247 
86.42937771473453 3.2912745711825186 -14.4986865209857 217 219 231 
84.53660555768994 3.6934331128693962 -12.609500308009299 55 50 55 
86.2654344899697 3.177997801121201 -14.566609062318935 196 198 210 
86.26044536037625 3.182660085696111 -14.543564299985654 196 198 210 
86.23804145941338 3.2382078787923563 -14.641150611875549 151 153 168 
85.99878283176011 3.1820011231683205 -14.433170117492526 86 88 100 
86.08182157475284 3.3679918495245142 -14.581868297644277 135 137 150 
83.30847928359591 3.4508608267476717 -14.573693991036478 215 206 197 
85.94922813358977 3.2310261223046943 -14.366207878259864 113 115 127 
85.62296366862691 3.3774515027114136 -14.263196125501649 66 66 80 
86.26015321776646 3.092988787634436 -14.502639621422077 247 248 250 
86.46827542257786 3.297159920745239 -14.584299101837463 221 224 234 
86.51384759632563 3.295864385920363 -14.473844712241 222 222 231 
75.57623705736843 1.3255565081977905 -11.286708685869941 229 226 228 
78.5579737467817 0.21391390748972516 -2.5688054690991216 116 114 115 
75.31451978358783 2.7937122331290287 -10.816300461032066 79 71 69 
81.23398990791796 1.7834978564333572 -11.23735673084263 110 107 102 
82.67698304123549 3.3030876768838757 -12.052461911892236 202 193 178 
75.68535818697227 1.606400986215946 -6.3475573592869345 58 58 58 
75.57930437283818 1.0808374395751885 -5.959023660324721 120 119 115 
75.4625225937306 1.5361437432536804 -10.770335412337337 118 124 132 
80.13052092323193 3.022763159170265 -14.65555936068401 146 135 103 
74.64327411500176 2.569769525123635 -6.72138674827594 51 56 62 
81.41963764619786 1.7992060953265825 -11.17283371466075 131 129 130 
80.27950096016218 2.8402637115029483 -14.044076222974569 151 141 113 
74.96333250951214 3.5196652541070046 -6.396776190903797 208 199 182 
75.19007829095199 0.2978316624263041 -6.351584655587914 123 124 119 
81.58851742537567 3.0501506628558746 -11.864718794451802 119 108 85 
81.40816364360161 3.038425037313896 -12.127632025769154 199 188 160 
75.59451417362425 1.6395038648167002 -6.345936985847853 217 215 217 
76.21926913372992 0.5212724583359791 -6.190506351101551 96 95 105 
72.21501322014336 2.454091099469525 -10.487437088136188 128 126 127 
80.27753737734699 2.971829001429342 -14.343382425495156 123 113 88 
81.99305535042984 3.1508708825483485 -11.980916969340347 147 138 110 
82.52543988184328 3.3022974085257477 -11.726172161405028 228 222 203 
77.3223913366166 1.6729510003299952 -7.15329474682202 198 200 193 
82.22477108303475 3.2112264471134377 -11.795808002933644 164 154 127 
82.03422471084367 3.145326042802152 -11.684084393738672 177 166 146 
81.19869180673064 2.31272576068169 -11.293296193506103 148 148 139 
82.23177968709984 3.3325987603848812 -12.959593821899812 148 136 112 
75.31831409201094 2.6673478635232457 -10.849292587347746 205 207 196 
78.02989908620515 1.7398910639156635 -11.602438687622552 141 135 135 
78.25026267847454 -0.06706467571200198 -2.3338137348208576 233 231 232 
74.85491332744499 2.8852578363165744 -11.734793170388906 176 167 163 
75.9120481905418 1.7696362489507176 -6.457490998435677 137 135 143 
75.43271431029845 1.6013831978066624 -11.085846613137788 76 85 70 
74.84158008196108 0.747329649648531 -6.649461691475739 156 155 151 
83.91303046520432 3.6162628413152342 -12.241256665290024 115 108 90 
83.90225499261842 3.6223733485404948 -12.221877943657969 115 108 90 
82.94094997937994 3.4822330755063255 -13.531612553205237 140 129 109 
80.35656714360435 -1.042584503782197 -0.5234593722498921 241 239 240 
75.56548023320889 3.0286202406047282 -8.361095408570474 122 117 110 
81.6318816634487 1.2183635827706891 -10.896216593189797 190 188 191 
83.23774311940795 3.5491560427456945 -12.616625248269058 214 206 183 
78.67161442855534 3.4595982972094985 -3.5289314872298334 144 142 143 
78.67161442855534 3.4595982972094985 -3.5289314872298334 144 142 143 
75.52704840252206 -0.38135909875206925 -6.3746521549553705 198 197 197 
81.33583369409766 1.7428253996777872 -7.493963228427155 116 117 122 
75.45535070521368 2.8047092023705176 -10.716966199368855 86 80 77 
75.6048105664044 2.4661660852343155 -11.243271768360296 161 164 155 
81.31102147033263 1.809028818689702 -11.288992376211166 167 166 164 
81.3339324679324 1.6886404059046343 -11.190909054654664 95 93 94 
80.6565879563571 3.1611706788400182 -15.215111656706517 200 188 162 
74.95073201963137 1.4931910030926927 -6.124099771423197 210 208 209 
81.0136738376143 2.0185669219813365 -4.98172504291745 227 227 234 
78.40557049018966 3.755603621228417 -2.7564041084543156 144 142 144 
78.48039017169877 -0.24397456359682362 -2.5384263294774847 128 126 127 
81.26062522108687 2.1908748623600847 -11.168893684498945 114 113 119 
80.31549432549636 -0.9974363585883719 -0.46444934203499244 240 238 239 
79.25453947854892 0.0437894103488794 -2.7079384779479696 128 130 137 
77.74532612347747 2.8919107297455064 -4.470914968470133 55 57 70 
79.00601903542082 -1.3882908361789128 -2.242315687454795 141 141 143 
79.65906054962242 -1.2261957668160126 -2.1047858458901842 133 134 137 
78.58913751725288 3.7041958806173 -3.3539779627093367 148 148 151 
75.36588771025967 1.3270328682144281 -11.011528196616796 225 227 219 
78.35979868278075 2.5752255909297013 -12.048381461186834 177 171 165 
80.66794889456362 2.9968606324767304 -14.251366799910098 146 137 105 
77.95911487066576 1.0288804031433683 -11.208666250372021 155 154 152 
77.9678461489886 1.5181903798592813 -11.642018326158691 107 101 101 
75.52923585078054 2.6060898133451165 -10.58683767050508 182 180 177 
76.6036995852073 3.243819862689105 -6.3982711419554015 174 175 170 
81.34757725942845 2.9386573243206073 -7.0739000408439345 73 74 82 
78.1479050744609 1.8664314064491165 -11.691837225929708 140 131 132 
75.62543057373755 3.0036660127254375 -8.621652471589233 132 128 115 
79.58848853533405 3.1331204428640254 -0.8622549323156328 66 79 87 
79.5724537551618 3.1237662812639813 -0.9923199825541538 70 83 91 
81.06768460867929 3.120201750400704 -14.040584168382637 184 174 147 
79.93806259310529 -1.1977936538451293 -0.47451899808147857 129 129 133 
77.50104633313629 3.097170017517853 -4.3416320374438655 116 117 123 
75.76403795250681 2.460025362940306 -11.365409989518266 161 166 159 
79.82343615381798 2.843324742363918 -14.44595337181841 185 176 148 
78.86484019521694 3.6974695967537086 -3.476925511752519 152 153 155 
78.3268881516641 2.7570625233540613 -11.711359235336626 209 206 203 
81.16640697605845 2.239043364590927 -11.32199470026848 163 154 155 
81.57224629972445 3.3838592273187715 -15.402767814806202 153 143 134 
78.65402061491014 3.713704822192366 -3.3280777336761034 143 144 148 
81.89547684137311 1.9958295230823169 -5.702028210513809 198 193 200 
82.05475929736224 3.3102147939679374 -12.58791615509462 203 193 168 
78.0595977799461 1.4495780594852121 -11.147935224064033 231 225 225 
78.49368392717308 1.5248874947969877 -11.670145676668712 231 225 225 
82.24223942039167 3.3451487032100387 -13.244982659279874 205 195 170 
82.73633783468628 3.4127419058745825 -11.968951260440315 167 154 138 
82.43398099977088 3.414530756612251 -13.433494250594865 173 163 138 
81.30041577663911 1.7493000136190648 -7.259327009253386 100 101 105 
81.16541304881562 1.900595297129438 -11.269951619228847 91 81 81 
80.43866244757386 3.047292934120599 -14.85055404661654 209 199 172 
83.54393486288993 3.5768311322945183 -12.331460621804007 218 207 185 
83.43581751808824 3.5075484979040077 -12.570097593963244 184 173 151 
81.93562598545955 3.3251062125395476 -13.703744367780697 144 133 111 
81.15862658515218 1.7221812680262207 -11.242314555722498 86 85 83 
82.06217185340275 3.295095731237067 -12.885069287500462 157 147 122 
81.0932000515815 3.035262582598242 -11.966499148309428 126 118 96 
83.67713718339046 3.599981511308644 -12.189605412262303 211 203 184 
86.71606088933424 3.132837425291147 -13.992492754552188 194 193 195 
81.22748761264305 2.783462724454991 -11.33380527949033 166 157 148 
84.93890665907576 1.7937161533368562 -9.584648787432021 87 87 95 
82.46286658691761 3.3699245846608274 -16.11864352056194 148 148 148 
80.16242909047418 2.9596008799760765 -14.744599741371658 155 145 118 
81.76239252319779 3.221977609282588 -16.86106120630935 105 100 110 
81.67782289313135 3.3192146677285934 -14.55138489167991 201 191 164 
85.72720340271549 2.9816006087477653 -14.007670130739472 81 84 93 
81.858067079259 3.3166263490705963 -14.635402694208908 214 204 177 
84.3782542364268 3.6751570898011106 -12.597950075942896 137 126 125 
83.06272783485379 3.4305974275368434 -14.791002029536587 211 205 205 
83.72997849138079 3.5799734634918448 -12.050779893770969 166 154 138 
82.64413003026291 3.4393275972790684 -13.278168659267209 192 182 157 
83.337044655153 3.602009868113834 -13.010042350584262 171 168 155 
86.01490304239584 3.2486181403594903 -14.499334842143597 230 232 240 
83.29280616277501 3.4953045842891726 -12.704384971882384 159 149 124 
82.06594883258688 3.367950708824821 -13.367832746821106 213 202 180 
82.08012783450175 3.392592664068223 -14.492554841725585 148 138 112 
85.75715133349956 2.9692882099683504 -13.22148345558158 233 233 237 
85.73702285054091 3.4503366901035335 -14.269761317203493 144 143 150 
83.50663546297008 3.4585736350231207 -14.569533543009502 99 96 97 
82.95851262026524 3.4794800681129456 -13.090492055364054 209 199 175 
82.95915035936599 3.4431648387219456 -14.729973643504126 98 93 94 
86.64537604228383 3.0689863739223426 -14.01647084954568 153 153 160 
83.32120786698894 3.542914981555656 -12.917329825119136 163 151 140 
83.31805672830268 3.5453035039364535 -12.911496199856485 163 151 140 
83.7281744245978 3.615863449212518 -12.327752364233167 141 132 117 
86.38804584365269 3.9233694566793043 -9.724327622686772 110 101 94 
86.38804584365269 3.9233694566793043 -9.724327622686772 110 101 94 
84.40526818954058 3.7224386707891592 -12.495600331601839 123 118 115 
83.01347226205985 3.5451748044382665 -12.708964525821111 213 202 180 
84.53105387325259 3.6470238836726656 -12.730071386231339 157 152 149 
86.60287988464594 3.4582135054068184 -14.036354693798941 83 83 94 
86.19785131035881 3.42238660900584 -14.515781723239467 50 50 73 
85.8697022757522 3.0735031433654516 -14.122851287966661 230 230 239 
86.5914006719106 3.317333788629901 -14.322203976159113 229 229 238 
86.05400219555706 3.090464190156741 -14.333996101569367 239 238 243 
86.66483338596896 3.5471583544696497 -13.810150790446315 47 49 61 
85.97753350805382 3.1770559799454086 -14.358111451844731 105 105 115 
86.75295508986011 3.3466718844854504 -13.989667805224176 53 53 57 
86.64543880226704 3.613024839568397 -13.693368553935619 184 186 198 
86.45116125118287 3.266724553574166 -14.498667033823075 201 201 211 
86.75881379640731 3.379015735588699 -14.014552654100616 74 73 79 
86.3828863537804 3.287066787736082 -14.481840624672088 70 70 80 
86.21819397708319 3.1712920764493155 -14.46516980299689 213 213 223 
74.87574123037292 0.20877952514092185 -6.78930964306063 113 113 121 
77.96735203115372 1.1252641978758176 -11.117648101909365 127 125 126 
80.80391480355081 3.155994079193804 -15.185780153300287 204 194 167 
74.90858469197552 1.5784765262073197 -6.105084631521283 78 76 81 
78.57384562239804 -0.20415447041215345 -2.6092357838472466 132 130 131 
75.04358120235764 0.5346311508442605 -6.796705135625356 228 226 227 
78.45087066976146 3.1345737322227625 -3.0950369044156822 48 52 60 
74.95087650340143 0.245445397627802 -6.707991966885277 145 146 146 
74.5893414768613 2.4851909193005746 -6.513966151449566 71 76 82 
82.35236311122074 3.3274145350564703 -15.754273042881069 194 189 185 
83.32536213720658 3.4120654905680894 -11.929291103841216 168 161 143 
74.84697305716571 2.4315756802850776 -6.713052793850121 122 127 133 
78.06541515149392 3.1137937061801098 -6.689545207893911 78 74 73 
75.48832134138529 2.470496018161202 -11.145315595260247 155 160 153 
73.74763817564107 2.5012288686880746 -10.58854637526927 59 60 54 
75.10638116836114 1.6986070394939374 -5.389441950799174 138 140 145 
80.62532476599034 2.917013655484573 -13.907241362999475 168 154 126 
83.32139473973879 3.5243991282555176 -13.21792177732855 148 138 114 
77.10963232893818 1.169304233692817 -9.632041819792866 213 207 207 
75.91648488940413 3.118535148909491 -8.084611512573225 151 146 140 
79.48484516563519 3.010385283205668 -0.8787941077031185 103 111 122 
78.11132068059337 -0.2900390513925237 -3.0198055539830584 233 231 234 
75.20373462601574 1.3160638788612065 -10.624440266710566 120 116 109 
75.30208137584017 1.2734683109566145 -11.188550033674643 228 223 224 
86.26270367365429 3.9965412177888844 -7.9095388753202265 136 130 103 
81.64054812927614 3.215003134768075 -16.192619340929053 202 194 184 
78.84862312243658 0.1306402383720225 -2.2869519757123946 115 113 116 
78.83971387974375 0.12951060074163617 -2.2135845281192026 115 113 116 
81.54891847059231 1.6121053714959914 -11.227696907110149 120 118 121 
80.59306920487364 0.1770414964438221 -3.7708218999549636 85 83 88 
79.95963238614563 -1.2909090827855885 -0.32940127552085485 214 212 215 
79.4790052248587 3.124068235531087 -0.9147351864982625 71 84 93 
79.72181104882168 2.8149618541618615 -14.280895568085581 197 188 157 
83.17898339687699 3.4862197832942345 -12.479302091522353 190 179 155 
81.29707432146886 1.6246925256267877 -11.166557621070956 96 94 97 
78.12222315761221 1.0264434536676148 -11.299764518825405 125 124 122 
78.11631355826454 1.1536145560704938 -11.494297445038985 120 119 117 
81.97713654872814 3.255584582795475 -12.619342485954263 168 158 133 
74.26370846331035 3.1732070059316912 -11.411108319817952 213 204 197 
78.29106286312418 -1.4954127961172352 -3.1329082760500135 142 140 143 
80.03848286419455 2.7505665439119635 -14.040219550009947 147 138 123 
84.74745775982966 1.665371982204198 -10.056878023760772 142 143 147 
84.72254271240669 1.6617527926122555 -9.959366230557691 142 143 147 
80.02499675292363 2.795124274146327 -14.184761841554097 139 129 102 
79.75871490093613 2.8220800810347297 -14.406102578892773 151 141 115 
83.13804930130999 3.471425468521934 -12.44263330571655 223 213 187 
84.5298024266462 1.440822229537333 -9.856400264138609 182 183 187 
83.5108296781944 3.605996775829036 -12.736899548606905 217 209 186 
81.59599418635713 3.2960435568109885 -15.202191916049781 140 129 111 
86.05038163664048 3.200726832923767 -14.403007933341788 94 96 108 
81.53892836044092 3.2498132393635126 -15.261580398106698 220 210 183 
83.5112343536523 2.9972577517595065 -10.654728953978928 206 201 198 
85.71006929045443 3.1843569190032923 -14.200378256581335 58 55 66 
82.4681973815103 3.337182359376632 -11.752283322813518 204 193 175 
87.65274048680067 1.6198710317343747 -12.249896172705043 120 121 125 
86.61504998469748 3.296003420195213 -14.343136358198834 233 233 245 
84.87634843356525 1.6986238330225083 -9.6589879413872 117 117 119 
83.73667525417281 3.602530103738614 -11.904407029626348 165 157 139 
82.15381091995681 3.3174541902730943 -14.225867156429361 175 163 139 
86.05363567426225 3.9813518058367587 -8.282078849453232 126 120 98 
85.98405670991937 3.096685540192375 -14.4727124256268 76 76 86 
82.27050986893354 3.35641624883832 -11.873547708558073 187 175 159 
84.06696799239867 3.6233212216279487 -12.011527267698426 199 190 175 
83.93249807942348 3.268810375038969 -16.794904794789286 254 252 253 
85.80710478809975 3.0111860066863336 -14.0650267266656 90 90 100 
85.45429888011816 3.7304960387606387 -8.76172402137681 193 190 188 
76.63251476219008 3.297204394558821 -7.204558216205854 189 186 179 
82.3516601880164 3.3946540643465424 -14.191383205257932 188 181 164 
74.90550955168867 0.23915475484735266 -6.661438262352757 151 151 159 
75.91573329749653 1.0193890807131523 -5.773041370516399 223 222 218 
79.60026837183898 2.5681594930656546 -13.691819363226916 162 157 151 
82.42720935803784 3.3034126962767965 -12.458466139204884 205 194 176 
78.5117057111915 -0.3825845573502645 -2.5132800636626627 207 205 206 
81.33125367598822 1.817266780033942 -11.254256144919024 109 108 106 
75.55312682632753 0.8944930635710646 -5.906461513505761 159 158 154 
75.48399923984898 2.812921259122951 -6.58983822896198 178 172 172 
80.79637148100788 1.8449686442757112 -6.914272047441447 64 64 74 
83.62945166722837 3.570716374480233 -12.668792773902013 159 151 131 
80.85019274166697 3.0061617775289635 -14.057281068407725 161 148 116 
78.01790258953454 1.7926246570697097 -11.554756068996015 144 138 138 
74.8765101887447 -0.2527255859398961 -6.383237221876801 164 166 165 
73.7068858652254 1.779370840497256 -6.05074504795806 77 80 87 
78.64409373525564 -0.11640699818762718 -2.294233515923221 190 189 187 
78.54411884387838 -1.491228689497073 -2.586470585725035 120 118 121 
74.93040337478158 2.69633278962286 -6.24576897494909 63 65 67 
74.20256273378136 1.6170369434862484 -6.359749532053211 150 149 155 
75.99996438602157 -0.5336619256174144 -5.63840998171889 145 157 161 
81.78910247887873 2.0078440888963174 -5.9252479268535545 201 198 203 
78.04326791308955 1.6470598213058651 -11.596617910244728 97 91 91 
75.07264203368405 2.6371460792274193 -6.512786394028257 86 91 95 
75.10903201711778 3.160305092420035 -6.5356457216851105 136 127 125 
80.06847524684821 2.946872582365446 -14.580725019121656 168 158 131 
78.80761182877198 -0.17231031602510632 -2.405917540761987 221 220 218 
82.67031814346564 3.416546947312494 -15.004424032684087 211 203 193 
74.30283916135949 1.5972638129695143 -7.050249173776823 75 79 85 
81.66922683039071 3.225581766631535 -14.434295090560099 226 216 189 
83.74213084323912 3.666656076140387 -12.270401496528242 230 218 202 
75.29652459073017 1.8179735090270306 -5.812713990741283 86 84 93 
76.40283435279882 3.2633179246917816 -7.031106343375367 110 105 101 
83.5946243856043 0.7300890122886949 -9.132007596308721 234 232 233 
82.5851614416121 3.493387350982683 -13.970742772491086 196 185 165 
81.10311260442819 2.717071580319467 -11.330124904475943 176 167 160 
77.9092959426512 1.4559436839199407 -11.54488172522938 144 138 138 
84.66031177669154 1.554874382819226 -9.921792082876445 215 217 216 
84.51306428508589 1.3788691388004055 -9.893968324552862 187 187 189 
82.01388866259515 -1.644947459102165 2.25907710474052 138 139 143 
81.55758544478817 3.27776539443236 -15.317935918807684 132 121 99 
81.55758544478817 3.27776539443236 -15.317935918807684 132 121 99 
77.79019726326658 1.8106204888911983 -7.669706419976709 102 105 98 
85.86850229766671 3.937589625907647 -9.138501948936021 183 176 158 
76.38069768993267 3.032185103139388 -6.727487488876999 90 89 89 
78.54413736403122 -1.4269681077417429 -2.517190249542942 116 114 117 
