-4.38201909846 0.528984638886 18.5541891309 135 137 148 
-6.55062068224 0.537582369947 2.60142773667 123 113 84 
-6.65500649598 0.548554706368 2.65271189847 123 113 84 
-10.5642166662 0.278571263124 6.94812416856 200 197 194 
-6.47260024076 0.444676598715 2.41235151149 147 138 108 
-11.7193327961 -2.19088898403 6.43666736479 97 106 114 
-9.36229904454 0.715842143933 10.4172695135 150 143 142 
-11.8745797296 -2.08332281721 8.72254614206 137 141 147 
-10.827037395 -1.36260370509 8.58769113028 224 222 223 
-11.2123590169 -2.15200468064 7.82611357653 86 96 102 
-10.066667081 0.654159562865 7.26709181174 175 163 146 
-5.12238484053 0.688102576802 1.82154235061 96 95 101 
-11.3347479757 0.16519961128 6.71754064706 229 228 235 
-11.3051805929 0.236849556677 6.47466567385 127 123 125 
-11.4113465472 0.033126332573 6.94473258369 86 94 101 
-11.4113465472 0.033126332573 6.94473258369 86 94 101 
-11.2802134906 0.090259715575 5.35907796706 80 79 77 
-4.99891896068 0.842898793227 4.97115842099 149 139 112 
-10.4395196494 0.317451210712 7.13998767119 209 204 199 
-5.25819376049 0.792969339588 4.80740682744 209 199 173 
-10.2880078161 0.452998446923 6.98916856772 91 83 81 
-11.5033153639 -0.497926292286 7.05635633544 69 76 83 
-6.39122794277 0.620845621148 2.83264203938 136 124 98 
-5.35170296688 0.802792577561 4.68198100682 214 204 179 
-10.4078891546 0.262597707645 7.37250281438 59 60 58 
-7.55105685766 -2.9964421233 13.8214714149 198 196 199 
-5.47462881757 0.624400980969 1.35838217619 93 91 101 
-5.21218594532 0.666312912393 1.90655512725 195 192 195 
-6.97469488526 0.407728034155 3.05057328149 182 172 146 
-8.63879709336 0.758292851258 10.1500740157 190 185 184 
-5.4128448991 0.629094371345 1.42168316191 98 95 102 
-4.25011208049 0.934959670723 4.00345934362 95 90 96 
-5.72479651349 0.774343043211 3.88230511866 159 149 124 
-11.1420748755 -1.58302014633 8.89084709409 99 102 103 
-11.1804847592 0.203080332336 5.14806401168 216 214 214 
-8.77508811405 -2.88287899513 10.3488515895 125 124 129 
-11.8170877647 -2.38061198362 7.13015067385 187 191 197 
-4.88424945843 0.913459343298 5.27632918972 176 166 141 
-7.67651050213 0.144939837863 9.42861172254 59 68 62 
-5.65172670309 0.800615145661 3.69629794038 216 206 182 
-10.8809133751 -1.27238842283 8.68565166696 225 222 220 
-9.80222612525 0.370145785449 7.10882040912 193 189 190 
-9.80222612525 0.370145785449 7.10882040912 193 189 190 
-10.8406357608 -1.17064092883 8.60988521179 98 95 93 
-5.53481872173 0.68644751446 5.02314039529 215 205 173 
-4.73040467901 0.91424304441 4.89771194884 217 207 180 
-9.51646177411 0.401961557135 7.58250670921 191 186 180 
-9.7026636918 0.615527598169 10.6682389366 212 204 203 
-7.49046227843 -1.56385792228 13.641597644 221 219 220 
-11.5933535601 -1.62790829541 6.79510785809 102 106 113 
-10.1280551945 0.21119199853 6.78049156782 70 72 63 
-11.2150759854 -0.0426876565441 5.18534397569 221 219 224 
-4.92451084963 0.850709246056 6.31005812937 213 203 178 
-5.60704085148 0.759563511005 4.69969893683 189 180 152 
-8.70175102056 0.807183317732 10.4684915603 182 180 177 
-9.5131596032 -0.619301020412 6.890818705 234 228 227 
-6.5473989 0.407199924135 2.30438879414 178 169 138 
-10.8247045947 -1.13266330694 8.42775244437 217 214 212 
-4.77881804546 0.932590198875 4.74009303132 151 143 118 
-5.85643751346 0.592129103964 1.67857202469 115 106 96 
-5.83748631775 0.632879035395 2.04407659443 108 97 85 
-5.69253848098 0.724131908882 2.79621405276 106 96 81 
-10.0451957935 0.29586855993 7.28752752764 66 64 64 
-10.4925985429 0.370495441891 7.37094298836 201 197 196 
-10.4925985429 0.370495441891 7.37094298836 201 197 196 
-5.86093598667 0.609911402214 1.83739601731 121 112 98 
-5.87249852137 0.575708829527 1.5554152425 106 97 87 
-5.08139655839 0.81737205752 4.80787844198 152 142 115 
-7.78984221274 -3.16619563925 14.1994297393 181 179 182 
-11.3353083073 0.0944894717094 6.38453839069 218 220 227 
-11.1559266001 0.413807940101 6.10967145144 196 194 187 
-6.05055256088 0.694769565802 3.3656197269 190 179 159 
-11.5241491833 -1.61891478933 7.22268679341 110 112 117 
-4.52178514344 0.980827942121 5.19432658582 124 114 92 
-4.51720637865 0.979127478128 5.18766770177 124 114 92 
-11.2843153748 -1.01908027963 7.19021483828 156 150 150 
-5.42529684369 0.708235271801 5.05765530509 144 134 106 
-5.67842623969 0.719514618355 4.78740928979 152 142 112 
-5.07794084098 0.845397750031 4.95137161016 152 142 115 
-9.91347538917 -0.648865930156 6.95671067661 230 225 223 
-11.1246355781 -1.55437899541 7.28147469773 94 93 98 
-6.00383755903 0.662265859027 4.46607127726 140 129 100 
-5.60884205227 0.755491582107 3.03011966206 112 102 84 
-5.03202712774 0.89019656634 4.28877975518 124 112 97 
-5.03202712774 0.89019656634 4.28877975518 124 112 97 
-10.8679491012 0.440518605782 6.43442318521 170 169 168 
-11.4468893107 -0.634765035102 7.54883561274 129 131 130 
-11.0100213586 0.421502328273 6.29162889432 178 177 172 
-8.72544456941 0.711132524325 10.5003854484 61 61 57 
-11.0562356435 0.416861077574 6.19984715088 193 191 186 
-5.2529017891 0.803101458119 6.36972646843 157 147 122 
-5.08174958673 0.884055936868 4.22193012167 106 94 79 
-7.7193680204 1.03965922685 13.102116364 159 154 154 
-10.9089003062 0.426734350967 6.33293259254 180 179 174 
-7.23980377001 -1.81465804975 13.8594165093 233 231 235 
-11.4154229501 0.318643958412 6.41497367041 219 217 214 
-5.63689112475 0.635108558212 4.99550970753 160 150 117 
-6.45463456048 0.494561996678 2.66877095908 127 115 85 
-11.5240077387 -0.728086619144 7.14054774655 79 76 79 
-11.2117116061 -0.706360435526 7.26714889123 66 66 64 
1.02998052305 0.813549691288 3.81471184053 182 182 174 
-10.7714783422 -1.45346294273 8.66614217914 217 217 218 
-6.41502998022 0.499650129777 4.88980805012 132 120 93 
-9.15131222701 0.623163773407 9.35430368581 117 112 107 
-6.16222592718 0.551478952322 4.88971498388 168 157 130 
-9.52144378989 -0.600866615779 6.93271126616 227 223 219 
-5.47941065148 0.802663917042 3.45068319399 102 94 76 
-11.4080467123 0.00471868569444 7.01440253212 66 67 71 
-11.1407381726 0.132948643894 7.14949008102 78 74 77 
-10.5535263984 0.508075685146 6.54579118587 219 213 212 
-5.70439223837 0.717010437906 2.69470011085 101 91 79 
-9.4614889597 0.413263408444 7.44131255013 197 192 186 
-5.84858739017 0.626537330951 1.92076502694 98 89 78 
-7.12138958967 -0.612505271806 2.7705786485 130 129 132 
-6.38349110721 0.529655574612 2.35958461419 200 190 164 
-11.594399477 -1.68256478964 7.22844313781 201 203 209 
-11.4541539534 -2.35370167816 7.12844406946 203 204 209 
-5.56470830376 0.785577467241 3.25515257648 96 89 72 
-5.83492822186 0.663285434034 1.95359808888 152 148 139 
-9.21572251903 0.611299710193 9.29719548741 123 118 114 
-10.0029974016 0.710055730596 10.9489558425 132 126 123 
-4.15434830959 0.972950255651 5.60458981058 219 209 184 
-5.5243731333 0.788421053811 3.00653342484 171 161 153 
-5.49328863559 0.748255661493 4.73463002832 196 186 158 
-4.6027422351 0.971539637564 5.03779741864 126 118 100 
-4.90921709118 0.832566562134 6.2743320912 212 202 177 
-5.21176484044 0.863692547394 3.99492540571 121 111 86 
0.984728573291 0.806211844802 3.85161819867 91 90 88 
0.804321019602 1.00856573495 3.51101202561 89 90 84 
-5.84170093221 0.681139453208 2.35409120264 104 94 84 
0.916932238325 0.779538966727 3.74189200731 220 219 217 
-9.23055552748 0.653721919743 9.21964840868 165 160 150 
-5.65062795097 0.78114623304 3.69738399003 212 202 176 
-9.43386052665 -0.575773837404 7.35404757933 220 219 215 
-5.88251408369 0.61443045389 1.78855980801 104 94 85 
-5.49707583351 0.803981004149 3.41576323276 110 100 83 
-5.79335405375 0.681135003378 2.37202974503 113 107 95 
-5.17714429727 0.873404288642 4.07870673279 125 115 89 
-9.24717266233 0.312180193385 7.15754092281 71 70 63 
-11.3148827195 0.116838395875 6.83529296676 94 96 103 
-10.5502449123 0.244173771299 7.43196907731 61 62 59 
-5.86200546626 0.602353838079 1.88399815011 127 119 100 
-11.3662143814 0.128138197145 5.68258471202 112 112 111 
-5.55413137173 -3.30258015253 16.7530356688 191 191 201 
-8.87690905248 0.687296612795 10.4638935629 66 63 63 
-4.99794241236 -0.249499962448 11.6974025087 81 80 88 
-10.3846891704 0.349175242601 7.46934672845 88 85 85 
-9.29481407463 -0.56844301744 6.90092140672 222 217 216 
-5.84549913196 0.627465003568 1.66143606956 168 161 156 
-5.82033576542 0.725402636457 4.50953398762 165 155 128 
-10.9097599398 0.465344436408 6.69202784885 169 164 162 
-11.7725297506 -0.567720118156 6.07433348799 62 69 75 
0.629042299002 -0.527577822678 6.1826949158 233 234 238 
-5.00230072228 0.947273407261 4.13502613463 130 121 108 
-6.27827593368 0.559258364084 2.15205295278 123 114 87 
-6.31571441669 0.654103596184 3.53452266995 138 125 112 
-11.4534936331 0.0928739473421 5.76028271272 218 218 219 
-10.5685046479 0.271351813095 7.30078869977 178 178 171 
-10.8545551135 0.458521693554 6.51903171836 165 162 161 
-5.8026637223 0.660887241821 2.31945937588 167 155 140 
-7.35290801594 0.320980042879 6.61646737335 107 101 94 
-9.86697577368 -0.647731273221 6.84012407998 151 146 144 
-9.86697577368 -0.647731273221 6.84012407998 151 146 144 
-10.1239836513 0.189572842668 6.6945584929 198 200 193 
-10.9868338647 0.384159240944 6.04366269762 203 199 193 
-9.95460658345 -0.634061300271 6.87361780276 204 201 198 
-5.23438937932 0.864811243009 3.65366109291 203 195 185 
-10.0266433996 0.134180402085 10.3839119073 113 119 125 
-9.50822132118 -0.616410515669 6.971633327 144 139 138 
-8.77987635066 0.717105566279 10.3920598959 157 155 154 
-11.023693466 0.466736164542 6.57697041676 166 165 165 
-8.76681013069 0.772107593136 10.1774791027 188 181 180 
-11.4441236363 0.0727444533909 6.42638756591 192 196 203 
-6.1553466331 0.651333378478 2.93293953902 188 178 156 
-10.8731061957 0.463661989408 6.60351469332 158 156 154 
-5.82026961549 0.624329653944 1.88129159496 118 110 99 
-5.8346888645 0.624964481199 1.87099278645 111 104 93 
-6.38746351791 0.637259765064 3.51291279646 129 116 103 
-5.85851151971 0.621649383203 1.97757202875 146 136 124 
-9.04654747543 -1.93918054295 10.6724138335 99 107 118 
-10.0754729411 -0.345090217285 10.822977905 80 84 93 
-8.94732760044 -1.35719532067 10.4869680354 100 111 120 
-6.51788025981 0.405194310428 2.58392259149 181 170 140 
-10.8879867019 -1.14545776606 8.82349781089 122 121 119 
-7.43622949193 -2.74930871962 13.7531592351 199 197 198 
-4.91512103233 0.844278013869 5.97053472877 172 162 137 
-9.88692262404 0.28120900068 10.6587284181 79 89 94 
-9.99107558854 0.289068347819 10.7884407961 79 89 94 
-8.22781387749 -0.124892984633 12.3375520123 181 178 187 
-9.13058292431 -1.68079481727 11.2811626101 129 137 148 
-5.52788364661 0.730123382586 2.52050859189 169 164 163 
-5.03740075504 0.754886448107 6.74702708379 199 188 166 
-9.47736679889 -1.7495286861 11.2175920687 134 143 150 
-5.62811441076 0.641979959854 4.91133521762 153 142 110 
-5.40652432291 -2.88905423916 16.8910012589 142 141 154 
-5.14478565706 -0.650872888179 7.55644589425 173 171 174 
-8.854581395 0.73342976142 10.1628077318 136 128 126 
-5.74562330853 0.728442434599 3.70731963779 152 141 119 
-5.70284601821 0.568810593951 5.0547763572 214 204 171 
-4.62775237684 0.248925624388 18.6338056555 151 156 174 
-9.43324488291 -0.919099251424 11.1504305004 229 228 224 
-9.41745907673 -0.917397278359 11.1288101014 229 228 224 
-9.57777906998 0.365457222793 7.16046463775 204 198 198 
-4.49473110012 0.372202604448 18.6601196401 54 57 72 
-9.97627958909 -1.76542480134 12.404576146 131 138 149 
-9.38908852019 -0.528073479423 7.26425030763 90 94 78 
-4.62515228579 0.920156472619 3.65027434341 117 116 121 
-8.02490856897 -0.379657749785 9.72059563033 96 96 86 
-6.39291577161 0.51120106574 1.84709576054 186 176 149 
-8.44672085166 0.637141316932 10.3862903911 62 63 63 
-5.05751536014 0.693393498598 6.92138531998 130 118 96 
-9.51642843895 -0.942079106035 10.8849805768 224 223 219 
-5.30247045606 0.650015387943 10.3971510921 204 202 202 
-8.80149541272 -1.51687812991 11.9920646436 168 176 187 
-6.06055130925 0.698567621815 2.77611371503 201 192 171 
-9.70498334752 -1.16467635516 10.6471775486 207 206 205 
-7.84295911056 0.707295738643 10.759717641 159 156 154 
-10.1423439408 0.209492014232 6.79058005121 67 68 61 
-9.41298287059 -2.08415792605 11.1856404342 138 146 157 
-9.27049256494 -0.43485506774 7.23240161487 118 124 132 
-5.73028304482 0.735706734069 2.41464811431 164 165 160 
-5.57349695515 0.813045296573 3.79484806637 220 210 183 
-9.29426541052 -2.08663549429 11.3631782082 153 161 172 
-1.48202841526 1.22350396017 6.03084390126 82 81 90 
-5.50182223221 0.826523642494 3.91320086022 210 200 175 
-5.80931668585 0.561132577137 1.48683509637 123 115 107 
-4.10156416647 1.00730816847 4.72226597475 206 201 198 
-5.38795921911 -0.377459641986 7.32982872046 80 78 79 
-9.77423873907 -1.39429536033 10.7611407257 83 84 90 
-5.15453541251 0.605415209679 6.93734012103 144 131 109 
-5.42438556685 -0.206175534466 7.30831300116 155 151 145 
-5.53919066235 0.647232415593 5.10615082757 157 146 114 
-8.76650332166 0.695851458094 10.1522867709 109 102 102 
-9.4395268061 -1.59908869831 10.8998442997 113 115 121 
-6.28939044462 0.492759473036 4.83405195934 201 187 161 
-9.79277888188 -0.217977225304 7.28108172498 47 52 48 
-10.7225808241 -1.35660123667 8.63034073509 123 125 124 
-5.45824404423 -0.354842730095 7.32389231031 166 162 163 
-9.89144588512 -1.25628353478 10.5358002465 225 223 224 
-6.42810914623 -2.83946786217 15.3633487365 179 177 181 
-5.45150475624 0.681683863427 6.62869122902 192 182 146 
-9.53462265178 -0.875299841118 11.068325357 117 116 112 
-10.4642161212 0.426236682666 6.48661284213 219 214 211 
-9.37530108897 -0.871825518691 11.2662495705 106 105 101 
-9.39407028489 -0.873464744457 11.2922444619 106 105 101 
-9.64974184141 0.279542941263 7.24622172586 92 92 92 
-5.34826586656 0.710272848279 6.61600438653 214 203 173 
-5.43824865119 -0.318366806412 7.3629961645 105 101 101 
-5.59363545595 0.744902375124 4.6244639388 167 157 130 
-4.37908069916 0.955331794091 5.32011995667 221 209 193 
-5.01932831619 0.746836009829 6.7605116088 216 204 182 
-10.6721959102 0.292811675283 7.44774290539 69 69 61 
-5.389037395 0.823588282386 3.65128696025 107 96 75 
-9.87042313263 -1.06513254225 10.5705033195 111 109 109 
-8.68976293453 0.632041529517 10.5317992945 186 186 186 
-6.77136296899 0.443978500898 1.91503007555 146 136 113 
-5.45439000767 0.809951115487 3.48830563709 101 91 75 
-5.67935521909 0.584438844926 5.11664477834 150 140 108 
-5.68115877178 0.584490176143 5.11718028035 150 140 108 
-9.92025617305 -0.612236156815 7.0192340761 106 106 98 
-4.85009628796 0.853530261062 6.25409853782 219 209 184 
-5.5825620894 0.658512254389 5.05066037947 162 151 119 
-10.0151790594 0.241944236071 10.2831861628 51 56 62 
-9.81857927676 -0.511926637123 10.7633892717 60 61 64 
-5.66665228903 0.722196071996 2.49483295909 149 144 141 
-5.3419059286 0.73539637408 6.58132532079 176 165 135 
-5.40097249267 0.746180557654 6.53393158657 198 187 158 
-9.31025048875 -2.12602800167 10.7032537467 221 221 224 
-5.28214934633 0.846385849081 3.83297872849 124 114 90 
-8.22452102807 0.102070783238 4.09702917961 214 214 216 
-4.75258819185 0.924133879488 5.56736382567 216 206 181 
-5.45650462175 -0.145995770406 7.31630169451 129 124 121 
-5.5115739315 0.800467177622 3.37619337874 108 99 80 
-6.86366946185 0.369169998658 2.81841883529 154 145 112 
-5.48682517024 -0.00365778589966 7.30452578234 164 158 156 
-5.44910286853 -0.0602786903561 7.32484795946 108 103 100 
-5.88513245825 0.627072978675 1.96171363354 164 156 142 
-6.4725847204 0.496604292861 1.9875507385 128 118 91 
-11.0956823102 -2.20103454202 8.26843639229 201 200 205 
-7.30159058429 0.315488335091 6.51060170817 176 172 161 
-5.27842392559 0.85453596054 3.88481830586 133 123 99 
-5.00276588378 0.947377092214 4.13645511172 122 112 100 
-5.5448427965 0.799406176823 3.3438019857 126 119 101 
-5.1483792611 0.806704380907 4.6872982918 221 211 186 
-10.9237176679 -1.08421742269 8.91088710483 108 107 105 
-9.39251118547 -0.877048234858 11.2182760087 219 218 214 
-12.0100256768 -2.28462855971 7.11397976252 90 99 106 
-9.48284096334 -0.864958009994 11.0603578307 227 226 222 
-5.83140614122 0.646281662435 1.65523798457 206 201 198 
-5.91256087425 0.636472806004 2.06355058924 147 136 121 
-8.87029332869 0.548150831021 10.4013805246 128 123 122 
-4.5670977217 0.954362276198 5.094072451 191 180 158 
-3.92241699287 0.783604034622 2.08002973673 249 249 251 
-4.71148087145 0.816656654633 2.86467201699 109 102 112 
-4.90219662492 0.803033205395 2.79578765199 94 87 93 
-3.80749610946 1.0955945866 6.02726187502 191 187 168 
-3.67678954951 1.02355812849 4.91882071439 103 92 100 
-4.70723790021 0.886149625866 3.61187238607 99 98 93 
-4.72641250746 0.889232117416 3.63067493113 99 98 93 
-4.09771682791 0.999730351467 4.67002890242 95 90 86 
-4.21130630581 1.02195442666 5.95268036592 214 204 178 
-3.18457816923 -0.454189690555 8.76468429515 204 205 209 
-4.463104423 0.915287242988 3.85355920203 104 93 89 
-4.24655246005 1.0100174495 5.83074600895 219 209 183 
-4.26500320414 0.920660311594 4.07414255875 214 205 203 
-4.95759865578 0.876702219144 4.48249940647 220 211 182 
-3.9653931957 1.06879013872 6.16454149188 172 163 138 
-3.9489730972 1.06549396108 6.12655850102 172 163 138 
-4.42952085771 0.99471817966 5.33578286161 123 112 88 
-4.429841466 0.994728690063 5.3362278793 123 112 88 
-4.27396383688 1.01937715014 5.59905701983 120 110 85 
-4.96373519391 0.914221682768 4.51969309213 131 121 96 
-5.08081078641 0.885618097587 4.21932680246 114 103 85 
-4.26665282668 0.985945839889 5.61491308349 222 212 187 
-3.50328270337 1.12520774228 6.80042153951 112 100 85 
-4.26207716879 1.02192003954 5.6519414049 124 114 87 
-5.14675928014 0.870973844216 4.10446930172 122 112 85 
-5.1531753745 0.872091587444 4.11166101024 122 112 85 
-3.60901207077 1.09766393735 6.4787246118 161 150 129 
-3.69203010513 1.10058310732 6.50620593904 148 137 115 
-4.0626403151 1.05404871708 5.92221828983 153 142 119 
-4.70036689884 0.952411957918 4.89852917333 127 117 91 
-4.92691995396 0.872815480875 3.414548239 215 207 210 
-4.57738215065 0.927400566026 5.39761610469 231 220 198 
1.41637237316 0.65954184989 3.8457231752 115 116 108 
-3.71735016128 1.07797686459 5.51128364442 206 195 192 
-4.81351540704 0.956736598398 4.5562954298 156 144 127 
-3.88860003386 1.05486360431 6.14818362505 163 153 128 
-5.02472881395 0.89520633684 4.01673485372 186 177 158 
-4.47486859467 0.994540515275 5.02375442285 176 168 154 
-3.72209553908 1.11569735875 6.48629711428 147 136 114 
-4.53619219471 0.947148481866 5.53884558746 215 205 180 
-3.03738689233 -0.192014951608 8.62311521676 93 93 100 
-5.7869257622 0.703767143879 5.02381662045 168 157 125 
-5.5353840578 0.705668188909 5.27319767812 156 145 113 
-4.77647778999 0.882151197418 3.55418209835 88 86 98 
-4.47274731884 1.01476137064 5.09395125433 191 187 176 
-11.4800397194 -1.94219084234 6.45423512278 155 159 165 
-5.19592356394 0.756224799502 2.43309594638 89 88 96 
-4.87529907723 0.86541554088 3.41489855853 88 87 83 
-5.21630397411 0.81412638038 5.2411906602 194 184 158 
-5.28155318424 0.684108093462 6.75395571325 148 133 109 
-4.70533290535 0.896855702123 6.05929894419 150 140 115 
-5.75329458277 0.64470358235 4.84881143482 144 133 101 
-5.81176048223 0.580397237021 4.91189324354 182 171 139 
-5.35736982325 0.752310852513 6.52655536473 150 139 111 
-5.66303517629 0.774962149547 3.74985773061 158 148 122 
-5.41937494176 -0.277289219744 7.34502607143 176 173 166 
-5.74930241639 0.740186487297 4.41511502723 205 195 168 
-5.75811828985 0.741129675934 4.42276327296 205 195 168 
-5.75235175166 0.704977116594 2.5867594497 92 84 72 
-4.53389422536 0.985640763487 5.15095293575 145 137 117 
-5.45601518113 -0.278090097499 7.3083173178 162 159 152 
-5.26611101516 0.859186035865 3.69813919345 164 156 144 
-5.10234484723 0.64268980672 7.01947814587 198 186 164 
-5.96351875527 0.547185145038 5.08004631037 179 170 140 
-5.12375610043 0.642665060216 6.9322743478 203 191 169 
-3.47128969906 1.1014159818 5.73855084926 197 197 192 
-2.08604842868 1.02803347447 5.25672675607 139 138 146 
-7.31629563034 0.137238232651 8.87986828078 62 73 67 
-8.61201045794 -0.0724037659929 8.54267273869 100 103 111 
-5.38569824932 -0.398151156521 8.08491120584 194 194 196 
-4.69286488123 0.897551043085 6.06139337499 161 151 126 
-5.29735858973 -0.597126087179 7.51396181829 85 83 86 
-8.52734644857 -0.552886586153 10.0152711015 225 219 218 
-7.37011313544 0.374272181407 6.85359247627 210 209 208 
-8.54559194177 0.137183781931 10.2618462449 81 92 86 
-7.66398004671 -0.324897855914 9.67231848335 81 82 76 
-5.30974551743 0.7260693782 6.56402938801 182 172 147 
-9.06885702022 0.580087115478 10.3040829802 185 187 181 
-4.52534144012 0.865343198675 7.09308441306 241 231 210 
-4.90529871939 0.891132285408 5.50318812721 155 144 122 
-4.22245264803 1.03503576517 5.6721212969 145 134 114 
-5.60575857563 0.613831688213 5.10444569415 153 144 112 
-5.33016372096 0.841252439035 5.91633408149 189 178 159 
-5.21724569661 0.743085826031 2.35522408304 91 87 100 
-5.90829122891 0.736738384024 4.08559687627 187 177 152 
-5.92828579958 0.599274614674 4.69526391373 137 127 100 
-6.2827553133 0.605097187736 4.76781723832 136 126 99 
-4.39587976096 0.954957422899 6.05788574037 180 170 145 
-6.13338814718 0.569078529382 4.76019680363 169 159 132 
-5.68019198012 0.640915319301 2.18870984143 157 144 133 
-6.0210086638 0.677998621164 2.65564236989 204 191 174 
-9.99908211926 -1.27377223049 10.4350471334 218 216 217 
-5.50165917881 0.801760529388 2.96967909147 168 160 152 
-5.8036426601 0.652002742844 4.61172387508 196 186 159 
-5.88047643008 0.686783543645 2.02903255189 143 141 134 
-4.09098531949 1.06740856351 5.85033951729 237 225 211 
-5.63670030448 0.723773861438 2.80210280745 98 86 73 
-4.83778645114 0.780053147188 6.63383589994 145 133 111 
-6.47892662709 0.435570926835 2.11505405815 187 179 150 
-3.83023547792 1.00500278498 4.8582207445 94 92 79 
-5.17024376742 0.795771460767 4.8910540794 192 182 155 
-4.59233428683 0.879144812974 6.52341876147 204 192 170 
-4.56214117587 0.898544924424 6.0544430585 157 147 122 
-6.34284217125 0.628966317106 3.52292343731 229 216 207 
-4.94162974073 0.91111494689 4.49499920618 131 121 96 
-6.34065162649 0.60754272419 4.53349529908 180 170 143 
-6.33515705502 0.607240955709 4.52851307204 180 170 143 
-6.27782379942 0.528208468503 2.63157043093 176 165 137 
-8.74465141427 0.79152463705 10.1691145275 185 180 180 
-4.77316370793 0.852419556762 6.76012696829 155 143 121 
-8.00146106986 -1.85444532522 5.5003511519 227 225 226 
-4.49694878967 0.95535841917 5.8721368857 209 199 174 
-4.25934174939 1.0224606346 5.64749481438 124 114 87 
-5.43281228527 0.82283336285 4.19231417081 162 152 125 
-5.75817368761 0.698975580028 2.53966004956 99 90 81 
-4.50131190234 0.874780661379 6.75082023068 231 217 204 
-4.71923440513 0.952838565213 4.86012642182 135 125 99 
-4.82020762073 0.870132758141 6.12423905312 157 147 122 
-4.39035234615 0.953645824008 6.27512601507 195 185 160 
-4.37697353438 0.949839741605 6.24802034456 195 185 160 
-5.54715632134 0.737204010422 2.8926978866 99 87 73 
-5.10019223585 0.841640252038 6.13509231928 154 143 121 
-6.29256826044 0.618261496977 2.68383883201 140 129 101 
-5.51603951281 0.726291227794 4.71956153333 142 133 101 
-7.33166347059 0.414105390776 6.59633560532 133 129 125 
-4.45025347384 0.998376597205 5.30731499813 118 107 85 
-4.49806396572 0.905643890097 6.77555703297 124 110 97 
-7.9326207907 -0.272086100964 9.92065091584 64 71 66 
-5.97963880299 0.53100386312 5.01802169499 141 131 105 
-5.5044151617 -0.39222615871 10.4510582334 112 113 117 
-8.48769455157 -0.343952038181 10.1733681596 106 112 105 
-6.3852462013 -3.26783696861 15.3160492856 128 126 132 
-6.55205514196 0.451914111027 2.68158124714 137 125 98 
-6.0702338806 -2.67289291063 15.5017210815 141 141 153 
-5.70918230466 0.708387209188 2.61109612007 108 99 90 
-7.50859903712 -0.39972528225 6.92571474938 217 211 211 
-5.10110881168 0.869282079357 4.11038148461 123 111 96 
-5.828904359 0.644045700006 2.2535286715 149 137 122 
-8.58533834394 0.54849714597 9.94356316812 105 104 103 
-5.61348447143 0.771810082893 4.05071904718 230 220 193 
-5.62274872365 0.77364867736 4.0593050587 230 220 193 
-4.87704980699 0.8177882279 6.62924038822 208 198 174 
-5.15924976769 0.766193712102 2.51673724511 102 93 102 
-0.0573948581937 1.12296698994 8.04109851201 53 53 62 
-5.73774136707 0.686915659199 2.44056052304 103 96 90 
-8.70396408649 0.775085119602 10.6304032754 80 76 74 
-4.37723884894 0.918155205487 7.064525867 154 140 127 
-5.34269715066 0.709688436019 6.60972883327 212 202 177 
-5.2945771052 -0.55218953501 10.200213669 169 170 174 
-5.27233649021 -0.548689033474 10.1451799042 169 170 174 
-5.42929517478 0.738573809207 5.09051799021 184 174 147 
-5.20918268151 0.729618294153 6.56597313114 192 180 158 
-4.89334993395 0.751948037743 6.83217458428 147 135 113 
-5.9193924979 0.735566655181 4.45925805327 199 189 162 
-5.74675229418 0.682678436233 2.39996963531 113 104 96 
-4.35807359666 0.937100399955 6.5809310078 152 139 125 
-8.7894372288 0.6871538952 10.3520105774 61 59 61 
-6.28483599523 0.56125544987 2.27368744316 121 114 85 
-4.72827773178 0.793650982522 6.99011364259 160 148 126 
-3.63444501315 1.0402098527 5.02062869661 101 95 93 
-5.75632514408 0.642512954636 2.26881110771 150 138 125 
-6.32246259042 0.650787849869 3.49700275613 123 111 101 
-6.21518356739 -2.57662108213 15.710686743 195 195 195 
-5.8091736479 0.661442710917 2.20516573191 108 95 87 
-5.72145051004 0.690831408387 2.47265404628 100 91 84 
-4.77694677472 0.925175549878 5.53126439419 231 220 198 
-4.68338752626 0.912862765632 5.93197561212 200 190 165 
-5.43444225978 -0.428247026098 10.3426354825 188 189 193 
-4.81473537124 0.87103584104 3.47424859182 96 87 99 
-6.49128708476 0.498076042769 1.99554125699 132 125 96 
-6.43110087471 0.337769293944 5.26874689023 162 159 150 
-5.37582970006 0.831921848828 3.69602879877 134 122 108 
-5.81987274709 0.639319536332 2.21116667976 124 112 96 
-7.52556898577 -0.403953441357 6.89224004773 128 121 122 
-5.36723882286 0.837390470121 3.73724106809 114 103 86 
-7.57511217327 -0.44585139126 6.85920337632 106 100 100 
-5.27143596046 0.890571434862 3.61886050429 146 137 132 
-5.27143596046 0.890571434862 3.61886050429 146 137 132 
-4.67106283992 0.843057956574 7.06116471135 144 131 114 
-7.76462665043 -0.991416691317 7.42759259183 118 117 115 
-5.19662223592 0.759690066982 4.82664599155 138 128 101 
-5.36661168114 -0.297423755312 7.36770681482 89 88 86 
-7.896478656 -1.86353178004 5.36986491237 222 220 221 
-5.729246487 0.66707923989 2.47896835417 153 141 128 
-6.53889127525 0.429946946903 2.41162204081 121 114 85 
-6.32930084474 0.517723934479 4.79124193402 190 180 155 
-5.73721432827 0.675535100962 2.53360249207 139 127 113 
-6.09186732531 0.695846774759 4.44461165628 190 180 153 
-6.42369407603 0.522438867571 2.48819082651 175 166 137 
-5.82322766599 0.638893780214 2.0142522778 125 116 107 
-5.26513593572 0.841558921414 3.50478869552 205 196 190 
-8.28420738085 -0.3263140039 12.3195476455 182 180 181 
-4.70639889209 0.141503114439 18.4330257445 78 79 95 
-6.43849374289 0.496774384535 2.51232676212 133 124 95 
-6.43065457426 0.539652414145 2.30288147706 164 157 128 
-8.72363977856 0.692147708353 10.1385290439 111 106 105 
-5.53178859963 -0.20735883706 7.35588124787 91 81 81 
-6.53051904781 0.412548679437 2.44697771026 136 129 100 
-8.0550584962 -1.91677515093 5.62474867952 199 197 198 
-5.73543976146 0.58934799339 5.04197869903 165 156 125 
-6.14214781233 0.499626831708 4.92410740878 139 129 102 
-7.01157720825 0.689412337385 4.43524033706 161 145 138 
-4.88662307656 0.882820012349 4.55578660339 213 203 176 
-5.04874817184 0.915773539471 4.43425894304 150 140 115 
-6.99133904918 -0.0974188498773 2.65744980119 127 125 116 
-3.89974741901 1.05130375122 5.91375894819 151 140 117 
-7.11150605456 -0.335515904371 2.66759767127 85 84 84 
-3.86822082312 1.0104377344 4.83824194317 211 200 193 
-4.67588987278 0.784408690592 7.03229930607 157 145 123 
-4.10564557645 1.05362288122 5.85002319888 151 140 120 
-5.37395196107 0.554789231245 7.15359819367 147 136 123 
-5.13603639487 0.810836284561 4.88790125968 151 141 114 
-2.16572725302 0.996705380791 5.13003115186 32 34 47 
-6.30405807814 0.567006884661 2.52157100329 192 181 153 
-8.77211999543 0.75500278364 10.1242003335 103 98 98 
-4.52705532759 0.867623739791 6.74397383303 217 203 190 
-4.5213292991 0.883037763617 6.71792178964 148 134 121 
-5.65240082325 0.77626554538 4.16160660887 207 197 170 
-4.96757009656 0.768042111821 6.676698742 173 161 139 
-10.9980477985 -2.11262600395 7.26210144918 86 91 94 
-11.3186122858 -2.31335284478 7.8376281398 157 165 170 
-5.04294482284 0.904802721657 4.78358321644 204 194 167 
-12.2337947975 -0.679379407002 7.49242758221 124 132 135 
-7.50484515127 0.136179386821 6.79406143255 145 140 134 
-9.45067251704 -0.261922219468 10.7878141226 54 57 62 
-11.8939521177 -1.66087778296 6.02137122754 101 102 110 
-10.4399996193 0.385482503675 7.44472809009 190 184 182 
-9.80701057414 -1.22671342051 10.6066035072 218 217 214 
-4.46827434236 0.987026463724 5.26306929966 129 119 96 
-5.46195543806 -0.351318015189 7.33324183014 166 162 163 
-11.574081954 0.330233937562 7.07689047719 178 175 169 
-9.39042273387 -1.32236893635 10.7972479674 82 87 92 
-9.52768533555 -0.874554503069 11.061265205 117 116 112 
-10.081873897 -0.432037473671 10.4204914692 76 82 84 
-9.94341640343 -1.46935098778 10.7363850592 159 161 159 
-7.41335905293 0.241491441271 6.78618894705 79 80 75 
-5.47526178656 0.209940255244 7.32878701235 129 124 121 
-4.98804377364 0.782831896233 6.65367063709 220 209 187 
-11.7014148245 -1.69444792403 7.30877107023 202 205 210 
-9.20654150671 0.65056283249 9.34616454284 178 171 162 
-9.7968603653 -1.44755858994 10.7302969015 140 141 144 
-9.83934018906 -1.2009879169 10.5430781932 165 163 164 
-9.98913806127 -0.468718591099 10.2391612486 118 125 123 
-7.81367805242 -0.368757903203 10.1496750546 216 218 213 
-5.27040810782 0.68511324598 6.7342122062 154 142 119 
-11.5711728527 0.305164968498 5.66279584134 56 55 53 
-7.704897296 -0.999081823519 7.41725627729 226 225 230 
-9.94007937729 -1.46048582323 10.4261799729 151 151 159 
-5.46042518348 0.0101999621064 7.36806637803 65 57 57 
-6.41770577186 0.527661493703 2.33896823566 132 120 96 
-9.3772249737 -1.89791824369 10.9412222124 72 78 87 
-4.38351210367 0.952336573838 6.94345159423 167 154 138 
-5.34809873172 -0.299411702507 10.6995180242 70 70 78 
-5.84747563102 0.731507771987 4.24891509409 186 172 146 
-5.90277262514 0.710971417065 4.41484765844 201 187 160 
-6.26574621539 0.519537548707 4.88169002331 130 123 94 
-5.52098579404 -0.493728103066 7.6196892741 79 77 78 
-5.28361963507 0.726910320536 2.26761678285 203 197 201 
-5.13164469027 0.759020489236 2.54587215584 203 196 203 
-5.34281479818 0.815400322482 3.91527937266 217 207 180 
-6.32162905832 0.647804273402 3.47918887095 136 120 105 
-5.56264085439 0.742526884326 2.94950954895 103 95 74 
-5.35162113813 0.668157676327 6.73987797739 195 186 158 
-3.69342332408 1.10039846047 6.51167315128 147 139 119 
-5.41981591234 -0.277121548624 7.34329943514 167 166 164 
-3.98793661949 0.999197536909 6.936740773 215 208 191 
-5.57593304116 0.762339152493 4.64445385718 208 197 167 
-5.48819834984 0.313228592846 7.28977104196 159 159 148 
-5.48578806331 0.231164066714 7.19141795877 192 192 182 
-5.90876139017 0.720299253225 4.36790856989 215 201 175 
-5.30670885713 0.844476176126 3.7991147939 140 134 110 
-8.32339990976 -0.735471031206 8.26068514197 226 221 222 
-11.127012982 -1.62219501809 8.27733236524 98 101 107 
-7.31533998577 -0.466170710978 6.79256107882 231 225 225 
-9.24066404815 -1.91548532874 10.7535143521 86 88 96 
-9.38811255676 0.369606058525 7.19650592404 203 206 197 
-9.63234970771 0.34729435025 7.57276553387 63 65 54 
-9.87535307921 -0.488545936132 10.7840351356 73 71 75 
-11.1893310557 -1.58192102436 7.81311758089 98 100 105 
-7.48316677001 -0.215384864424 6.8680030914 67 68 73 
-9.81099652878 -0.398413034997 10.548781772 114 113 121 
-7.45192170887 -1.58773688716 13.7859030105 116 114 115 
-9.75595811965 -1.09180101215 10.3300293674 222 221 217 
-10.9283063732 0.698683621796 6.67983035009 67 70 77 
-10.8304496451 0.394464739987 6.64729544122 127 119 119 
-7.7486147926 -0.239886946313 10.0274801246 101 102 97 
-7.6063977388 0.762361720344 13.5123579338 133 131 136 
-9.5104537348 0.506403169029 6.37794353412 174 164 164 
-9.47034949772 0.416744562186 7.45560772906 194 197 187 
-7.46232672097 0.836394990894 13.1977294665 69 67 71 
-9.35329975687 -1.32073736942 10.7460582101 87 87 88 
-9.39844088909 -0.552121253742 6.8493409725 97 100 92 
-7.50946584584 -2.0444775742 13.85798905 207 205 206 
-7.46810162499 -1.89979481678 13.8924035364 121 119 120 
-10.0909105239 0.350691474654 7.40659248967 198 199 192 
-5.2059234476 0.81256204006 4.64738772112 211 200 170 
-4.41016568838 0.920580516237 6.64151011772 177 167 149 
-7.12292917887 0.882674869046 13.2594415428 109 108 112 
-10.1192578749 0.201772641596 6.98818119955 192 193 187 
-9.81471199871 -0.698476930489 6.96882006935 150 141 142 
-9.81099542206 -0.698145557082 6.96585802157 150 141 142 
-8.98060803839 0.855127057744 9.69705945914 206 197 183 
-7.43471313727 -2.70161442363 13.8057850783 143 141 143 
-5.78008850979 0.567438973515 5.20614749105 213 199 173 
-8.02877344289 0.685938211044 10.2848155664 182 182 178 
-7.57004790847 -1.95411170751 13.923135274 135 133 134 
-10.218624123 0.426278972499 6.58870202211 107 95 95 
-11.0736397578 0.212431816508 7.08544955469 128 126 127 
-9.80723496583 -0.479199340722 10.8040382437 175 173 175 
-11.3339632756 -0.106501350651 7.38975347773 131 134 141 
-9.46034248665 -0.589198808705 6.78244178981 213 216 207 
-11.3831929772 0.167065411566 6.95691149472 200 199 204 
-10.4111734271 0.349033041313 7.49012417572 92 93 87 
-7.15487953774 1.16254199044 13.066473207 89 88 93 
-7.47255444821 -2.81213240604 13.8127036947 116 114 117 
-5.49702510139 0.773609749392 4.67568930403 208 197 167 
-9.84116674546 -1.19961660306 10.5450153117 165 164 162 
-9.8527364234 0.412410512377 10.6913375809 174 172 174 
-9.94434195603 -1.20685856996 10.3941328434 179 177 178 
-9.91468563195 -1.20308343467 10.3619080771 179 177 178 
-5.92061110824 0.57178291715 4.44977857996 136 126 99 
-6.48623481052 0.46343632188 2.53153041034 210 196 169 
-11.1596609562 0.191637128192 6.72700184318 140 139 144 
-5.47902007466 0.259831265142 7.33338608325 158 158 148 
-8.9406091619 -1.95112153517 5.21200273883 182 180 181 
-7.58316559722 -0.442428120829 6.89969096471 161 155 155 
-2.74149546409 0.973054183599 4.0349276936 251 252 248 
-2.11295238342 0.901572299033 5.32311909747 208 207 213 
-2.19044582728 0.924549716479 5.40711363909 62 61 67 
-1.92725044433 0.736190592985 5.17180517107 236 239 247 
-2.13058937932 1.04051280866 5.31404287521 239 239 248 
-2.17622811956 0.9656463609 5.24967365224 63 65 78 
-1.88547722569 0.743734394382 5.04460172685 69 72 81 
-2.13004966959 0.988209734518 5.26896937624 223 224 235 
-2.07682974975 0.869538959007 5.22388379203 249 248 253 
-6.88832864859 1.08795306607 12.1597820144 130 130 134 
-11.8277864527 -1.97337824912 7.18977420448 204 207 212 
-9.73604631324 -1.4247705235 10.6633640498 123 124 119 
-11.7486669112 0.00954940059984 6.53988909855 59 66 73 
-9.82997065147 -1.19385326276 10.6554951108 222 221 217 
-9.95380957021 -0.412291924837 10.4116754919 110 114 123 
-4.74224429686 0.836254682989 3.5434496502 195 190 177 
-9.91815703887 0.195829953959 10.388986637 70 74 83 
-8.56336496191 0.506660342929 9.74538417926 187 181 181 
-7.43711765828 0.199571721846 6.74094307238 135 134 130 
-11.7803263708 -0.716805259509 6.4830807853 179 187 196 
-9.18207173039 0.664765542021 9.45615920437 168 161 153 
-11.3894766689 0.0986510825214 6.84434879048 200 203 209 
-8.42714173576 -0.203628003693 12.2975444313 75 69 69 
-10.0719394221 -1.43477184316 10.5037030505 94 94 97 
-11.3620633468 0.367332117596 6.8044858381 219 219 209 
-11.5140365834 0.287495909429 5.32839443196 213 211 208 
-4.17160411434 0.992665201335 4.61663170215 98 91 99 
-5.38017986079 0.775441230527 4.08037986433 186 176 149 
-6.03376455213 0.623958586731 4.51191569963 153 143 116 
-5.51046629646 -0.393566770625 7.29010972885 109 108 106 
-4.0501586592 1.02022416082 6.78120809515 217 205 189 
-3.73638075785 1.04111151478 5.64872434175 191 185 171 
-4.34649696792 0.936318928829 6.4372118241 185 172 157 
-4.06547149202 0.993784356907 6.5382001344 221 211 188 
-2.90423191308 -0.281998470797 8.62913914965 216 217 221 
-6.83760878289 0.491815448202 15.3098468536 103 111 122 
-3.55627112957 1.13322295872 6.2496390382 164 152 140 
-4.72512309491 0.901482844366 3.68835278388 203 200 196 
-2.81658642671 1.12050974071 6.26108245532 40 42 56 
-5.60729974096 0.809664629116 2.94115832119 152 150 142 
-4.4714989826 0.961178378723 5.35149875113 222 211 189 
-3.93870814641 0.992001588353 7.00585513314 234 225 210 
-4.54781741987 0.967849154685 5.71905410804 168 158 133 
-4.97189688316 0.873536824755 4.43447424357 222 213 184 
-5.57550142796 -0.216773607453 7.42083093425 102 91 93 
-4.62510587831 0.905923694101 6.15760963494 162 152 127 
-5.88328328866 0.654883641631 4.4463998959 157 147 120 
-3.98744099333 1.04511153263 6.32933107131 211 201 176 
-5.70829119214 0.618411639595 5.32177926398 204 190 163 
-5.45694017221 0.799623768305 4.12383843339 168 158 131 
-4.91379625095 0.912809904938 4.51637611416 135 125 98 
-3.34236630053 1.14157149519 6.88739910643 112 102 88 
-3.33825381864 1.13915837793 6.87721158834 112 102 88 
-3.87964167308 1.04862501501 6.53463842307 184 173 155 
-3.07508783555 1.03701088391 6.47331738889 177 168 160 
-11.5938003493 -2.32571258221 7.12535011662 106 114 120 
-3.26651414928 1.13616354793 6.76961371121 127 117 105 
-4.540514345 0.916999557049 7.10693521282 203 190 173 
-4.89315023819 0.837081846193 6.33082856084 169 159 134 
-5.85470168551 0.622450839959 4.80542538328 142 132 107 
-5.53077130517 0.0472605443885 7.32913312254 163 154 155 
-4.72089012147 0.837289166349 6.75058288363 179 167 145 
-9.72212971973 -1.32755721031 10.6943884858 197 198 193 
-5.71925600217 0.721236224189 4.0256729598 166 156 129 
-4.87023150417 0.741250763927 6.98619741167 138 126 104 
-4.9091894684 0.881289836022 3.41775700651 103 92 93 
-6.25640016367 0.472939359325 4.98393863047 150 143 116 
-4.71569957744 0.997266151322 4.81048940208 191 180 159 
-4.50762421107 0.889161015461 7.07616733607 130 117 98 
-5.69394288679 0.655173588157 4.82267442195 141 128 96 
-5.05192763532 0.747663105926 6.75251614337 200 188 166 
-6.34510900371 0.514798336409 4.84158504737 197 188 157 
-3.68697097387 1.11820951157 6.26110459429 176 165 144 
-3.12838717396 -0.299241956191 8.58314060111 87 87 98 
-4.77631784238 0.924298431692 5.69985801504 210 199 177 
-4.77809577602 0.924642660175 5.70229400157 210 199 177 
-4.89250762627 0.72394407293 7.02447059051 171 159 137 
-3.65950272102 1.08861823525 6.81128228201 164 152 136 
-5.18112484783 0.668585586152 6.87655227866 117 107 80 
-3.89600543844 1.081077573 6.16344104384 176 165 142 
-4.99848432221 0.776778203969 6.65259085799 217 205 181 
-5.68604581125 -0.329727085919 10.4795349982 66 66 77 
-4.64917971462 0.91958659479 3.62518217002 124 119 120 
-2.99308042177 1.03280423109 6.38850972902 143 140 140 
-5.50231976617 0.28958445401 7.26790869542 135 126 120 
-4.87831291964 0.765876801657 6.99528381224 185 173 151 
-4.60926747076 0.938718446017 5.93161859978 219 209 184 
-6.47285712742 0.566491957548 8.21653514766 178 177 172 
-5.70786786968 0.747430119027 10.9458918503 204 205 210 
-5.7327802705 -0.266874850361 10.4406994287 64 64 74 
-7.41311005558 0.415229717048 6.60026475836 93 88 82 
-5.48405289726 1.0182322276 10.3386663074 200 202 197 
-9.36739671263 0.368385112749 7.18185295877 205 207 196 
-7.49594516868 -1.9192780244 13.8600588483 134 132 133 
-9.77497277683 0.276817831343 7.21193463159 57 59 57 
-9.45748233829 0.34412923683 7.4119101551 69 71 63 
-2.90292031754 -0.286225881469 8.62342716733 216 217 221 
-9.48249619585 0.526415869651 6.3954863867 176 167 163 
-8.83419495377 0.614122404791 10.3037893918 188 187 179 
-5.16644155281 0.28982575567 10.7064762876 64 76 88 
-3.97425812129 0.942870277915 7.0556238449 157 150 134 
-5.17333384689 -0.69016868947 7.53716905981 95 93 95 
-9.37992404111 -1.45969839233 10.8174812433 89 94 101 
-5.44479201402 0.740987402531 4.93565856611 169 156 125 
-3.79247771321 1.07409852992 6.57903764527 219 211 190 
-3.81967105262 1.0740400675 6.26412460349 174 166 145 
-4.78506898962 0.803188699324 6.86446595497 144 134 109 
-4.99304832156 0.891937644301 5.37516675041 190 178 152 
-9.31978811948 -0.392039095355 7.02514872777 76 85 70 
-5.13340865035 0.875953276458 4.14181576396 132 122 100 
-5.17288505871 0.718748116667 6.6105939576 191 180 150 
-7.35768105208 0.326111721521 6.62547561319 100 95 89 
-5.74597779464 0.703180965459 4.55928922503 202 190 166 
-7.69829428193 -2.91471023747 13.5656811913 165 163 166 
-7.75947902152 -1.94763814509 13.3834710478 233 231 234 
-4.82012214653 0.951176863498 4.51895657187 177 167 149 
-7.68935051834 -0.247582548781 6.80879174354 145 139 139 
-10.3471050593 0.49487909155 6.516081502 172 162 161 
-5.01983542237 0.879972829507 4.77005980488 218 206 180 
-7.69387740196 -0.67351573139 6.93228437326 128 124 125 
-7.48090483053 0.263422905366 6.78314462643 141 134 133 
-9.5574231758 0.427599558593 7.44631384663 168 169 161 
-4.77254010329 0.80815762085 7.16133739039 207 197 170 
-7.52735377737 -1.98160214881 13.9665786471 142 141 139 
-7.75300564078 -0.487836153441 9.77481394031 142 141 135 
-9.32433113986 -0.843856520591 11.2427947192 213 212 208 
-7.56814679857 -2.07392455664 13.889872729 168 167 166 
-7.63563485819 -2.10610175981 14.0224556707 168 167 166 
-11.6383348167 -2.32215688949 6.52440622142 193 196 203 
-11.4676104372 0.236386592681 5.47341261748 221 213 211 
-10.1555372676 0.203100402645 10.8645329862 69 74 80 
-11.7871999262 -1.50577378208 7.35851733162 222 220 221 
-7.60848524159 -0.236924158212 6.77453574484 112 106 106 
-11.7096088209 -0.596509471672 6.19515601385 90 95 101 
-11.6445535853 -0.635515386385 6.13116503446 161 163 170 
-5.07647181231 0.803816827995 6.41109434846 202 188 161 
-10.0709320361 -0.623083992314 6.74961366027 82 77 77 
-11.0446597868 0.143908970404 7.06874599624 77 73 77 
-11.2924570789 -1.49036255747 7.08651576984 169 167 168 
-11.4056165022 0.308064023839 5.65043832454 93 88 88 
-11.4726163051 0.0946878332455 6.40317964576 79 88 97 
-11.3376679154 0.0938444043698 6.3227635915 79 88 97 
-9.8064596125 0.156168406649 10.5688593763 103 108 114 
-9.82663870984 0.447534896683 10.7005120198 139 133 132 
-9.80652807611 0.380514951977 7.27061420059 100 101 96 
-5.15029660104 0.886372617396 4.15634196194 135 124 103 
-11.4948184879 -0.608610536336 6.6280544351 171 171 175 
-11.1035782555 0.307290726991 7.08807163168 177 166 169 
-7.56413543431 -0.398552773274 6.80097953436 105 99 99 
-10.7107787503 0.79415252288 6.54769903794 78 77 80 
-11.3812998376 0.161967356251 6.3472224434 133 134 139 
-7.67860658256 -0.765674444281 7.20999464 221 218 219 
-4.21608680795 0.98179700366 4.53721713657 102 95 102 
-3.75873810169 1.10449791083 5.41424574735 255 250 246 
-3.06611361156 -0.662928743729 8.66987411882 187 187 189 
-4.7158509606 0.916940524978 5.89139503411 205 195 170 
-3.23042477071 1.11628819919 5.91760650601 99 88 83 
-3.86914332455 1.0256948149 4.89811104945 105 96 89 
-8.26645978676 0.193444463519 9.73423831019 83 94 84 
-5.13369313729 0.828696294085 4.05818616062 228 218 191 
-5.08578751877 0.872552828615 4.1674507393 132 121 99 
-5.08578751877 0.872552828615 4.1674507393 132 121 99 
-4.81096162718 0.932602977822 4.71376492977 146 135 115 
-4.33765766845 0.975072072371 5.50433012518 213 203 178 
-2.98204187497 0.947180763939 6.4335180976 219 218 226 
-3.07982290239 -0.494168278443 8.57380399932 189 190 194 
-4.30315379731 1.02099598198 5.55967808911 115 105 80 
-3.52749256877 1.10167396568 6.78565000254 201 189 173 
-2.89003654109 -0.436884270549 8.58418970063 142 143 147 
-2.8846226252 -0.435509537012 8.56479659522 142 143 147 
-2.86630535559 -0.461931340177 8.5603965918 210 211 215 
-4.86667487717 0.831720139855 3.31467126571 158 148 145 
-3.35670688525 1.12022919863 6.91795563397 197 188 171 
-4.90432035428 0.90235656014 5.48414539829 144 133 111 
-4.49299199408 0.986366863253 5.85786295623 165 155 130 
-5.56012023957 0.763120975734 4.12319090911 192 182 155 
-3.02120411217 -0.431206514635 8.63237928649 129 130 134 
-3.0236632356 -0.43114542867 8.64121431314 129 130 134 
-3.33212455326 1.15450158843 6.75677522895 206 197 181 
-3.36876695957 1.16902556449 6.85164866178 206 197 181 
-4.17535344442 0.831215710975 3.69514976637 212 199 191 
-4.74599504623 0.938171121125 5.67631368724 173 162 140 
-4.48867734067 0.912019054968 3.84196624503 222 211 204 
-4.89842327264 0.920539731088 5.33978915738 189 179 154 
-10.9888614563 0.241231336879 5.9171373756 220 220 210 
-11.9316135391 -0.67772088102 6.60857436746 146 155 164 
-11.4649489386 -2.4450458505 7.25422564815 94 91 93 
-5.31691530577 0.758309188561 6.52479480289 202 191 163 
-5.33793374613 0.618298413776 10.4195861003 195 195 193 
-9.90360279508 0.496231809378 10.7392240129 196 189 188 
-4.70128052125 0.951264198748 4.93619282008 179 169 147 
-7.55877856677 -0.734215004284 6.88174879638 120 119 117 
-10.4392822368 0.346433620444 7.46174703624 182 177 174 
-7.69290950159 -0.526476078698 7.23913207139 231 225 225 
-4.92311894539 -3.10584679837 17.6478596882 138 139 143 
-4.9874201212 0.701319067638 7.03672420663 143 131 109 
-6.46181205619 0.406401007592 5.24194124021 177 170 161 
-5.97995102109 0.728816016092 3.44556619434 174 163 142 
-6.40088510634 0.459069709881 5.06381048961 170 164 138 
-5.91924222339 0.738475361691 3.61592009379 164 153 131 
-7.35132408319 0.314902079928 6.47398691 177 171 165 
-5.42600636188 0.519324483604 10.6357331402 73 74 82 
-5.58665648898 0.233084542485 7.33356685115 192 184 182 
-7.63348701561 -0.459775316281 6.74928275239 107 101 101 
-4.34811566862 1.01231690699 5.50924149106 141 131 108 
-5.38644003723 0.784783918563 5.27463526884 185 175 148 
-7.6525150335 -0.269514497663 6.87488290664 142 135 135 
-5.59441039248 0.772886743415 3.11980593855 111 103 88 
-7.54908210797 -0.211020395717 6.76102620238 140 131 132 
-7.55366515054 0.214580823892 6.64459861895 139 134 129 
-5.0321703216 -0.219522117539 11.7263035845 198 193 200 
-6.42238184785 0.46525521928 5.14970886004 186 178 155 
-7.57280678029 -0.446168790946 6.85239489676 108 102 102 
-5.82446278515 0.689194735156 4.43157593998 209 199 172 
-5.67333945777 -0.207664632998 12.1693783407 223 223 231 
-5.51292979134 0.67643436065 5.08404897026 182 172 144 
-7.54865481663 0.0679727034907 6.76600996632 146 137 136 
-7.67486708107 -0.511000137528 6.8206390391 144 138 138 
-4.08735571352 1.05573017247 5.88657031493 145 135 112 
-4.62539398745 0.957361070013 5.50009674966 191 180 158 
-4.35619525405 0.983757544279 5.41004412019 180 170 146 
-6.30477366728 0.545782861063 4.63846382877 188 178 154 
-5.43725494275 0.753981636665 5.04302419727 169 159 132 
-7.00851564202 -1.73955751739 13.8580782346 125 132 139 
-5.5762294346 0.774550015825 4.20456624097 204 194 167 
-9.39065907567 0.317208795184 7.36041134035 68 71 62 
-9.16901226097 -1.92909029182 8.65510346254 175 173 175 
-7.20163050552 -1.6463334136 13.9562240761 98 99 104 
-10.2246512785 -0.440520620307 10.4163127422 144 146 151 
-9.47203606976 -1.34074671879 10.9117319741 83 83 82 
-9.42830745315 -0.594926689607 7.29910349648 120 116 109 
-9.4601327657 -0.59755126135 7.32623031774 120 116 109 
-9.30667331505 0.319282643759 7.43946400116 169 165 158 
-10.1516273362 -0.482291172122 9.98036961887 147 147 151 
-2.45642457643 -0.229615980936 9.83065412239 217 216 214 
-9.42230087108 -0.495432344892 7.0670042135 81 86 77 
