212.15019932172618 -45.745599664427104 -340.3742804812944 100 111 120 
199.83255761528073 -62.246849567097456 -375.12708060023283 199 197 198 
165.746618606938 -17.664152208219015 -300.29172741227757 172 162 137 
222.9063367196224 -29.154097506098243 -342.1636475917156 79 89 94 
224.15218305802767 -29.214508812578334 -343.3817466470476 79 89 94 
207.5606257298141 -34.06465008668546 -361.37357399843853 181 178 187 
214.88067402435064 -49.81658615652849 -348.13658383451326 129 137 148 
167.93445811830424 -19.254293284433952 -308.1197014884775 199 188 166 
218.37005399422492 -50.61846181612708 -346.9870636432644 134 143 150 
171.51410407175928 -17.417165135312107 -275.6932377632248 152 141 119 
172.660867689623 -20.124490790652636 -289.59754211569947 214 204 171 
178.14877803979437 -33.712570178480675 -431.48116063300506 151 156 174 
218.2274902127175 -41.88558065687195 -346.9559380378505 229 228 224 
218.03762770804872 -41.84470275264255 -346.7531164978217 229 228 224 
215.40713427162262 -25.406495703055757 -306.35652683539365 204 198 198 
207.7847883655091 -24.66717510422588 -341.4287623921913 62 63 63 
168.3295920629705 -20.040592945941565 -309.85638411188097 130 118 96 
218.7517260011516 -41.94907590416912 -344.08197570465154 224 223 219 
173.6175580591157 -17.119587976431458 -265.6191646115145 201 192 171 
220.30852522013367 -44.15764174985283 -341.21444181728526 207 206 205 
202.01107218156005 -23.994043878632663 -346.11732804883235 159 156 154 
217.50126832014018 -54.05915203735722 -346.4921741669584 138 146 157 
169.87566435986747 -16.536459830734394 -276.8810408459216 220 210 183 
216.4870195441389 -54.178341885880855 -348.48131435114306 153 161 172 
171.7523005120733 -31.660990302566947 -312.88531922257795 80 78 79 
221.0584751497546 -46.66946602186216 -342.13942141650443 83 84 90 
172.18617014508527 -29.871424917875384 -312.74168147166625 155 151 145 
210.84404448339586 -23.99516283316724 -338.6403555559837 109 102 102 
217.65610491413298 -48.784724646496116 -343.85180706973955 113 115 121 
217.50886980239449 -31.67116942468181 -306.90599814739835 47 52 48 
228.2872206417698 -44.970714416539735 -318.87650764064597 123 125 124 
172.4856613602497 -31.447708805368638 -312.7511605839355 166 162 163 
222.0629555820516 -45.09825009470295 -339.7560991701109 225 223 224 
191.3135660483449 -64.06063440968622 -393.03099747315173 179 177 181 
172.05297733183852 -20.08592519159806 -306.31378451972284 192 182 146 
219.1996289796806 -41.40356602822918 -346.0083205524371 117 116 112 
217.79182901905784 -41.46090071318437 -348.2646801757718 106 105 101 
218.01811551096722 -41.50572072220449 -348.50910480621764 106 105 101 
216.21928884353662 -26.398096753397862 -307.0910920875953 92 92 92 
170.9789543475993 -19.737589898433328 -306.33428615605214 214 203 173 
172.343934779934 -31.09014670367382 -313.2086234494643 105 101 101 
167.75961425910089 -19.341844531356415 -308.2765105271228 216 204 182 
167.78759850858438 -16.241980491294154 -275.63482126691235 107 96 75 
221.97938036777668 -43.12327513086427 -340.2826880299973 111 109 109 
210.4862082454854 -24.929173327285223 -342.62480565746705 186 186 186 
168.25797623823735 -16.28159167383725 -273.85248317935435 101 91 75 
165.42677329199802 -17.76515251451895 -303.3203328647088 219 209 184 
171.44979650119717 -19.138742332199328 -289.7733401749041 162 151 119 
223.7545466149856 -29.31849664553526 -338.0793677710566 51 56 62 
221.9453594524299 -37.48368018426321 -342.7535748716231 60 61 64 
171.4419353759846 -19.31900734538112 -305.4429940099267 198 187 158 
215.81737299490663 -54.07699546535065 -341.5916781872579 221 221 224 
166.91346481290475 -16.105364442856736 -277.6705414963442 124 114 90 
163.59822953859168 -16.451156525078638 -296.377521432872 216 206 181 
172.55848102323858 -29.262396825776047 -312.8278556571497 129 124 121 
168.7084788613181 -16.31466906583823 -272.61084349309385 108 99 80 
172.9271028485631 -27.78007383199171 -312.7716970272472 164 158 156 
172.5333533524729 -28.37204190087464 -312.9887017682093 108 103 100 
190.94257911779874 -24.532402067589242 -302.4728619416754 176 172 161 
166.94284946612578 -16.05962520506827 -278.21859126345316 133 123 99 
164.43637723941782 -15.181674547835819 -281.2449157430074 122 112 100 
217.90866146777194 -41.48438073371997 -347.7417346150138 219 218 214 
239.33400884974657 -53.96085153267876 -300.8438920457539 90 99 106 
218.6570248890402 -41.2692930593212 -345.9990437490842 227 226 222 
212.15917756213167 -25.772017423334265 -340.98227727891555 128 123 122 
161.10083540962694 -15.691852905720435 -291.7292239818629 191 180 158 
150.59419709583483 -14.854478704905834 -261.1801764750938 249 249 251 
159.77490276963442 -15.432880623545579 -268.33608594087457 109 102 112 
160.91280871177236 -15.283428341184578 -276.3103737621002 99 98 93 
155.72369790957708 -14.702957066949498 -287.9628484815812 95 90 86 
158.50131166343027 -15.523042581979308 -301.13031085324013 214 204 178 
158.71067545506418 -15.56546531510368 -299.81290642644615 219 209 183 
156.2323997580151 -15.105326702711913 -303.6728447380014 172 163 138 
156.01330045910157 -15.103486490027606 -303.2975559965374 172 163 138 
159.99073405008448 -15.40729727281201 -294.4388985505736 123 112 88 
159.9946190972659 -15.407661899876441 -294.4431121506808 123 112 88 
158.7130745611487 -15.296444074225459 -297.383402396771 120 110 85 
164.48945345911585 -15.813485065615101 -285.2425994959371 131 121 96 
165.31971659681284 -15.921387032226999 -281.9595678064106 114 103 85 
158.64072762296286 -15.654812552640383 -297.53251999634415 222 212 187 
152.2478284803792 -14.836765203355444 -310.8919972876229 112 100 85 
158.6563123594513 -15.306847416555456 -297.94852880577776 124 114 87 
165.93141951788408 -16.00603055636176 -280.7417845340736 122 112 85 
152.9343806706512 -14.91244192166926 -307.40304147676557 161 150 129 
153.83186527147956 -14.935851041452583 -307.58466643001935 148 137 115 
156.9352510545507 -15.106516529094744 -301.0267940496184 153 142 119 
162.2417817835656 -15.610363890485054 -289.53172973839133 127 117 91 
162.7195476369718 -15.362814331419532 -273.80356736654386 215 207 210 
152.85262026515454 -14.399814563061923 -297.2230678270209 206 195 192 
173.56044717936788 -18.724994195462283 -289.26888370461086 168 157 125 
171.2579468066632 -18.803323881397667 -292.174520300823 156 145 113 
161.33462674391495 -15.316656588228483 -275.44874571542147 88 86 98 
160.1499364900929 -15.02500529941976 -291.8920223774357 191 187 176 
167.95703357692457 -17.522721722196355 -292.32729954330983 194 184 158 
170.4443656780005 -20.092994046196797 -307.82971115902836 148 133 109 
163.70324602155006 -17.103862069581947 -301.5166566188387 150 140 115 
172.96627010402142 -19.190566487528258 -287.4542357188451 144 133 101 
173.62058298819812 -19.9336933996543 -287.98673871738066 182 171 139 
170.98297313914202 -19.232312556816286 -305.4263760959158 150 139 111 
170.7314775372518 -16.93319515734375 -276.2731127629772 158 148 122 
172.14543053762645 -30.640173815547076 -313.07643663624776 176 173 166 
172.5353802680006 -17.851789895295425 -283.1026236251466 205 195 168 
170.1858986703291 -16.78415077969217 -264.0523059696489 92 84 72 
160.84145874482033 -15.397342887136446 -292.38390389324957 145 137 117 
166.58618850530308 -15.859657223025351 -276.3026053771023 164 156 144 
168.89216327059387 -20.664025634799817 -310.77907901836903 198 186 164 
169.00656550953858 -20.604090968714015 -309.84797159320414 203 191 169 
150.59001113727533 -14.238216964523918 -299.90832165884535 197 197 192 
135.57391219890337 -14.08671675131152 -296.6184229586837 139 138 146 
193.94190299043407 -28.259125662465333 -326.8821339776314 62 73 67 
206.87883294464945 -30.684812421011504 -321.58853897643763 100 103 111 
172.65337922495985 -32.46922739644731 -320.69983182387887 194 194 196 
207.59145989923968 -36.821266893052766 -336.60785582539853 225 219 218 
192.10683860501695 -24.2152955796512 -305.98427434899213 210 209 208 
208.41741784239179 -29.823342194268076 -339.6466710218987 81 92 86 
198.31115854828073 -33.837857149622934 -334.316045255914 81 82 76 
170.52221332421146 -19.51699237953374 -305.8560172607151 182 172 147 
214.11601174897913 -25.43959809669221 -339.7451251573652 185 187 181 
165.0887296746202 -16.804363265356443 -295.4942699754028 155 144 122 
158.27611734112577 -15.1704782840384 -298.21761783933016 145 134 114 
171.73578418106166 -19.65612127539874 -290.2686408820719 153 144 112 
169.98795412724246 -17.81445965381092 -299.20088100608774 189 178 159 
173.67541278747007 -17.691063024881352 -279.4138869994399 187 177 152 
174.57156265878638 -19.611856159027564 -285.60720452280697 137 127 100 
178.34501640093117 -19.74590519874593 -285.9136023442605 136 126 99 
160.51598511371463 -16.3763533485731 -301.9374057575812 180 170 145 
176.7672396402931 -20.05760105240402 -285.99778700653394 169 159 132 
223.04757743215674 -45.24336836260913 -338.56229353168067 218 216 217 
168.10304050993415 -15.97792704732872 -268.4106473069454 168 160 152 
173.19917679761608 -18.947714642651263 -284.93814819095456 196 186 159 
157.14704722798024 -14.921691025432626 -300.25555366924436 237 225 211 
167.03659449016857 -17.42119427826575 -288.74295634754225 192 182 155 
163.09574301764235 -17.609353329662717 -306.4579359564881 204 192 170 
162.21112250458475 -17.02676536599355 -301.64931369793896 157 147 122 
177.43974468166027 -18.542154903097742 -272.95087640041015 229 216 207 
164.22785414949914 -15.817899850002966 -285.0124144591157 131 121 96 
178.59403006183788 -19.555890625426798 -283.3681509004806 180 170 143 
158.62266379571594 -15.296651041475076 -297.90630612469135 124 114 87 
168.91137776427655 -16.69195335069692 -281.18672952929387 162 152 125 
162.429889760243 -17.798166735016554 -308.92740223591977 231 217 204 
164.96366193770803 -17.47830902146529 -302.02438623655024 157 147 122 
160.72681490436622 -16.558571725265917 -304.19526678479883 195 185 160 
160.55251376447563 -16.5717792099519 -303.92849281644715 195 185 160 
167.87081678728725 -17.892899558724565 -301.76060765829635 154 143 121 
170.38179068942446 -18.145678141987386 -286.4754759750722 142 133 101 
191.40831528108788 -23.582688347347574 -303.39569210888857 133 129 125 
162.44159575252024 -17.494377487951894 -309.2105694963039 124 110 97 
201.43345927951083 -33.58646582317613 -336.5878872680216 64 71 66 
176.81734780289207 -34.312632721491326 -345.0798204471283 112 113 117 
190.60425460618666 -68.47551681946787 -392.28095500774276 128 126 132 
187.84856389662207 -62.29254977374492 -395.04171141098095 141 141 153 
193.26252727403585 -32.40006125123128 -305.98843193698514 217 211 211 
165.3878198189887 -16.01409511934677 -280.7925487205858 123 111 96 
170.58776862700313 -17.183201528784537 -279.452277415236 230 220 193 
170.6954789008443 -17.174368544899135 -279.5308652256417 230 220 193 
166.15377794241465 -18.443233901295915 -307.14844589191796 208 198 174 
210.82438898328923 -23.5199486497992 -343.73376901903555 80 76 74 
170.9130807053741 -19.736591166211788 -306.2758765362293 212 202 177 
174.25110617199294 -35.702702998861426 -342.62871643296063 169 170 174 
169.9460181114756 -18.275287628462895 -290.43974204219967 184 174 147 
169.4820629443863 -19.442408112152844 -306.0064114146919 192 180 158 
166.5425801401518 -19.295852824403173 -309.18298644635337 147 135 113 
160.76214822136495 -16.95889429959257 -307.39392938766304 152 139 125 
211.3251962804157 -24.25173142639923 -340.67510684597136 61 59 61 
165.04393411356432 -18.92073867320407 -311.0602154104316 160 148 126 
151.36635121856403 -14.376065877016302 -292.21470973172535 101 95 93 
163.3254718478127 -16.828310337607693 -300.2364794827913 200 190 165 
175.9392590433411 -34.57601293457164 -344.018361279018 188 189 193 
161.627636501672 -15.384678642271986 -274.5634818791 96 87 99 
180.37705578920986 -22.985885340052025 -290.72164421458734 162 159 150 
167.7098216753841 -16.185064987296165 -276.12146963409083 134 122 108 
193.39528734254316 -32.4244644701198 -305.61680873371233 128 121 122 
167.67424280285684 -16.157057750920014 -276.5635709744459 114 103 86 
193.84874817771112 -32.854841032895635 -305.18075408709024 106 100 100 
164.56146122782496 -18.438914321597583 -311.90555354052697 144 131 114 
196.25818648309644 -39.06637302040565 -310.43173499761906 118 117 115 
167.21347675918713 -17.757240436053085 -288.01538946798007 138 128 101 
171.61593102806734 -30.847526080162975 -313.36373949811104 89 88 86 
178.81539121797329 -20.693872036686752 -286.0332521907565 190 180 155 
173.35976216540485 -29.96289144975106 -313.09755726473185 91 81 81 
196.5985678595315 -47.416034679506936 -290.69703341472945 199 197 198 
172.99334859186052 -19.912860935393574 -289.43857895354313 165 156 125 
177.02771079912077 -20.914303239587365 -287.63475036126044 139 129 102 
164.54770199343056 -19.029934896777835 -311.5572086417909 157 145 123 
157.29227102420327 -15.070951991221985 -300.2235563486634 151 140 120 
210.89601009964844 -23.358217625124848 -338.38547745423693 103 98 98 
162.6853039866208 -17.87745455016366 -308.8185110423286 217 203 190 
233.03606309456035 -54.56030964625921 -309.2014176400831 157 165 170 
193.3179223891721 -26.70465544366741 -305.02157367763243 145 140 134 
218.27522505496114 -34.75183995062329 -343.65708435271176 54 57 62 
224.72198508031414 -25.756089335067305 -308.22334136671515 190 184 182 
221.287990477098 -44.81258653536845 -340.61887096563476 218 217 214 
160.29947259974927 -15.445469660489852 -293.6303545932785 129 119 96 
217.15209208048702 -45.798313512583775 -343.053616355611 82 87 92 
219.11921102939368 -41.38754702562798 -345.9444905512872 117 116 112 
222.74856696915447 -47.49874949361018 -341.6130349256128 159 161 159 
172.93961010208585 -25.566406184508832 -313.19450674249913 129 124 121 
214.39406490364644 -24.00528990037851 -329.69273348992886 178 171 162 
221.22963527604838 -47.20966242303878 -341.75193278055866 140 141 144 
221.5574389934107 -44.506875764031065 -339.93822978884805 165 163 164 
200.4353641897698 -34.7286460868505 -339.0419141861766 216 218 213 
195.62147508477733 -39.11499655050119 -310.3947861223627 226 225 230 
222.3342607801746 -47.16124543207199 -338.4083371874111 151 151 159 
172.7382530081652 -27.675172720445875 -313.4740004479151 65 57 57 
161.4822774414173 -17.09467044726338 -311.13052681865236 167 154 138 
175.54619252789462 -33.47885311859858 -347.9217147493818 70 70 78 
174.01321648174797 -18.216406956111264 -282.8148477879034 201 187 160 
178.2682397367355 -20.72131299036589 -287.0527925158497 130 123 94 
171.14688097271699 -20.27556242558922 -307.58315358046264 195 186 158 
153.8530102490405 -14.942614371818998 -307.6394330739591 147 139 119 
172.14795326081264 -30.63723948624342 -313.05810241371915 167 166 164 
157.38875541276656 -16.44678557997074 -311.59743378689586 215 208 191 
173.0752522066354 -24.463285816643076 -312.84941732883425 159 159 148 
167.12566754900587 -16.10822573022577 -277.2869507039405 140 134 110 
203.21450151032894 -37.2681270764476 -318.5456314212276 226 221 222 
231.92249954733444 -47.6212129214145 -314.50926661922745 98 101 107 
215.25806978280832 -51.89307471573564 -342.3553921229494 86 88 96 
213.48420485644817 -25.317808135154326 -306.97389800702365 203 206 197 
222.57168477615107 -37.27806462033979 -342.9126647391268 73 71 75 
232.01444395304344 -46.86057095811738 -309.64787898098973 98 100 105 
193.01552025102933 -30.42180982837817 -305.5576967297254 67 68 73 
221.65552297131046 -36.12795354602498 -340.62193320716233 114 113 121 
200.5937515385546 -50.161267127680375 -376.2984627356412 116 114 115 
220.48034229569038 -43.16804572914674 -337.915782778279 222 221 217 
214.68146407797383 -25.061604574226056 -309.5898099973062 194 197 187 
201.13780206365675 -24.41487000681239 -371.9663874517904 69 67 71 
216.70403220269895 -45.72664369088314 -342.57132466644464 87 87 88 
201.0612120334174 -55.00494866526665 -376.6376587670468 207 205 206 
200.74373936485574 -53.506592368348976 -377.15299582386024 121 119 120 
167.11359758826558 -17.06845820446034 -286.18425564016195 211 200 170 
161.3701214614415 -17.199073412668916 -307.94362732281564 177 167 149 
220.7381231377471 -27.18915252659315 -303.7633804865424 192 193 187 
217.07736244473415 -36.43965198459401 -303.26326609506145 150 141 142 
199.90484146990593 -61.790065539267005 -375.7094780817566 143 141 143 
173.64964428964868 -20.287755554576595 -291.0675325504818 213 199 173 
201.8143190762238 -54.13699409522667 -377.3023107030144 135 133 134 
230.7740687690366 -27.525355289830568 -303.56804614638344 128 126 127 
221.8935794053993 -37.16980013971981 -343.21332370287354 175 173 175 
213.26144205102287 -35.02271929514028 -301.88704448970276 213 216 207 
200.25328959797787 -62.963123901614324 -375.6521078338239 116 114 117 
221.57946204395495 -44.494802324855286 -339.9569963042622 165 164 162 
222.654694527375 -27.797748019167283 -342.6412734321696 174 172 174 
222.46063962073168 -44.49190729567874 -338.2567514089832 179 177 178 
222.1146149493798 -44.41567899623331 -337.9631363282397 179 177 178 
231.21372598381942 -27.494090266802463 -299.72811476654846 140 139 144 
173.0082833479147 -25.051022172903505 -313.2739980644471 158 158 148 
193.9841273604331 -32.854071087034995 -305.5927172219932 161 155 155 
135.87473495837702 -15.468569750031687 -297.1797184107647 208 207 213 
136.79442306081563 -15.324987770626343 -297.96885484872365 62 61 67 
133.67970426063692 -17.00274607354219 -295.72569104865823 236 239 247 
136.11335869520167 -14.018879839484619 -297.1651508713045 239 239 248 
194.01353533882212 -20.75201312820222 -362.1205914967958 130 130 134 
237.6848565493724 -50.70263097064472 -302.089125213028 204 207 212 
220.52623807314615 -46.89571182679481 -341.1520428229926 123 124 119 
221.60269736301808 -44.51713104421678 -341.1206141008476 222 221 217 
222.96216865159738 -36.22052565805696 -339.009306138771 110 114 123 
208.1402022820779 -25.570124466458235 -334.5416904958653 187 181 181 
192.57932762632458 -25.975291578409585 -304.60343226523827 135 134 130 
209.5431593606907 -34.93205288202874 -360.6481257545716 75 69 69 
223.8118048639464 -47.005163982869306 -339.0633935336279 94 94 97 
233.49575648541247 -25.800810564946804 -300.4032229660743 219 219 209 
156.42147807218674 -14.763426694910507 -287.310393044282 98 91 99 
175.4518098803611 -19.25129997256546 -283.59092603740527 153 143 116 
172.96754280346238 -31.845430756832574 -312.3063014217125 109 108 106 
157.85248680423433 -16.129422820873888 -309.9217006856457 217 205 189 
157.69805552799494 -16.220262620796685 -307.3639709985677 221 211 188 
147.61475895560847 -30.72056646348592 -329.57592277093136 216 217 221 
197.09914915609397 -29.426137813736982 -394.399804214062 103 111 122 
152.12026718120472 -14.341001524879832 -305.1214743139125 164 152 140 
160.9766835905803 -15.200445859676595 -276.91885563174185 203 200 196 
144.4473257775535 -14.19509490152572 -306.16964241932635 40 42 56 
160.42998749598473 -15.78584642241426 -294.52392135637365 222 211 189 
156.95964039531947 -16.55702034031024 -312.3710473973358 234 225 210 
161.68058016640208 -16.03470918456248 -298.24184349535324 168 158 133 
164.4492041285883 -16.174122242778175 -284.3190646121482 222 213 184 
162.9961797074301 -17.05532295359681 -302.6441793135913 162 152 127 
173.82295522576413 -18.81872415172153 -283.1255059326618 157 147 120 
156.65392234456328 -15.490384077182476 -305.3356224857275 211 201 176 
169.06603581101058 -16.889651356427382 -280.4292961623686 168 158 131 
163.96609684552288 -15.806194843707033 -285.2705689658209 135 125 98 
150.69234838828663 -14.671848481485597 -312.00981531491834 112 102 88 
150.63587700847097 -14.687419068926857 -311.90766661734256 112 102 88 
155.79029346149804 -15.57313820423683 -307.60314413705834 184 173 155 
163.29797375871402 -17.652778946481256 -312.599920914653 203 190 173 
165.9609158044815 -18.013762561150706 -304.04896775731925 169 159 134 
220.46679816394112 -45.900557878711254 -341.5625872629971 197 198 193 
166.48799760807185 -19.519474342310144 -310.8010108374242 138 126 104 
162.90499269555335 -17.90622923212039 -312.30232649114134 130 117 98 
168.0886325168953 -19.33960593990442 -308.15286199196686 200 188 166 
149.87721440167212 -30.95143885144223 -328.8019596219978 87 87 98 
164.03033840028053 -16.56177782364195 -297.74413862032117 210 199 177 
166.75837358498654 -19.73874603106919 -311.15676443325026 171 159 137 
153.86591426643952 -15.287720583887374 -310.77945115956527 164 152 136 
169.5457751787029 -20.312209598201605 -309.2165761445265 117 107 80 
167.4239805628884 -18.936595433787215 -307.20627312800923 217 205 181 
178.76867974410197 -33.75362340836324 -345.1902912899155 66 66 77 
173.1834817224696 -24.698251236352174 -312.587538133997 135 126 120 
166.5949856211002 -19.272858257305302 -310.9029990589877 185 173 151 
162.5677703649249 -16.52949479807442 -300.345821273055 219 209 184 
179.23609257738946 -33.08560789968995 -344.7745167200013 64 64 74 
192.25947170413036 -23.605705466050583 -303.33386496891717 93 88 82 
213.25036757518586 -25.3109797787298 -306.84741148748435 205 207 196 
200.98348642910997 -53.69524931614967 -376.7680960195283 134 132 133 
147.5920402246668 -30.75966871767783 -329.5152795628286 216 217 221 
211.69522321760894 -24.993099641941594 -340.0648977868654 188 187 179 
157.36680065249118 -17.12247509904373 -312.80576961571455 157 150 134 
169.6300577063775 -35.00262153862738 -315.0775903040003 95 93 95 
217.00217511122543 -47.242737805272625 -343.1759534477995 89 94 101 
169.91644415654622 -18.1344608144723 -288.8166446799176 169 156 125 
154.84496362924943 -15.072158577107164 -304.89388892394726 174 166 145 
165.48274085467494 -18.74459660110159 -309.6927228904933 144 134 109 
169.1551464568239 -19.576753969541944 -306.50702928375483 191 180 150 
172.56005555509512 -18.35021585834601 -284.505363582269 202 190 166 
202.24243914923068 -63.926868765458494 -372.72983282359075 165 163 166 
203.11661939946322 -53.719084624201784 -371.4727182583544 233 231 234 
195.0678244139014 -30.791316144243066 -304.6586198303226 145 139 139 
215.5793603473346 -24.974910280059593 -309.39091333418565 168 169 161 
201.41154295275885 -54.44130950315801 -377.78665343011215 142 141 139 
199.28422905012388 -35.652749213393975 -335.14596538177193 142 141 135 
217.24695055320512 -41.13089001298107 -348.1067666820087 213 212 208 
225.91287343810222 -30.235031010951932 -343.8986828888014 69 74 80 
237.69675338565781 -45.94142914454595 -304.23269054926305 222 220 221 
167.9479203917462 -18.49510290294871 -304.623878992182 202 188 161 
221.89953702767338 -30.356623144098595 -341.24253529122075 103 108 114 
222.411910867553 -27.428397663073493 -342.7952569361079 139 133 132 
195.20402954370246 -36.507048924888096 -308.450963761906 221 218 219 
156.77989126741073 -14.831697887274856 -286.42278808473964 102 95 102 
149.16327635476802 -34.7893252533018 -329.51331331659395 187 187 189 
163.6143124267603 -16.766506374568213 -299.7776260214414 205 195 170 
148.31757317665108 -14.130128466422725 -302.0809604381235 99 88 83 
153.6448971502466 -14.52245289464188 -290.6362056533837 105 96 89 
204.892910964066 -28.713396807346424 -334.57330507531657 83 94 84 
163.15203865488354 -15.714830069686414 -287.461648691504 146 135 115 
146.29562476483505 -16.20304199707359 -307.6198962802137 219 218 226 
158.96822941026028 -15.259963117571363 -296.93935624583446 115 105 80 
147.33735526582183 -32.295486271193795 -329.0144238117088 142 143 147 
147.25779544636038 -32.26380369917868 -328.82128437147463 142 143 147 
147.04945442371053 -32.52885636681192 -328.7795483301882 210 211 215 
165.06039210424632 -16.67193062005224 -295.3063559938206 144 133 111 
148.7617851597533 -32.32510451163469 -329.3516078766716 129 130 134 
148.79828465494313 -32.33236477756397 -329.44011092420146 129 130 134 
150.9354339158732 -14.367623403373088 -311.6258682238723 206 197 181 
158.71656579244518 -15.119318155471312 -278.8189837481288 222 211 204 
170.56358839082418 -19.15263025152905 -305.4638746839758 202 191 163 
223.28240925854988 -26.980728309023174 -343.1345510227662 196 189 188 
195.50346305695854 -34.04020670836768 -308.91026116544805 231 225 225 
167.74826140314104 -20.021288734393718 -311.1467147686846 143 131 109 
179.86790229883155 -21.547728298412775 -288.7246871781609 170 164 138 
191.41342336944228 -24.52908155632623 -302.0297745128618 177 171 165 
176.66936687961112 -24.918041636611544 -347.7621234194825 73 74 82 
174.113377904907 -25.372022557022586 -313.11963391289163 192 184 182 
194.75658319862083 -31.057717416508158 -305.37435879502954 142 135 135 
173.57465392467685 -33.329388362023835 -359.02447047548515 198 193 200 
180.78669641688208 -33.803040547118655 -362.8120340613869 223 223 231 
193.7053832152141 -27.411170438994258 -304.6251759875718 146 137 136 
157.14858887179946 -15.070574385781143 -300.62714662126507 145 135 112 
162.21012925879438 -16.002240923039896 -295.86607882027386 191 180 158 
196.0057835060004 -51.62939828444826 -377.49806239723387 125 132 139 
213.68833988312042 -25.994180887103912 -308.63120154897126 68 71 62 
225.76681586225993 -36.62392634574104 -338.69289384909564 144 146 151 
212.91505033505052 -26.002012049869638 -309.5587463075043 169 165 158 
224.44894398835783 -36.68876987798885 -334.23617361116214 147 147 151 
144.47680751653536 -30.944074768567422 -342.6370577037447 217 216 214 
163.20572764862612 -17.371454031854267 -306.56363894403455 157 146 124 
196.23084336084884 -28.404069786873162 -392.4828573952323 70 78 89 
223.60285731045082 -30.012055809333344 -338.9442591908533 71 76 82 
172.65979387815287 -27.31458126847789 -313.4729368171185 152 151 146 
173.1567794694846 -20.033788105852132 -290.7108378091107 168 154 126 
134.3336896307871 -13.690477891651714 -296.3743575003704 42 44 56 
134.26674401446348 -16.17593819225574 -296.13785541187747 80 82 94 
130.66661532960012 -16.367495852838164 -295.4571970216242 84 82 101 
132.26963583262034 -14.933596046949202 -295.347745472209 47 49 62 
129.9795373778412 -15.018991657342866 -296.1417406502583 217 219 231 
131.34328458300467 -15.919745777952588 -295.6255913704497 196 198 210 
131.34997646530888 -15.926965562983781 -295.6071608054848 196 198 210 
133.4876944976832 -16.08524721546039 -295.9818984487147 86 88 100 
132.71893071849934 -14.410071445127222 -294.97914291805023 135 137 150 
133.12658956274373 -15.936921067896623 -296.2879671231936 94 96 108 
131.23489622646855 -16.711053713823006 -295.63163682047735 247 248 250 
133.8387630826603 -15.771178009958472 -296.2102143122278 113 115 127 
130.1918230883473 -14.98378199667771 -295.4960522210296 81 83 95 
153.42485857151587 -15.198498610825698 -309.28569117010096 213 202 184 
170.09672169914387 -32.06237933208614 -313.48663603156825 120 118 121 
193.8967617789816 -31.979480632508402 -304.5226472235246 96 90 90 
173.09568591560753 -31.371756028171998 -312.89557754839103 86 85 83 
177.8259616506743 -34.00196984527179 -345.37846311154703 168 169 174 
199.81921214164225 -63.14763065696036 -374.8640812017407 115 113 116 
221.2380358479325 -25.180909239252717 -344.02970606350516 137 131 129 
171.8925510834478 -30.689995306893916 -313.38409983638047 107 104 98 
224.56133403244627 -36.51585462881884 -339.1368097017684 76 82 84 
161.78796650651435 -15.521788215571117 -290.34819818956265 141 130 108 
221.13136933163992 -45.6285205267973 -339.7219163411819 156 154 158 
135.95523398585965 -18.65797583058707 -310.3301007192782 233 234 238 
199.9902047706401 -63.222023188625215 -374.9703115394629 120 118 121 
222.4521703390319 -28.58688476760644 -342.4253660871178 63 65 67 
197.72596021569132 -50.71093080067919 -377.47915352255086 115 113 116 
200.51518344869692 -22.191818975345722 -372.18180758206813 148 148 151 
222.7769532418609 -26.33580049781433 -306.65075081118175 77 77 81 
180.69616646082153 -23.442985009682427 -290.96639406627554 132 127 121 
130.3380935632071 -15.089048697131613 -296.06438049112785 70 70 80 
215.62196488628535 -24.427549575151087 -325.82344397919286 132 128 115 
195.2070783308934 -33.44346068993502 -304.53462879884455 199 193 193 
198.4065397508611 -53.18220601152922 -377.24295490444706 221 220 218 
175.85055266938906 -24.760810619594803 -346.3033967630052 73 74 82 
185.03967351439667 -69.8314871787193 -406.1040307067119 198 198 208 
173.55647973706073 -27.030776644707554 -312.77088909583875 128 119 120 
209.59827141170297 -35.72199957539861 -361.08149403122997 183 181 182 
177.46296851829078 -37.35131214230434 -346.58546250048056 199 200 205 
222.96571458164095 -45.19520217741673 -339.84061658985513 221 219 221 
203.1486453501231 -54.24242801258404 -372.2854998983306 183 181 184 
222.64820442901174 -37.29067269661512 -342.97428091892976 73 72 76 
222.6045066942225 -43.417423757192296 -337.82596648299915 223 222 218 
222.44955420285197 -35.99686571238995 -333.105715598738 119 117 125 
193.6561685221639 -37.05288563303151 -306.6256542782965 125 124 122 
129.10208970414703 -15.129374545442897 -296.7552130527345 223 223 234 
224.36715542222328 -29.06684754062916 -339.32184303933013 98 105 111 
217.52954202847428 -35.787631554997475 -345.6480699488282 126 129 136 
145.57169017653467 -31.31488091881015 -331.3778697202572 87 87 95 
158.5079440146605 -15.218128595640103 -288.5959292176467 187 184 175 
146.73257076433669 -16.84540305414351 -308.04219793943605 50 49 54 
151.79592944498086 -14.342167209241698 -297.93933180598475 97 94 96 
131.30820241463073 -15.412841305288477 -294.4806223323731 151 153 168 
149.5921326231121 -32.746881700536846 -330.02906928971464 206 207 211 
153.86747632780595 -14.613509727835698 -290.3027673919406 215 206 197 
166.05272857486295 -17.41690138595337 -300.2689681131403 165 154 131 
153.8629065482046 -15.345728774021254 -312.1610776562889 166 154 138 
131.4825084690762 -14.055504924272018 -294.8710437564607 48 47 63 
135.81154091444836 -14.075200657471587 -296.9882356957383 144 143 150 
129.42773323519032 -14.96143644798465 -296.72553942755627 234 234 246 
128.7637631811864 -14.909992199021051 -297.6607186292693 214 214 226 
132.81137961652178 -16.94271960040573 -296.20018045112664 240 238 246 
131.84855902330338 -15.611729392149407 -296.11253872133943 108 107 121 
128.6256151731224 -15.046371329477324 -297.6497699443443 233 233 245 
131.6321281455957 -16.657521916462876 -295.94247573462826 138 136 145 
133.3070571908017 -16.251650662440213 -295.66149689693674 111 111 121 
169.88496064815251 -17.89560573862342 -287.5198148873384 153 143 117 
155.10070532703628 -15.805045639027021 -312.4232594377575 194 183 169 
160.73940296131673 -15.914761282816649 -291.88964514317513 223 216 200 
188.5616941635347 -61.35846563747204 -394.2679760760412 239 237 238 
221.3964145286352 -28.899641839031705 -340.77933290251985 86 91 95 
201.09162457165723 -33.94772745218464 -335.7218036862682 102 105 98 
172.56482362411435 -20.446227296024322 -307.21837266056593 126 118 96 
172.51408479974685 -30.860702938116244 -313.05417031940846 110 107 102 
206.28716884206818 -28.04631650743295 -362.85216179573985 55 57 70 
226.8994185768807 -35.31296568833852 -338.2974549535298 77 80 87 
193.4710269015199 -62.37647570884151 -383.01492284365975 133 134 137 
218.1576902137253 -35.82993656889167 -344.632354561852 137 135 143 
194.65902366955453 -36.938137256101854 -306.88599585183204 155 154 152 
215.3472507496037 -24.3970701533532 -326.94510043754076 127 121 111 
211.14995359448324 -23.986313081871163 -344.55447853180823 174 175 170 
191.75443764384733 -62.6201044674045 -393.9974989909549 129 129 133 
207.7289143994168 -26.590200719779613 -362.9632199215186 116 117 123 
156.58119302295813 -15.647360152395706 -306.1940879372797 153 143 118 
156.46801008830835 -15.64780334725939 -306.02845599850957 153 143 118 
223.19403762235373 -27.12356921390433 -343.15172967987064 182 179 174 
202.55166987315755 -52.23203712437639 -377.22193260754517 233 231 232 
152.20912699707873 -14.838832549500651 -310.8313661562432 115 108 90 
158.11989864635513 -15.235061868176548 -298.6763710277268 140 129 109 
199.34080427910652 -51.40248519949729 -377.0627976782764 124 122 123 
205.3380212238518 -35.53423553753004 -339.30868051783796 194 194 189 
155.77900097077617 -14.670785639135783 -288.51485811713565 211 205 205 
214.02568267199007 -45.33790697652303 -344.5867983275467 96 95 105 
201.4909450426071 -51.79552807725172 -377.4742810599716 106 104 105 
181.45961488944147 -69.1254826274236 -410.77640532388324 204 201 206 
172.29248213727624 -32.34777279230519 -313.8167675964388 102 100 103 
135.8180546113611 -18.167112623396942 -298.4649617572219 81 84 93 
164.12901875630246 -16.103464402574467 -287.38342419507404 214 204 177 
148.0299022827641 -13.974308960528404 -308.3441337573109 137 126 125 
160.67533473995724 -15.857007229231453 -300.23594308934463 192 182 157 
133.267420230558 -15.489626466263946 -295.31628848604 230 232 240 
162.95024514799485 -15.54647316645448 -289.0860250477081 148 138 112 
152.00326510053702 -14.55555267050109 -290.29547713216334 99 96 97 
156.06188876931628 -15.086723421711834 -304.39147283298405 163 151 140 
155.9275839716894 -15.11103060786553 -304.22981254305785 163 151 140 
153.2981448905797 -14.874632548402648 -309.49768237722157 141 132 117 
135.09939240057707 -13.458963105534597 -335.1141208604101 110 101 94 
135.09247800047513 -13.460066356924749 -335.094125283755 110 101 94 
146.9680833392431 -14.006211537172799 -307.90394426617985 157 152 149 
222.6236511693736 -47.18736345678349 -338.68922379909236 149 151 154 
199.4185119704839 -51.90501155046468 -376.3175581365232 222 221 219 
213.2230071446699 -25.489701501673036 -342.40652742100855 90 89 89 
172.414871586422 -42.9949708095117 -311.51145206696896 229 227 230 
217.61407350722334 -42.849496504542486 -348.2474368129935 177 176 172 
156.73937444352168 -40.40007380964893 -333.42895147151364 168 167 166 
157.36869600540604 -15.926769391959589 -307.43651042338865 190 180 155 
219.24736512828764 -37.080944908788794 -344.50848974807263 71 71 67 
219.83151747577995 -41.956367470087784 -345.96171517683314 221 220 216 
222.90283594620678 -47.33839105580806 -337.81022054910255 113 113 121 
217.61407350722334 -42.849496504542486 -348.2474368129935 177 176 172 
192.13311231275844 -63.216767740339264 -393.7505936876873 125 124 129 
202.3314480907456 -65.62164575324917 -377.90055017856486 186 184 187 
201.31790355509156 -24.509176985390344 -345.4951972620648 78 74 73 
137.77864250516694 -14.308761413735116 -349.32086689944487 136 130 103 
168.2280196423735 -17.611395266551675 -291.30178098854884 183 171 147 
163.27022270353018 -17.877872803568316 -311.84828700524275 204 193 175 
158.5800228177472 -15.596644144794293 -302.32995093544383 209 199 175 
168.87529482640042 -18.15795985395086 -302.880621719027 195 185 160 
135.76334797480945 -13.371542093029074 -297.20818397495486 58 55 66 
128.82484032917938 -13.373726426172343 -302.1778998978977 47 49 61 
134.82358199800217 -17.85004471597817 -297.55935087499074 90 90 100 
123.71426183581599 -35.51551920995128 -316.63055976431724 198 199 203 
122.69913608161153 -12.67854093288269 -315.72462934061093 85 81 66 
208.26042585309608 -36.19050406739025 -361.20915645873833 189 187 188 
223.30955121084935 -36.07587014693999 -338.74250837794204 141 144 151 
172.72039424267683 -33.22372955085429 -358.54734451263204 196 192 201 
209.0474556350518 -35.92509284649901 -362.364576292589 82 80 81 
146.47788776365888 -29.73484584114185 -331.0258550018321 195 192 199 
159.63256420473704 -15.970891750229534 -299.5905486787335 210 200 175 
212.67801109125048 -24.37289544694745 -308.0439700296696 86 80 77 
119.8287475791683 -12.981698181242383 -316.2556966795755 192 194 189 
172.36908936065527 -42.947168462300766 -311.457745775421 208 203 206 
156.58553737107707 -40.605216364391 -333.14884109731844 234 232 233 
176.01970908372022 -34.14976944901191 -344.7604223150901 100 101 105 
149.9439018623894 -30.88894570231076 -328.82706545210374 83 83 91 
149.22332845069644 -29.935467863836127 -329.7056217989236 82 82 90 
154.20294527624384 -14.965275557939705 -307.33775457007533 158 147 126 
170.47572681404102 -32.21063467298474 -424.29523377521156 88 87 93 
171.81501799749907 -33.1864453509632 -426.6848650815273 189 188 194 
190.87652163124596 -63.7864768510627 -391.73536616644134 170 168 174 
173.76991913494243 -34.8103376481462 -312.82102181442167 112 110 111 
166.92427145615108 -19.00002768735429 -308.7840195112326 147 135 109 
176.99350239968288 -18.00568831965795 -346.1627976793747 136 126 114 
157.20027885917654 -15.566766949411583 -309.20058431141007 184 173 151 
162.38503884113157 -15.57486751302141 -289.1552864409263 136 124 104 
161.840478995088 -17.149257961500254 -309.7099306862873 194 182 166 
157.19188841618438 -15.003605119679406 -302.6008579275618 156 146 131 
152.1182507330646 -14.462027174378232 -291.74296665931996 103 97 101 
156.80452797464352 -14.896191028054641 -285.32013504531886 102 99 91 
163.41282367721038 -16.36519515030516 -294.2472687657111 202 190 166 
120.73946963559575 -12.330186988685536 -315.62394804470523 60 62 68 
122.49899301713651 -12.308100245063613 -316.0860270831622 69 69 77 
122.52923211196679 -12.308410715688385 -316.2144237802822 69 69 77 
121.23616156332002 -13.214773798411521 -315.12747226091636 179 176 103 
172.78466082295097 -27.663254576628265 -314.21795509154583 114 113 119 
171.40947318883605 -32.0364018837862 -312.52801600358384 112 106 106 
165.20214331115153 -18.63179341035987 -310.83350659550393 184 172 147 
174.40830367453594 -26.13779704964733 -313.3000227079388 148 143 143 
161.76909771947288 -15.936696602888752 -291.03696594978663 223 212 187 
167.45208985249673 -18.51385505901971 -304.1653818185926 205 195 170 
164.93048626703393 -18.757396765705725 -312.2835781226733 202 189 171 
122.25083882799515 -14.181357895541314 -316.07441014102164 63 62 82 
220.54940658206732 -29.74316721910002 -337.5236290900912 68 72 81 
130.29022104604627 -15.172334825074223 -296.3560143608876 240 240 247 
151.4972929560547 -14.506034869080995 -292.7654155955524 205 201 193 
121.26579049252473 -17.676484404183714 -315.59450724876467 222 223 227 
123.32809167836655 -13.15271892629087 -315.9934366418472 209 201 194 
123.32809167836655 -13.15271892629087 -315.9934366418472 209 201 194 
122.34167380438282 -14.174263934850938 -316.32335999634927 59 58 83 
123.11968091368692 -12.45811550463991 -316.1667929647869 186 178 174 
132.11734523384052 -16.23623271105506 -296.75638977188464 99 100 107 
130.38876685251057 -15.171760236333437 -296.4972350973272 237 237 246 
128.46410400405512 -16.617159041927952 -301.2543811886008 198 190 193 
220.8414522535033 -25.348990108973712 -344.32554487051755 173 167 167 
198.2140055018009 -53.472152761736425 -377.7963268782058 109 108 106 
153.31780617373073 -14.532118602418429 -290.2606641362191 100 94 91 
184.91852363719238 -65.79715685233546 -402.8026352587836 149 151 163 
182.7391186722278 -68.28245819558641 -410.986366736045 128 129 141 
175.2183218388514 -34.14451816028941 -431.755933396629 179 178 182 
187.22776604588933 -70.0239320974407 -402.31949141037285 199 200 204 
178.89799634973423 -71.05058068420534 -412.312294001614 241 239 242 
181.74465678469522 -71.6449140623546 -410.1861451890416 227 225 230 
187.5863775473856 -69.28559658927168 -396.2844181147981 194 192 195 
190.500846856676 -69.91509771225459 -392.5131201926519 155 155 157 
176.77294845523352 -34.650091638706016 -431.92716422405584 83 82 88 
179.12296592959467 -71.222888369905 -410.0473126532289 128 126 129 
209.21863392496107 -36.32984733840945 -361.4717809530397 69 67 67 
179.05104458283944 -70.15877484681405 -412.6872447083664 137 135 138 
179.72570150555896 -70.72694767563209 -419.3599053509872 222 220 223 
179.96683882959314 -70.63529763354234 -417.4982193851024 212 210 213 
207.96361771538517 -36.9906927294774 -361.58825758531736 173 171 173 
187.4140833179784 -70.3373699117627 -394.18737772662405 130 128 131 
179.33321710724402 -71.79812789075066 -409.80414486581174 239 237 240 
190.92512598118708 -69.35023887775498 -392.2287326497924 176 175 179 
179.8440740591928 -69.94324342923213 -418.2343463539054 174 174 176 
172.53873870448717 -31.577829994120943 -359.79804382697614 90 92 101 
218.94504459857228 -42.76185643741762 -345.75846948883327 159 158 154 
164.46196158215025 -18.545904655255946 -312.34264859479913 205 192 175 
155.28956516977763 -14.753158354872951 -287.60796409526966 102 97 95 
157.58079005306712 -16.62557945737203 -313.114862467117 243 234 219 
115.64932708878172 -29.953498237306793 -325.90802258913976 65 65 75 
120.01264048122607 -30.384923766515303 -315.77537344507346 108 109 115 
135.21077085546233 -17.54371181117333 -298.6638776416766 193 194 199 
138.33718435273028 -14.04502607264374 -335.43499217586157 187 179 167 
122.60661481336894 -15.931730592140365 -316.5893584076521 71 70 57 
128.59263547397933 -15.555096174913622 -302.34745875378474 66 60 61 
106.77613789835027 -29.65968869486237 -308.21358310244574 92 92 100 
107.42115435478757 -29.76188409484865 -308.5795139843242 107 107 115 
120.16800422176283 -30.154628261263316 -315.08120887669264 202 203 207 
107.04365291352212 -29.727189183234064 -307.45348222855705 170 170 178 
102.09097949939604 -16.447050437630875 -284.6292041149544 216 215 213 
101.26359040085083 -14.848049177725052 -286.89973830244475 67 67 64 
100.332931088147 -22.337009328335686 -292.68506858192296 176 155 150 
100.3256156878885 -22.317127208626363 -292.4648531764218 176 155 150 
100.44805510115344 -21.122232722519218 -292.88258467695084 170 149 145 
100.48972579456023 -27.637136527429522 -292.97643280948927 177 164 158 
100.06554668654178 -21.58664729744598 -292.65263839209183 112 89 82 
100.20018109715204 -26.868331365770874 -292.9913860173924 112 99 95 
100.20146441487168 -20.937618145363235 -292.614702468291 110 89 82 
102.85316804561279 -12.50065357264959 -283.3565043668946 103 104 98 
188.58676438991932 -61.88779529738714 -395.2444175771246 146 144 146 
218.88462776382892 -41.99569086372699 -346.0923918522284 226 220 220 
199.55873412180057 -50.66095602442546 -376.40104699017803 227 225 226 
191.87798953035417 -63.06696548199427 -393.3504611493344 121 120 125 
185.4706920534536 -69.7028567694424 -404.14149815340437 201 201 211 
153.9481507213738 -15.04926539033735 -305.71130812492413 163 152 131 
209.70839132999487 -34.67037580826691 -361.232974718696 155 153 158 
191.7597872027461 -56.7981578482498 -378.1237859691089 244 242 243 
180.297924430931 -69.81350925543518 -416.547913095175 230 228 229 
149.01239260754483 -29.81367170073319 -329.35954441676665 83 83 91 
181.8977319753675 -70.79237510360275 -410.57454603399447 120 119 126 
173.79985984317437 -30.40103690932101 -431.01173188464566 91 93 99 
179.04802755577668 -68.72296005558029 -415.60148070092663 225 223 224 
188.34616885263063 -61.782261361410505 -394.9113865585006 144 142 145 
103.35948605002915 -12.750014402278271 -282.40897896160516 220 221 215 
174.90411343573658 -32.99694454742831 -360.7227792941053 225 224 225 
174.6861525312595 -33.82019910487632 -359.3424162750927 73 71 80 
166.83456193338168 -20.04640892588033 -312.3302760573226 188 177 151 
172.91054333199844 -28.238878799340444 -313.7338870558084 138 134 125 
141.67858962255582 -15.644844528701363 -343.97816426131095 158 151 135 
139.7393816061682 -14.217114367740802 -340.3259451107353 211 204 188 
140.81907626624678 -14.395326475330084 -338.21102258317126 173 165 152 
128.430746555491 -16.270381817709318 -300.53415100440384 99 97 108 
147.50521644217332 -31.99257487589073 -329.5970983092768 199 200 204 
134.56978667893594 -17.53805519406733 -297.2268116977627 110 111 116 
129.00535827204328 -17.02390481718815 -301.7730250427421 88 84 89 
136.204933180242 -15.493441327009979 -297.7143473797068 241 240 243 
128.5395133158375 -16.78647020115022 -299.115817533824 206 206 214 
106.6538180422142 -30.058897161037866 -308.48350859156767 231 231 237 
103.40437929094543 -11.609906441673687 -282.17024501724217 90 91 83 
103.83072490274259 -14.565443387046368 -281.15126410418253 221 222 216 
102.53669764531708 -13.205827886739929 -284.4865591531827 197 198 192 
103.20185685753887 -11.726991498207475 -282.2020136263909 185 186 180 
102.19364038244282 -12.411685380318033 -283.1573517635621 187 186 182 
103.070558491481 -12.41579967328644 -283.1432367530982 184 185 179 
103.72908920804065 -12.430747860671008 -281.5549664284203 223 224 218 
101.73486051417603 -14.993527750369747 -285.94118538061144 217 218 213 
97.72035584302773 -23.564267419026915 -291.56777574699396 101 89 88 
99.06660237941219 -18.87998752976477 -291.9059874039874 175 174 172 
98.97556614179797 -14.298259613964678 -285.7897269784068 215 215 205 
100.71871182720429 -15.512944302074779 -287.9728461438527 95 96 91 
98.26273680946855 -20.98024171032638 -291.6309816799855 164 145 132 
98.284120518917 -20.352958087181538 -291.64214891494055 170 152 140 
98.42437975485706 -16.33486907967461 -291.4082829187599 197 187 185 
99.24865650880815 -20.428316210378906 -292.2436450264262 176 157 140 
102.41211878111744 -13.027451358621956 -284.59971718115895 77 76 72 
101.12644247614321 -14.063811855911474 -285.52627309673016 98 98 88 
99.83691015956055 -14.013456353946044 -284.9056903109681 117 117 107 
98.84118117216855 -16.547857341996664 -291.7930366707444 96 90 89 
100.50095487098162 -15.442437803964328 -288.10152823613885 162 163 158 
97.37369116866233 -16.61799908582173 -293.6824882805541 75 65 64 
99.06970526117959 -24.237797029150908 -292.28366164434766 200 186 173 
97.82239141687126 -23.712906464490363 -291.62373230541294 76 62 58 
98.93401923491513 -26.605663406735435 -292.1386890985404 192 177 170 
98.23773583196675 -23.765929474697106 -291.78748307097044 143 129 120 
98.23773583196675 -23.765929474697106 -291.78748307097044 143 129 120 
100.58567003407035 -23.91811026312161 -293.24178805949725 157 139 135 
100.66367295753957 -22.019314857250404 -292.8816059441023 150 135 130 
98.88573641984198 -16.02912036505351 -291.7667137283596 108 109 104 
97.87361402595263 -23.105799463615586 -291.7122016373271 92 78 76 
209.65168619476702 -34.89669447190201 -358.9063019347431 208 205 201 
133.92190681964695 -17.734233749877852 -298.76369327656477 229 230 234 
101.59626711936215 -13.719857456043187 -285.7136869033083 152 152 144 
120.85509354285648 -12.339207520417766 -318.00065784159506 180 174 173 
102.50284069405308 -15.632092397704369 -283.7486813150402 196 195 193 
101.73665453485523 -14.254681892915567 -285.7012935309453 156 155 153 
100.26654464829426 -26.467291478599098 -292.77115132145553 113 102 102 
200.59905445090016 -50.21438609795621 -376.42372464276843 112 111 109 
185.9299127488792 -68.74216889832753 -406.25636943273605 125 127 139 
179.92262941396388 -69.60041030150094 -419.2747284644764 230 228 229 
158.13248847118905 -16.749340399517756 -319.9614953236317 159 152 136 
147.9654473695506 -15.021510802575357 -309.0994455142103 202 193 186 
97.11979737581208 -16.044871352726204 -293.69103838314095 91 88 84 
168.37826653287533 -17.716120878208244 -297.88093925903354 187 175 151 
213.69861888811994 -23.89320441464552 -330.05627808494734 156 153 142 
204.3764059487376 -21.99721678354233 -371.9440338495602 100 95 98 
198.5684353153842 -64.94598088894288 -373.6558107317411 123 121 124 
161.60601671455743 -17.304929828332938 -309.9343312614956 161 150 128 
98.07229866410046 -24.103267137591498 -291.5563378772916 189 174 166 
97.72912143265461 -25.558820670573052 -291.7519908993927 95 82 78 
215.92167532917097 -53.29773337729088 -342.1956137251193 128 126 127 
200.6237010342383 -62.774205106752504 -369.48455613379247 142 140 143 
186.95937966854137 -69.5626955818035 -399.2823638562159 199 201 213 
208.28257386325305 -25.048769344918444 -363.5313445544459 131 129 129 
206.95598778046798 -36.17364821895963 -361.49291608594973 70 67 80 
192.08327230004386 -70.99043205704989 -393.92290971571026 196 194 197 
174.4076844860337 -32.95117625434172 -360.0530693715972 226 227 231 
