-26.030752182006836 10.487736701965332 123.2408447265625 255 255 255
-27.411762237548828 -2.645477533340454 146.15509033203125 255 255 255
-23.767229080200195 9.61870288848877 123.07361602783203 255 255 255
-30.7531795501709 3.0224602222442627 57.14202117919922 255 255 255
-38.20943069458008 -0.4876859784126282 50.83747100830078 255 255 255
-39.27055358886719 -0.7358866930007935 50.30759048461914 255 255 255
-37.68191909790039 -0.714808464050293 51.07803726196289 255 255 255
-22.174795150756836 7.352311134338379 55.938236236572266 255 255 255
-18.35423469543457 -8.998795509338379 56.88713836669922 255 255 255
-16.990589141845703 -11.447197914123535 55.82561492919922 255 255 255
-39.028926849365234 1.423108458518982 67.25328826904297 255 255 255
-38.9565315246582 3.3196537494659424 62.64583969116211 255 255 255
-19.013792037963867 11.36172103881836 123.49869537353516 255 255 255
-17.28927993774414 9.415789604187012 99.77104949951172 255 255 255
-21.369647979736328 9.186491966247559 87.0080795288086 255 255 255
42.01598358154297 1.699824571609497 125.66350555419922 255 255 255
-25.178852081298828 6.142104625701904 99.44599914550781 255 255 255
-18.575944900512695 8.611592292785645 107.42543029785156 255 255 255
-17.96869468688965 5.99462366104126 93.27792358398438 255 255 255
-43.75658416748047 4.572020053863525 68.60033416748047 255 255 255
-48.655601501464844 8.090317726135254 64.396728515625 255 255 255
-43.75080108642578 3.2762038707733154 72.51167297363281 255 255 255
-44.76374053955078 5.452073574066162 67.97462463378906 255 255 255
-44.83662414550781 5.649799823760986 67.85686492919922 255 255 255
-43.72565460205078 4.894386291503906 68.06780242919922 255 255 255
-34.73588180541992 1.6591203212738037 56.45309066772461 255 255 255
-39.9691047668457 0.6361618638038635 56.225746154785156 255 255 255
-21.841453552246094 7.037104606628418 49.02184295654297 255 255 255
-22.86221694946289 7.445850372314453 55.69905090332031 255 255 255
-10.212441444396973 -2.7348756790161133 67.0013198852539 255 255 255
-8.759622573852539 6.670470237731934 51.52276611328125 255 255 255
-23.53387451171875 -2.753566026687622 70.4345703125 255 255 255
-23.62467384338379 -2.714608669281006 70.53579711914062 255 255 255
-33.3241081237793 3.3562748432159424 84.74304962158203 255 255 255
-19.024206161499023 4.404329299926758 77.22042846679688 255 255 255
-15.171314239501953 4.3263068199157715 75.07636260986328 255 255 255
-25.94214630126953 1.6247243881225586 93.36211395263672 255 255 255
-26.868955612182617 8.134222030639648 72.7920913696289 255 255 255
-27.937223434448242 6.76317024230957 72.83759307861328 255 255 255
-55.73991775512695 8.433932304382324 57.93730926513672 255 255 255
-67.02237701416016 8.46535587310791 74.93699645996094 255 255 255
-64.32110595703125 8.692018508911133 65.87586212158203 255 255 255
-16.15447425842285 4.227319240570068 100.15050506591797 255 255 255
-29.57278823852539 4.028926849365234 73.73401641845703 255 255 255
-19.108034133911133 6.300010681152344 91.57950592041016 255 255 255
-30.445199966430664 3.784379005432129 74.03192901611328 255 255 255
-22.581552505493164 6.527876377105713 101.8370590209961 255 255 255
-14.701913833618164 -10.486433982849121 67.91587829589844 255 255 255
19.02269172668457 1.6840438842773438 127.10845947265625 255 255 255
19.41994857788086 -0.3949621915817261 126.76207733154297 255 255 255
-2.042088031768799 9.289701461791992 124.07530212402344 255 255 255
2.1654107570648193 3.159898519515991 128.9775848388672 255 255 255
-48.33224105834961 1.22514808177948 64.40715026855469 255 255 255
-73.7085189819336 -2.0564143657684326 62.282806396484375 255 255 255
109.81350708007812 -2.615312337875366 142.4354705810547 255 255 255
3.4683756828308105 9.170921325683594 111.9217529296875 255 255 255
-0.8109183311462402 6.443769931793213 112.49091339111328 255 255 255
-6.849270820617676 10.129509925842285 114.74515533447266 255 255 255
-6.961770057678223 10.118242263793945 114.74752044677734 255 255 255
-1.2129887342453003 9.70551586151123 112.13288879394531 255 255 255
-0.3940964937210083 9.72188663482666 111.91585540771484 255 255 255
-5.414281368255615 9.962580680847168 115.0632553100586 255 255 255
-9.201957702636719 5.840728282928467 81.77890014648438 255 255 255
-12.242368698120117 -7.086624622344971 68.60761260986328 255 255 255
-8.267526626586914 5.428744316101074 56.199371337890625 255 255 255
-1.5993787050247192 3.7330381870269775 47.51516342163086 255 255 255
-2.764988899230957 4.589941024780273 31.584335327148438 255 255 255
-29.255544662475586 6.842687129974365 70.4792709350586 255 255 255
-18.079042434692383 8.181737899780273 104.64213562011719 255 255 255
-2.5078258514404297 3.058802843093872 43.63494110107422 255 255 255
-18.602201461791992 10.473249435424805 110.13981628417969 255 255 255
-6.291156768798828 0.23177684843540192 -11.64421272277832 255 255 255
-12.604935646057129 -2.188060760498047 4.928526401519775 255 255 255
-14.991412162780762 -1.642795205116272 -4.284296035766602 255 255 255
-3.4305574893951416 1.4042222499847412 1.312840223312378 255 255 255
2.660142660140991 1.2245639562606812 0.24562859535217285 255 255 255
-16.030075073242188 -4.300669193267822 -17.734094619750977 255 255 255
-2.1325185298919678 -1.173152208328247 -2.2291619777679443 255 255 255
-19.182384490966797 7.176876544952393 60.728050231933594 255 255 255
-10.712158203125 -5.301634311676025 65.98677062988281 255 255 255
-17.166141510009766 5.852745532989502 98.37708282470703 255 255 255
-17.937541961669922 6.034242630004883 101.43426513671875 255 255 255
-45.71445083618164 4.315842628479004 85.7016830444336 255 255 255
-65.8033676147461 -3.6775641441345215 60.27766036987305 255 255 255
-129.65635681152344 7.274062633514404 74.03045654296875 255 255 255
-40.7529411315918 3.6558477878570557 66.56825256347656 255 255 255
-20.166664123535156 6.976287841796875 53.84835433959961 255 255 255
-5.4558868408203125 2.5107975006103516 58.58195495605469 255 255 255
-17.634078979492188 10.147011756896973 119.21296691894531 255 255 255
-18.596534729003906 9.910381317138672 108.53583526611328 255 255 255
-17.641437530517578 6.215116024017334 101.23822784423828 255 255 255
-18.719051361083984 9.693236351013184 123.15813446044922 255 255 255
-21.023263931274414 10.182021141052246 108.94268035888672 255 255 255
-9.94599437713623 5.240373134613037 70.5227279663086 255 255 255
-21.35858917236328 -10.114562034606934 45.296409606933594 255 255 255
-0.27116188406944275 3.2822744846343994 20.423864364624023 255 255 255
-22.08526039123535 -3.4159648418426514 41.939300537109375 255 255 255
-22.27819061279297 -8.948209762573242 42.80690002441406 255 255 255
-1.2843656539916992 1.6195820569992065 31.639362335205078 255 255 255
-7.130756855010986 3.325589179992676 21.31584358215332 255 255 255
-7.086880207061768 2.6154472827911377 19.993350982666016 255 255 255
0.3168985843658447 2.8486437797546387 16.68191146850586 255 255 255
-2.85404372215271 -4.972805976867676 49.53791427612305 255 255 255
-19.441320419311523 6.62263822555542 83.40857696533203 255 255 255
-13.286811828613281 2.383836269378662 27.42806053161621 255 255 255
1.3829737901687622 5.871074676513672 129.1820831298828 255 255 255
-17.064226150512695 8.652471542358398 124.546630859375 255 255 255
-13.756611824035645 8.29538345336914 121.41944885253906 255 255 255
2.455648422241211 1.3585546016693115 132.303466796875 255 255 255
-3.6843605041503906 3.1023812294006348 128.7678680419922 255 255 255
-6.213210105895996 8.198928833007812 128.32762145996094 255 255 255
4.323069095611572 9.64342975616455 124.77982330322266 255 255 255
-71.66619873046875 0.686607301235199 56.978824615478516 255 255 255
-68.37630462646484 -0.9852623343467712 61.584320068359375 255 255 255
-73.69328308105469 2.273528814315796 61.754730224609375 255 255 255
-32.21377182006836 7.956367015838623 55.141357421875 255 255 255
-43.71001434326172 4.415707111358643 69.0334701538086 255 255 255
-44.82099914550781 8.6646146774292 89.75091552734375 255 255 255
-43.092559814453125 4.407087326049805 71.83186340332031 255 255 255
-55.08271026611328 10.520979881286621 89.31565856933594 255 255 255
-43.21422576904297 4.785254955291748 71.0892562866211 255 255 255
-45.87307357788086 8.359622955322266 92.84661102294922 255 255 255
-44.171234130859375 6.827341556549072 49.13456726074219 255 255 255
-32.434043884277344 7.834940433502197 57.89448165893555 255 255 255
-36.906028747558594 2.4660773277282715 61.18717956542969 255 255 255
-44.21629333496094 6.998169422149658 49.379817962646484 255 255 255
-63.70183181762695 5.4520955085754395 67.31407165527344 255 255 255
9.260396957397461 -171.90248107910156 660.6465454101562 255 255 255
-0.7224796414375305 3.096196413040161 20.849000930786133 255 255 255
-16.073001861572266 -8.273378372192383 59.71883010864258 255 255 255
0.744603157043457 1.5950881242752075 16.11612319946289 255 255 255
-4.115642547607422 0.3904677927494049 58.78522872924805 255 255 255
-4.152119159698486 0.4234381914138794 58.857215881347656 255 255 255
3.6917757987976074 7.777284145355225 114.70735168457031 255 255 255
13.758184432983398 2.393083333969116 112.80792999267578 255 255 255
1.6381598711013794 8.185171127319336 111.09799194335938 255 255 255
8.491811752319336 3.061473846435547 112.83737182617188 255 255 255
-105.12569427490234 4.060480117797852 83.5097885131836 255 255 255
-83.35639190673828 -8.720888137817383 72.95695495605469 255 255 255
-35.281219482421875 6.204562664031982 83.11658477783203 255 255 255
-35.36445617675781 3.265831470489502 86.89994812011719 255 255 255
-25.89339256286621 3.1799604892730713 91.36554718017578 255 255 255
-18.465158462524414 9.17054271697998 107.53396606445312 255 255 255
-18.448135375976562 8.195058822631836 107.94017028808594 255 255 255
-18.416284561157227 9.890792846679688 109.58103942871094 255 255 255
-2.6464245319366455 4.27349853515625 32.302650451660156 255 255 255
-2.639024019241333 4.098613739013672 31.121206283569336 255 255 255
-22.175682067871094 -7.215110778808594 58.5031852722168 255 255 255
-0.7728226780891418 3.5649373531341553 23.609582901000977 255 255 255
6.463809013366699 7.335237503051758 115.60160064697266 255 255 255
9.196016311645508 6.359857559204102 115.7122802734375 255 255 255
30.793596267700195 7.95721435546875 128.0062713623047 255 255 255
30.425987243652344 9.528921127319336 127.34013366699219 255 255 255
6.175544261932373 2.5687406063079834 49.66691589355469 255 255 255
-64.71292114257812 -1.0890626907348633 49.61570739746094 255 255 255
-59.06999206542969 6.57077169418335 50.145835876464844 255 255 255
-69.3313217163086 6.63161039352417 55.311676025390625 255 255 255
-42.0252685546875 1.9164440631866455 150.6204071044922 255 255 255
-24.2605037689209 9.463882446289062 122.31785583496094 255 255 255
-37.23306655883789 4.533695697784424 62.966712951660156 255 255 255
-23.875335693359375 -10.46417236328125 56.64430236816406 255 255 255
0.2994046211242676 2.5535850524902344 12.297491073608398 255 255 255
1.269085168838501 0.9465972185134888 12.471420288085938 255 255 255
0.6185262799263 2.7725441455841064 15.959598541259766 255 255 255
0.9525331258773804 2.6315829753875732 14.387757301330566 255 255 255
0.3134337365627289 4.672533988952637 23.857192993164062 255 255 255
-35.65811538696289 7.35564661026001 49.567779541015625 255 255 255
-40.14460372924805 2.3192315101623535 56.193084716796875 255 255 255
-45.2379150390625 5.096626281738281 69.00566101074219 255 255 255
-60.7288932800293 9.472704887390137 52.016258239746094 255 255 255
-44.43037414550781 6.481427192687988 48.58522415161133 255 255 255
-32.43857192993164 8.018718719482422 55.30792999267578 255 255 255
-40.764034271240234 4.301813125610352 110.77310180664062 255 255 255
-41.86446762084961 3.3735737800598145 70.38536071777344 255 255 255
-37.18412780761719 3.0912420749664307 124.10147094726562 255 255 255
-39.96659851074219 4.027804374694824 76.5997314453125 255 255 255
-39.34320831298828 4.118273735046387 74.36460876464844 255 255 255
-39.4227180480957 3.0479209423065186 76.56925964355469 255 255 255
-51.720550537109375 -1.2450393438339233 112.15945434570312 255 255 255
-80.49275970458984 2.580667495727539 61.17140197753906 255 255 255
-47.892337799072266 4.165960311889648 65.14173889160156 255 255 255
-75.1041259765625 6.987198829650879 56.79217529296875 255 255 255
-48.6165657043457 8.257218360900879 62.31288146972656 255 255 255
-80.65650939941406 1.9926879405975342 48.42942428588867 255 255 255
-48.143516540527344 8.162140846252441 51.8330078125 255 255 255
-19.72616958618164 -8.775653839111328 40.519004821777344 255 255 255
1.7440415620803833 2.382484197616577 13.683314323425293 255 255 255
-0.947882354259491 -4.633368015289307 30.997953414916992 255 255 255
0.3213467299938202 0.5254392623901367 18.313350677490234 255 255 255
-0.6037119626998901 2.6606972217559814 20.424739837646484 255 255 255
-7.245594501495361 2.7725582122802734 21.637310028076172 255 255 255
-15.742542266845703 7.311585903167725 63.135501861572266 255 255 255
-11.755517959594727 -2.776827812194824 68.45182037353516 255 255 255
13.334484100341797 4.796325206756592 127.45548248291016 255 255 255
58.36213302612305 0.47246891260147095 136.5936737060547 255 255 255
244.0963897705078 -21.647001266479492 159.3596954345703 255 255 255
-20.600297927856445 10.492348670959473 107.5562973022461 255 255 255
-14.031794548034668 5.985897064208984 98.09217834472656 255 255 255
-26.51352310180664 -0.22766496241092682 138.5453643798828 255 255 255
86.80967712402344 -6.40948486328125 -4.236839771270752 255 255 255
81.49223327636719 -6.392541408538818 -2.1025338172912598 255 255 255
81.26972198486328 -6.9534430503845215 -0.0878528580069542 255 255 255
-145.0381317138672 -24.072540283203125 -123.18802642822266 255 255 255
84.94727325439453 -6.254790782928467 -2.5294177532196045 255 255 255
67.2304458618164 -2.7558302879333496 -4.807682514190674 255 255 255
80.15223693847656 -7.109971046447754 -1.6129412651062012 255 255 255
81.41576385498047 -3.783493757247925 -0.25905635952949524 255 255 255
-45.83540344238281 7.640237808227539 50.86072540283203 255 255 255
-16.025400161743164 6.1223602294921875 125.7574691772461 255 255 255
-39.391563415527344 3.3708388805389404 75.20287322998047 255 255 255
-38.00733184814453 11.350151062011719 113.68470764160156 255 255 255
-40.14470672607422 9.002391815185547 68.158203125 255 255 255
-37.7657470703125 3.7817628383636475 75.35331726074219 255 255 255
-86.383056640625 1.143332839012146 123.9361572265625 255 255 255
-21.12607765197754 11.04504680633545 115.34010314941406 255 255 255
-18.55332374572754 9.184017181396484 109.70072937011719 255 255 255
-18.879592895507812 10.596372604370117 108.58251953125 255 255 255
-26.738698959350586 11.584494590759277 120.94188690185547 255 255 255
-29.369064331054688 9.15829086303711 127.35562133789062 255 255 255
-44.461055755615234 8.582517623901367 61.38916015625 255 255 255
-44.76171875 8.808834075927734 59.291507720947266 255 255 255
-69.7798080444336 -3.8752033710479736 56.34830093383789 255 255 255
-41.3204345703125 6.10175085067749 71.7662353515625 255 255 255
-40.930660247802734 2.1981236934661865 81.6212387084961 255 255 255
-63.82791519165039 6.648362636566162 142.89370727539062 255 255 255
-41.94204330444336 4.785125255584717 71.76102447509766 255 255 255
-48.30167770385742 5.779560089111328 64.26458740234375 255 255 255
-53.75115966796875 2.809443473815918 66.46133422851562 255 255 255
-48.7209358215332 5.219411849975586 64.39093017578125 255 255 255
-115.33126831054688 17.06869888305664 136.01177978515625 255 255 255
-44.22675704956055 6.011907577514648 68.58538818359375 255 255 255
-43.65036392211914 7.810446262359619 64.02452087402344 255 255 255
-46.29436492919922 3.8581907749176025 71.73748779296875 255 255 255
-44.70393753051758 4.0337395668029785 68.35701751708984 255 255 255
-43.00481414794922 4.244955539703369 71.4631576538086 255 255 255
-48.583824157714844 5.763070106506348 64.47103881835938 255 255 255
-51.82010269165039 -0.7673971652984619 106.04603576660156 255 255 255
-19.17401695251465 7.128585338592529 109.30284118652344 255 255 255
-25.584716796875 7.506603717803955 123.79915618896484 255 255 255
-21.36183738708496 10.961599349975586 118.43688201904297 255 255 255
-15.873077392578125 -7.354667663574219 66.66021728515625 255 255 255
-18.480316162109375 8.929251670837402 90.14049530029297 255 255 255
2.624068260192871 5.250310897827148 101.61531829833984 255 255 255
-18.164806365966797 5.790133476257324 90.30012512207031 255 255 255
-63.687049865722656 -2.3164315223693848 59.7530517578125 255 255 255
-12.409378051757812 8.31494140625 84.02557373046875 255 255 255
-25.23845863342285 -10.779905319213867 54.58948516845703 255 255 255
-24.00431251525879 -6.702461242675781 56.14448547363281 255 255 255
-0.6347134709358215 -5.718039035797119 32.18705749511719 255 255 255
0.11648757010698318 3.0635738372802734 18.790206909179688 255 255 255
-7.970513820648193 4.126582145690918 20.757984161376953 255 255 255
0.8014749884605408 2.3743674755096436 16.6507625579834 255 255 255
-50.40922927856445 4.701048374176025 66.02879333496094 255 255 255
-40.42677688598633 -3.8365440368652344 51.48089599609375 255 255 255
-31.46450424194336 3.37381911277771 57.57674026489258 255 255 255
-38.87419128417969 0.4722169041633606 49.986698150634766 255 255 255
-45.368709564208984 -1.5273454189300537 57.754085540771484 255 255 255
-92.82300567626953 5.939794063568115 56.61172103881836 255 255 255
-220.6226043701172 -32.381004333496094 108.15837860107422 255 255 255
-29.705766677856445 -3.3062655925750732 67.86368560791016 255 255 255
-7.791747093200684 3.8296337127685547 62.61919021606445 255 255 255
-43.059364318847656 8.447665214538574 90.29073333740234 255 255 255
-21.55546760559082 9.374404907226562 86.98370361328125 255 255 255
-25.332334518432617 9.154521942138672 93.31794738769531 255 255 255
-18.654069900512695 6.4294328689575195 100.83589172363281 255 255 255
-36.851966857910156 -15.340868949890137 71.27937316894531 255 255 255
-16.180767059326172 -9.009745597839355 66.29308319091797 255 255 255
-0.0938863679766655 0.7878409028053284 21.77098846435547 255 255 255
-113.6485824584961 8.085187911987305 77.7896499633789 255 255 255
-73.23504638671875 3.8875789642333984 65.5520248413086 255 255 255
-116.91990661621094 3.426905632019043 77.16622161865234 255 255 255
-63.49155044555664 -7.558701038360596 60.175350189208984 255 255 255
-36.89039611816406 3.2205264568328857 68.2899169921875 255 255 255
-12.658156394958496 -2.4657416343688965 68.68533325195312 255 255 255
-19.851150512695312 -0.45537182688713074 46.445316314697266 255 255 255
-55.171043395996094 8.39072322845459 54.004058837890625 255 255 255
-104.92900085449219 -3.519411563873291 74.04258728027344 255 255 255
-49.10017776489258 4.236825466156006 62.58595657348633 255 255 255
-52.097991943359375 7.753826141357422 71.02581024169922 255 255 255
-76.94029235839844 9.699901580810547 87.41374969482422 255 255 255
-36.73923110961914 1.582245111465454 60.79325485229492 255 255 255
-37.110355377197266 0.3956795334815979 50.631839752197266 255 255 255
-30.671524047851562 3.1505587100982666 56.87628173828125 255 255 255
-27.996746063232422 1.0844913721084595 52.65021514892578 255 255 255
-31.97222900390625 7.344422340393066 53.25845718383789 255 255 255
-76.61023712158203 11.093009948730469 105.6431655883789 255 255 255
-25.591655731201172 1.6135615110397339 52.556827545166016 255 255 255
-38.905662536621094 8.431883811950684 77.22737121582031 255 255 255
-37.03984451293945 1.6235241889953613 156.23167419433594 255 255 255
-42.664764404296875 3.021792411804199 73.94141387939453 255 255 255
-42.54717254638672 3.3187928199768066 71.01299285888672 255 255 255
-42.9962043762207 8.388339042663574 68.05037689208984 255 255 255
-95.03157043457031 2.7061803340911865 136.8268585205078 255 255 255
-57.70429992675781 10.465149879455566 78.05522918701172 255 255 255
-70.85465240478516 -6.321306228637695 197.16831970214844 255 255 255
-41.888973236083984 6.994625568389893 64.16970825195312 255 255 255
-36.221866607666016 -1.717699646949768 55.23626708984375 255 255 255
-34.455020904541016 6.496328830718994 59.32181930541992 255 255 255
-18.0787410736084 7.103852272033691 60.54210662841797 255 255 255
-69.78392791748047 6.652251720428467 69.93801879882812 255 255 255
-35.925418853759766 6.250086307525635 58.22702407836914 255 255 255
-35.00086212158203 7.836743354797363 58.877960205078125 255 255 255
-80.60977935791016 9.06624698638916 77.91383361816406 255 255 255
-56.06952667236328 6.56474494934082 64.86141204833984 255 255 255
-30.008514404296875 8.842259407043457 74.041259765625 255 255 255
-84.19847106933594 14.013307571411133 124.30347442626953 255 255 255
18.8106746673584 -1.7907042503356934 137.306640625 255 255 255
1.1047779321670532 2.5623579025268555 17.454914093017578 255 255 255
-21.203624725341797 -9.488856315612793 53.22258758544922 255 255 255
-1.603887915611267 2.868471622467041 24.38231658935547 255 255 255
-15.259662628173828 -10.089548110961914 50.932533264160156 255 255 255
-17.73984718322754 -8.116484642028809 49.875179290771484 255 255 255
-83.36873626708984 4.784884452819824 75.40825653076172 255 255 255
-43.78630828857422 8.548717498779297 59.584171295166016 255 255 255
-79.57597351074219 4.320525169372559 52.53822326660156 255 255 255
-34.2877082824707 8.086165428161621 57.227264404296875 255 255 255
-43.457359313964844 6.8691182136535645 50.65298843383789 255 255 255
-89.2725601196289 1.8433384895324707 46.87407302856445 255 255 255
-315.51922607421875 10.692754745483398 95.98161315917969 255 255 255
-4.701851844787598 3.58532977104187 58.96841812133789 255 255 255
0.5020164847373962 4.358681678771973 100.9870376586914 255 255 255
-138.13160705566406 98.39073181152344 880.7764282226562 255 255 255
-14.234968185424805 -7.899342060089111 58.53716278076172 255 255 255
0.24265457689762115 1.2996047735214233 18.355417251586914 255 255 255
11.38507080078125 -0.038156963884830475 130.58213806152344 255 255 255
3.683035373687744 8.622941017150879 114.53199005126953 255 255 255
-14.071120262145996 8.854300498962402 80.90403747558594 255 255 255
-5.737035274505615 5.9068145751953125 46.969783782958984 255 255 255
20.635671615600586 -0.7228955626487732 127.23810577392578 255 255 255
13.295021057128906 2.53751277923584 126.2004623413086 255 255 255
-83.1869888305664 0.2524097263813019 57.042781829833984 255 255 255
-80.05731964111328 -7.00133752822876 57.45353317260742 255 255 255
-70.18949127197266 2.686129331588745 49.94804000854492 255 255 255
-37.91099548339844 8.215662002563477 58.830230712890625 255 255 255
-42.45024871826172 8.513660430908203 61.05314636230469 255 255 255
-62.628662109375 6.722388744354248 66.1319580078125 255 255 255
-51.846092224121094 2.5266261100769043 66.03280639648438 255 255 255
-19.622512817382812 10.381300926208496 107.13744354248047 255 255 255
-26.52056312561035 7.422454833984375 124.18273162841797 255 255 255
-27.020845413208008 -2.4617888927459717 146.13291931152344 255 255 255
0.22690482437610626 3.191662073135376 18.814659118652344 255 255 255
-15.91547679901123 -8.412271499633789 58.64717483520508 255 255 255
-3.9750492572784424 3.7518599033355713 21.785171508789062 255 255 255
-25.909610748291016 -4.723938941955566 55.74739074707031 255 255 255
-78.10741424560547 -4.25298547744751 64.27493286132812 255 255 255
-48.51591491699219 2.6612308025360107 65.01048278808594 255 255 255
-64.54907989501953 2.7875401973724365 46.921138763427734 255 255 255
-65.35186767578125 -2.5987372398376465 47.528446197509766 255 255 255
-51.996726989746094 0.990429162979126 65.07447052001953 255 255 255
-18.116092681884766 5.888238430023193 79.20417785644531 255 255 255
-73.867431640625 2.500255584716797 49.02197265625 255 255 255
-39.22034454345703 5.618902206420898 76.11113739013672 255 255 255
-38.31503677368164 3.1392133235931396 77.32576751708984 255 255 255
-41.91887283325195 5.307280540466309 71.44377899169922 255 255 255
-39.61637496948242 4.436223983764648 76.23248291015625 255 255 255
-60.154476165771484 -4.65136194229126 136.12124633789062 255 255 255
-46.218780517578125 -2.459679365158081 186.04928588867188 255 255 255
-29.733291625976562 1.3328227996826172 84.18274688720703 255 255 255
-38.288780212402344 3.3395798206329346 77.25131225585938 255 255 255
-35.11030960083008 -0.814135730266571 81.37488555908203 255 255 255
-5.447019577026367 5.701130390167236 41.65517044067383 255 255 255
-3.7570197582244873 5.019896984100342 46.09243392944336 255 255 255
-22.995424270629883 7.2602434158325195 52.8695068359375 255 255 255
-29.563905715942383 7.521923542022705 52.041038513183594 255 255 255
-36.34082794189453 3.5836989879608154 58.384464263916016 255 255 255
-36.980464935302734 1.4915122985839844 61.14789581298828 255 255 255
-31.113845825195312 8.00864028930664 63.212425231933594 255 255 255
-29.57232666015625 7.522299766540527 52.01663589477539 255 255 255
-35.69160842895508 7.212943077087402 58.63031005859375 255 255 255
-38.05385208129883 8.460448265075684 57.64971160888672 255 255 255
-33.90135955810547 -1.3065935373306274 74.73017120361328 255 255 255
-50.0213737487793 4.0195817947387695 64.95204162597656 255 255 255
-35.287132263183594 5.006191730499268 58.38493728637695 255 255 255
-90.39957427978516 2.393098831176758 69.46247863769531 255 255 255
-0.5857067704200745 2.4517483711242676 31.55799674987793 255 255 255
-8.403192520141602 3.5352048873901367 24.349609375 255 255 255
0.33192649483680725 2.152763843536377 30.04325294494629 255 255 255
-19.966569900512695 -11.322705268859863 52.741607666015625 255 255 255
-57.06507110595703 2.852365732192993 119.67082214355469 255 255 255
-39.61821365356445 15.968010902404785 170.7613525390625 255 255 255
-64.38542175292969 13.859536170959473 134.8935089111328 255 255 255
-43.178375244140625 2.1482295989990234 72.84553527832031 255 255 255
-41.39620590209961 2.2529070377349854 76.87403869628906 255 255 255
-39.290992736816406 3.4272353649139404 74.14848327636719 255 255 255
-72.86416625976562 13.331733703613281 173.5657196044922 255 255 255
-38.38813781738281 8.508208274841309 57.85280990600586 255 255 255
-112.18417358398438 11.138300895690918 95.34268951416016 255 255 255
-33.294864654541016 1.6024545431137085 58.90127944946289 255 255 255
-35.61503601074219 2.6024813652038574 59.12668228149414 255 255 255
-25.33405876159668 5.105581283569336 55.5876579284668 255 255 255
-36.02471923828125 -2.80387282371521 55.301753997802734 255 255 255
-20.01814079284668 6.923964500427246 107.53610229492188 255 255 255
-16.197153091430664 8.564203262329102 97.69605255126953 255 255 255
-1.1160356998443604 -6.406226634979248 32.315826416015625 255 255 255
-24.25385284423828 -11.246447563171387 45.085304260253906 255 255 255
-21.692569732666016 -10.223551750183105 43.91181945800781 255 255 255
-0.7374693751335144 3.1077632904052734 20.83284568786621 255 255 255
-23.629440307617188 -9.562052726745605 43.52228546142578 255 255 255
-8.772412300109863 3.443023920059204 28.04026222229004 255 255 255
-0.20815430581569672 0.7639142274856567 14.568838119506836 255 255 255
-26.080535888671875 -4.790675640106201 56.227569580078125 255 255 255
-23.17411231994629 -3.6792659759521484 43.66640853881836 255 255 255
-16.99722671508789 6.0518646240234375 52.851173400878906 255 255 255
-13.14655590057373 5.434304237365723 77.87393188476562 255 255 255
-4.139934539794922 4.830681800842285 65.0112533569336 255 255 255
-18.126399993896484 4.159884452819824 117.01580047607422 255 255 255
-80.65325164794922 6.9342732429504395 58.22691345214844 255 255 255
-87.22139739990234 -8.118247032165527 67.97383880615234 255 255 255
-36.617984771728516 4.199540615081787 59.220436096191406 255 255 255
-8.9254732131958 6.643411159515381 52.566551208496094 255 255 255
-17.48543357849121 7.895227432250977 69.15062713623047 255 255 255
-36.666770935058594 4.158816337585449 59.23430252075195 255 255 255
11.560469627380371 9.525556564331055 115.96156311035156 255 255 255
3.6178269386291504 8.63780689239502 113.94183349609375 255 255 255
11.245622634887695 3.448737144470215 116.16922760009766 255 255 255
8.283711433410645 5.926049709320068 113.16065979003906 255 255 255
7.949430465698242 3.228916883468628 114.05905151367188 255 255 255
6.958441257476807 6.2942399978637695 113.5152587890625 255 255 255
-54.65231704711914 8.600769996643066 62.81038284301758 255 255 255
-41.25856018066406 8.08301830291748 87.86991882324219 255 255 255
0.6239235401153564 0.8772397041320801 13.872676849365234 255 255 255
-20.354591369628906 -7.10180139541626 39.82841873168945 255 255 255
-0.4289249777793884 2.7440009117126465 20.411712646484375 255 255 255
-10.053388595581055 8.520333290100098 52.50136947631836 255 255 255
-25.10828971862793 -11.775238037109375 57.96803283691406 255 255 255
-7.267545223236084 3.1752870082855225 25.190357208251953 255 255 255
-25.161468505859375 -4.035244941711426 46.715023040771484 255 255 255
0.41293206810951233 2.6385300159454346 19.21900749206543 255 255 255
-21.826793670654297 -11.66422176361084 55.72652816772461 255 255 255
-23.483320236206055 -10.171123504638672 56.01906204223633 255 255 255
-22.297691345214844 -10.694385528564453 55.70519256591797 255 255 255
-1.9955204725265503 2.7421140670776367 23.693559646606445 255 255 255
-12.979391098022461 3.4889044761657715 35.260711669921875 255 255 255
-7.286098957061768 4.158013820648193 25.634567260742188 255 255 255
-2.05458664894104 4.598620414733887 31.994035720825195 255 255 255
-18.528518676757812 -4.225759506225586 61.17905044555664 255 255 255
-26.31928825378418 4.877326488494873 76.55528259277344 255 255 255
-18.741432189941406 8.204229354858398 108.49612426757812 255 255 255
-35.59458923339844 4.372553825378418 60.36017990112305 255 255 255
-139.68228149414062 9.212491989135742 80.25343322753906 255 255 255
-15.309075355529785 -3.0023605823516846 3.9546618461608887 255 255 255
-6.029632568359375 -0.7461453080177307 2.054946184158325 255 255 255
0.3192446231842041 2.9918711185455322 21.95228385925293 255 255 255
-1.0402345657348633 -1.494330883026123 31.999229431152344 255 255 255
-19.384536743164062 -10.804741859436035 55.77299499511719 255 255 255
-1.3200594186782837 3.032684564590454 23.740550994873047 255 255 255
-13.632478713989258 2.3326451778411865 31.041065216064453 255 255 255
-8.152979850769043 1.9323101043701172 56.82868576049805 255 255 255
-0.42653220891952515 2.7608580589294434 20.662944793701172 255 255 255
-53.729087829589844 3.706660270690918 66.31571197509766 255 255 255
-85.03053283691406 2.008082389831543 128.522705078125 255 255 255
-80.2104263305664 2.783750534057617 131.18186950683594 255 255 255
-89.3281021118164 2.6720988750457764 128.92190551757812 255 255 255
-22.664865493774414 10.39809513092041 122.17121887207031 255 255 255
-18.914979934692383 6.5760817527771 93.41699981689453 255 255 255
-26.20794677734375 8.545214653015137 103.13214111328125 255 255 255
7.42009162902832 4.388333320617676 114.21255493164062 255 255 255
13.539021492004395 4.595731735229492 126.60563659667969 255 255 255
-38.19924545288086 8.40913200378418 58.07826232910156 255 255 255
-48.17407989501953 7.784436225891113 51.30693817138672 255 255 255
-46.65864181518555 7.681844234466553 50.811363220214844 255 255 255
-43.679595947265625 7.444581985473633 50.68635559082031 255 255 255
-66.61054992675781 -3.8941903114318848 59.28227996826172 255 255 255
1.7327951192855835 7.360651969909668 111.24044799804688 255 255 255
3.541557788848877 9.61997127532959 124.34111785888672 255 255 255
1.5598996877670288 7.380883693695068 111.29115295410156 255 255 255
6.641822814941406 5.545693874359131 130.11048889160156 255 255 255
13.199014663696289 3.5338499546051025 126.01358795166016 255 255 255
-50.273441314697266 8.365081787109375 61.888004302978516 255 255 255
-52.67416000366211 5.126751899719238 64.28958892822266 255 255 255
-37.47705078125 2.872049570083618 48.4372673034668 255 255 255
13.371756553649902 6.326620578765869 130.94552612304688 255 255 255
-29.01417350769043 3.839029312133789 74.43213653564453 255 255 255
-31.31446075439453 -0.2867077887058258 81.65863800048828 255 255 255
-29.112998962402344 3.9389891624450684 72.86259460449219 255 255 255
-28.198362350463867 4.708034038543701 73.6552505493164 255 255 255
-33.15561294555664 9.744951248168945 80.6801528930664 255 255 255
-28.184982299804688 9.091055870056152 74.69750213623047 255 255 255
-6.4325175285339355 4.7001237869262695 103.01852416992188 255 255 255
-25.6002140045166 1.9274028539657593 91.46558380126953 255 255 255
-24.172853469848633 -1.330023169517517 58.56087875366211 255 255 255
-23.039262771606445 -7.920480728149414 45.52452850341797 255 255 255
-21.366268157958984 -8.948589324951172 44.5285530090332 255 255 255
-19.692838668823242 -5.763691425323486 54.22542953491211 255 255 255
-0.5413844585418701 3.3086068630218506 20.230573654174805 255 255 255
-0.510029673576355 3.323206901550293 21.45571517944336 255 255 255
-8.505463600158691 3.875952959060669 29.209022521972656 255 255 255
-16.60529899597168 4.739089488983154 80.15219116210938 255 255 255
-84.37165069580078 15.22970199584961 212.666015625 255 255 255
-44.00970458984375 4.987643718719482 68.20166015625 255 255 255
-24.60234260559082 3.1312832832336426 99.7965087890625 255 255 255
-25.8271541595459 6.169466018676758 99.07083129882812 255 255 255
-19.164730072021484 6.448491096496582 100.66625213623047 255 255 255
-15.84956169128418 9.555449485778809 100.75320434570312 255 255 255
-18.318090438842773 7.349915981292725 104.74044036865234 255 255 255
-19.10207748413086 4.617886066436768 92.36280059814453 255 255 255
-56.29018020629883 -2.061478614807129 58.692989349365234 255 255 255
-42.87955856323242 4.6557769775390625 71.56776428222656 255 255 255
-45.237491607666016 4.640246391296387 68.71218872070312 255 255 255
-42.88642120361328 2.5431461334228516 73.34696960449219 255 255 255
-43.6656608581543 8.35571002960205 64.29846954345703 255 255 255
-26.485177993774414 1.8034998178482056 76.65856170654297 255 255 255
-9.146875381469727 3.099635124206543 84.73548126220703 255 255 255
-27.89595603942871 2.0538101196289062 75.73495483398438 255 255 255
-39.40479278564453 -0.3201597034931183 63.84773635864258 255 255 255
-37.74401092529297 0.4533086121082306 50.96623229980469 255 255 255
-35.27511978149414 6.660698890686035 48.556434631347656 255 255 255
-40.03302764892578 6.74264669418335 50.37428283691406 255 255 255
-61.02234649658203 -8.304218292236328 58.364898681640625 255 255 255
-38.89272689819336 7.0815653800964355 48.842124938964844 255 255 255
-16.90213394165039 -7.874731540679932 70.39393615722656 255 255 255
-18.810726165771484 6.689727306365967 110.57893371582031 255 255 255
-0.8590107560157776 2.816873550415039 21.05052375793457 255 255 255
-2.959678888320923 4.6256914138793945 32.90915298461914 255 255 255
-0.02510145865380764 2.827317237854004 14.321136474609375 255 255 255
0.8890177011489868 1.405091404914856 14.404216766357422 255 255 255
2.4712586402893066 0.5486371517181396 17.90578842163086 255 255 255
-23.422014236450195 -11.940544128417969 46.083778381347656 255 255 255
-6.156153678894043 5.223640441894531 35.09203338623047 255 255 255
-0.5449286103248596 2.259808301925659 32.069793701171875 255 255 255
0.29219570755958557 1.9827256202697754 18.106369018554688 255 255 255
-12.427115440368652 8.430974960327148 76.58670806884766 255 255 255
-45.65678787231445 6.693668365478516 64.72599029541016 255 255 255
-16.58700942993164 6.863663196563721 54.22913360595703 255 255 255
-26.418001174926758 4.375377178192139 57.535640716552734 255 255 255
-41.08652877807617 4.29322624206543 75.73986053466797 255 255 255
-40.84716796875 1.9397224187850952 149.15057373046875 255 255 255
-51.610809326171875 -1.5704882144927979 117.23725891113281 255 255 255
-102.1021499633789 14.405004501342773 149.85873413085938 255 255 255
-41.451141357421875 4.600646018981934 72.16812896728516 255 255 255
-48.60926055908203 4.713294982910156 65.1229019165039 255 255 255
-82.07161712646484 -0.5452141165733337 67.61326599121094 255 255 255
-41.185791015625 2.6939263343811035 59.591827392578125 255 255 255
-53.018714904785156 8.313730239868164 54.14328384399414 255 255 255
-5.963991165161133 -2.5407252311706543 60.71705627441406 255 255 255
-9.305094718933105 -2.2896313667297363 64.80209350585938 255 255 255
-6.02128791809082 5.732325553894043 42.997833251953125 255 255 255
-11.525599479675293 0.583311140537262 70.24724578857422 255 255 255
-56.54414367675781 1.383813738822937 65.68226623535156 255 255 255
-117.91232299804688 11.595268249511719 79.47724151611328 255 255 255
-72.62916564941406 -2.220787525177002 62.964599609375 255 255 255
-99.94233703613281 8.1762113571167 64.43815612792969 255 255 255
-48.35358428955078 8.235809326171875 62.16554641723633 255 255 255
-82.896728515625 2.4748690128326416 60.30281448364258 255 255 255
-74.06884765625 2.2765278816223145 61.83382797241211 255 255 255
-65.10228729248047 5.536635875701904 67.9650650024414 255 255 255
-25.1699275970459 -10.802770614624023 54.50684356689453 255 255 255
0.4336591958999634 0.5017011761665344 18.528024673461914 255 255 255
-24.628986358642578 -6.535419940948486 45.285457611083984 255 255 255
-35.95170974731445 3.9026455879211426 89.49871826171875 255 255 255
-22.948474884033203 4.4398603439331055 84.69514465332031 255 255 255
-20.057340621948242 6.613865375518799 91.75148010253906 255 255 255
-27.702674865722656 2.0154366493225098 75.33518981933594 255 255 255
-6.938303470611572 5.831695079803467 43.875457763671875 255 255 255
-42.6214599609375 8.45340633392334 58.137855529785156 255 255 255
-49.262420654296875 7.859395980834961 51.832942962646484 255 255 255
-44.81305694580078 8.6854829788208 61.74882507324219 255 255 255
79.8594741821289 -3.0251073837280273 4.433621406555176 255 255 255
-37.250022888183594 -15.003047943115234 -42.38725662231445 255 255 255
82.1394271850586 -6.78835391998291 0.7545933127403259 255 255 255
44.3905143737793 -20.480979919433594 -7.496140003204346 255 255 255
47.589786529541016 -1.1921963691711426 -5.989160060882568 255 255 255
-28.589771270751953 7.73298454284668 55.23583221435547 255 255 255
-28.556697845458984 7.71633243560791 55.20294952392578 255 255 255
-37.50163650512695 8.254737854003906 57.61134719848633 255 255 255
-44.537132263183594 4.891609191894531 62.6329345703125 255 255 255
-64.59220123291016 -7.1735944747924805 60.612403869628906 255 255 255
-52.996402740478516 7.628695011138916 60.656795501708984 255 255 255
-36.29643249511719 7.91414213180542 53.311256408691406 255 255 255
-20.985946655273438 -6.063652992248535 42.3864860534668 255 255 255
-19.703046798706055 3.228301763534546 122.2931900024414 255 255 255
-18.47220230102539 10.324442863464355 108.87976837158203 255 255 255
-15.265754699707031 9.360819816589355 95.27994537353516 255 255 255
-22.107603073120117 10.271984100341797 104.54796600341797 255 255 255
-17.310440063476562 9.465856552124023 95.42306518554688 255 255 255
-18.020051956176758 9.912285804748535 99.07269287109375 255 255 255
-17.623355865478516 9.447741508483887 98.86917114257812 255 255 255
-17.622682571411133 9.675209999084473 100.2850112915039 255 255 255
-5.988945007324219 4.997586250305176 34.069305419921875 255 255 255
-22.484317779541016 -7.427498817443848 42.08690643310547 255 255 255
-21.298208236694336 -1.764810562133789 52.958927154541016 255 255 255
-0.877802848815918 1.2947720289230347 30.437225341796875 255 255 255
-0.5770122408866882 3.3355774879455566 19.325849533081055 255 255 255
-16.846786499023438 -9.098847389221191 55.939022064208984 255 255 255
-19.31162452697754 -11.969194412231445 55.52975845336914 255 255 255
-40.659019470214844 -0.5406820178031921 49.811439514160156 255 255 255
-40.00001525878906 5.409787654876709 48.381404876708984 255 255 255
-59.21947479248047 8.710312843322754 57.043216705322266 255 255 255
-44.27635192871094 7.729437828063965 68.95940399169922 255 255 255
-53.23094940185547 4.715534687042236 64.83183288574219 255 255 255
-77.30724334716797 -6.152022361755371 65.87644958496094 255 255 255
-53.297393798828125 4.745666980743408 64.48358917236328 255 255 255
-40.38760757446289 0.46502724289894104 49.01728057861328 255 255 255
-42.12819290161133 6.171748161315918 47.18891525268555 255 255 255
-21.166259765625 7.107489109039307 124.39337921142578 255 255 255
-15.688279151916504 5.795467376708984 98.09908294677734 255 255 255
-69.97904205322266 1.4287354946136475 68.19733428955078 255 255 255
-93.26502990722656 -2.1000614166259766 67.6155014038086 255 255 255
-73.80803680419922 7.674234390258789 60.85255432128906 255 255 255
-96.58720397949219 6.494955062866211 67.5372085571289 255 255 255
-101.80534362792969 11.385451316833496 103.07917785644531 255 255 255
-57.279388427734375 9.442115783691406 97.8068618774414 255 255 255
-44.21662139892578 5.473791599273682 68.35334777832031 255 255 255
-87.85670471191406 5.633564472198486 103.48245239257812 255 255 255
-42.8943977355957 8.333930969238281 67.64461517333984 255 255 255
-44.26283645629883 3.2628962993621826 72.484619140625 255 255 255
-45.10081481933594 8.27684497833252 68.84291076660156 255 255 255
-42.91923904418945 3.492978572845459 72.19664001464844 255 255 255
26.392560958862305 9.612142562866211 122.55912017822266 255 255 255
76.99258422851562 0.5996204018592834 135.54566955566406 255 255 255
6.8841962814331055 3.6722137928009033 115.48299407958984 255 255 255
5.24287223815918 9.110021591186523 115.6042709350586 255 255 255
-0.600311279296875 2.2080674171447754 30.900510787963867 255 255 255
-21.775955200195312 -8.284202575683594 51.74858856201172 255 255 255
-6.366269588470459 3.442229747772217 18.1490535736084 255 255 255
-2.4701144695281982 5.442424774169922 34.49295425415039 255 255 255
-17.74704360961914 -2.484816074371338 58.83198928833008 255 255 255
-8.135466575622559 4.603270530700684 28.72198486328125 255 255 255
-51.0416374206543 -5.981926918029785 593.6288452148438 255 255 255
-25.792503356933594 -5.200453758239746 49.3316535949707 255 255 255
0.6049458384513855 0.40667369961738586 16.4583740234375 255 255 255
-25.732418060302734 -3.3130598068237305 42.02399444580078 255 255 255
-25.826353073120117 -6.4816083908081055 43.70257568359375 255 255 255
-1.7979494333267212 4.0822672843933105 27.089927673339844 255 255 255
-19.89483642578125 -6.8467020988464355 38.993656158447266 255 255 255
0.5747264623641968 0.6330602169036865 18.457792282104492 255 255 255
-22.363887786865234 -9.013625144958496 42.907470703125 255 255 255
-20.986621856689453 -12.830305099487305 59.35405349731445 255 255 255
0.4076927602291107 0.500932514667511 18.59868049621582 255 255 255
-7.707934379577637 0.2289455533027649 20.20977210998535 255 255 255
-0.8882499933242798 1.4290993213653564 31.56316566467285 255 255 255
-1.067467451095581 -1.5158761739730835 32.43316650390625 255 255 255
-43.8416862487793 3.9964656829833984 67.78290557861328 255 255 255
-44.96123123168945 5.278375625610352 68.06314849853516 255 255 255
-122.45771026611328 14.358731269836426 109.22760772705078 255 255 255
-73.25653076171875 -5.209834575653076 56.60943603515625 255 255 255
-39.60195541381836 5.688621997833252 46.54475402832031 255 255 255
-39.246402740478516 8.120548248291016 56.69412612915039 255 255 255
-48.06859588623047 6.1951422691345215 65.08216857910156 255 255 255
-41.41361999511719 8.640426635742188 68.45382690429688 255 255 255
-42.538265228271484 3.9156367778778076 72.17362976074219 255 255 255
-42.026878356933594 0.921076238155365 173.24375915527344 255 255 255
-113.03517150878906 2.835449695587158 163.4390411376953 255 255 255
-31.271326065063477 -0.08131112158298492 65.79467010498047 255 255 255
-34.77220153808594 1.594378113746643 56.46621322631836 255 255 255
-32.56356430053711 0.9873304963111877 59.06319808959961 255 255 255
-38.80101013183594 8.843022346496582 70.56824493408203 255 255 255
-98.01529693603516 1.8605096340179443 56.17517852783203 255 255 255
-36.054542541503906 0.7747227549552917 56.84153747558594 255 255 255
-28.269834518432617 2.306696891784668 52.17169952392578 255 255 255
-9.89579963684082 1.4609533548355103 31.619800567626953 255 255 255
-6.126164436340332 -2.6759817600250244 63.0026741027832 255 255 255
-19.005929946899414 -13.544290542602539 54.65154266357422 255 255 255
-7.342227458953857 2.80471134185791 21.787439346313477 255 255 255
0.18039606511592865 3.1511735916137695 19.18157958984375 255 255 255
21.551860809326172 7.099643707275391 125.67884826660156 255 255 255
0.973446786403656 10.551490783691406 124.57615661621094 255 255 255
7.980892181396484 -0.568438708782196 129.56494140625 255 255 255
35.87158966064453 8.23017692565918 129.24159240722656 255 255 255
22.4666748046875 5.662721157073975 126.78247833251953 255 255 255
32.129730224609375 3.413712978363037 129.36349487304688 255 255 255
13.330639839172363 3.7194201946258545 127.87218475341797 255 255 255
-8.969795227050781 10.709693908691406 119.88591766357422 255 255 255
-68.0823745727539 -3.269453525543213 56.29310607910156 255 255 255
-49.485260009765625 4.024656772613525 63.3746452331543 255 255 255
-71.50676727294922 4.535811901092529 70.86600494384766 255 255 255
-89.96076965332031 2.4296016693115234 69.73837280273438 255 255 255
-39.812217712402344 8.5352201461792 57.39272689819336 255 255 255
-79.3516616821289 -0.6291935443878174 68.02001953125 255 255 255
-37.819332122802734 8.474333763122559 57.73881149291992 255 255 255
-26.219940185546875 7.645035743713379 73.29625701904297 255 255 255
-18.06808090209961 6.134067058563232 113.53108978271484 255 255 255
-34.19793701171875 2.3087427616119385 85.75608825683594 255 255 255
122.20553588867188 -2.911853313446045 95.27804565429688 255 255 255
104.4989242553711 1.3827540874481201 104.55015563964844 255 255 255
121.49647521972656 -1.923353672027588 51.120391845703125 255 255 255
103.71015930175781 0.9519966840744019 85.63960266113281 255 255 255
98.72461700439453 0.627949595451355 89.80353546142578 255 255 255
-10.708712577819824 3.1501970291137695 32.18547439575195 255 255 255
-25.513355255126953 -2.4856905937194824 49.44921112060547 255 255 255
-10.299524307250977 5.327632427215576 72.36311340332031 255 255 255
-51.54867172241211 7.983415126800537 52.750938415527344 255 255 255
-83.94488525390625 -4.742779731750488 66.70291137695312 255 255 255
-77.48074340820312 8.908337593078613 76.39362335205078 255 255 255
-38.0554313659668 4.425602912902832 71.64676666259766 255 255 255
-42.70779037475586 3.362384796142578 73.04096221923828 255 255 255
-36.09126281738281 3.2286899089813232 74.2136459350586 255 255 255
-38.13874053955078 3.0775585174560547 78.31597137451172 255 255 255
-10.02381706237793 8.10291862487793 133.4624481201172 255 255 255
-38.115631103515625 5.572800636291504 78.50428009033203 255 255 255
-31.273269653320312 -0.9527075886726379 83.80060577392578 255 255 255
-38.46907424926758 8.172011375427246 60.36353302001953 255 255 255
-25.616437911987305 3.940635919570923 67.13212585449219 255 255 255
-26.198795318603516 6.644363880157471 56.20199203491211 255 255 255
-32.92998504638672 2.327847957611084 56.31858444213867 255 255 255
-25.64828872680664 3.309451103210449 60.81370162963867 255 255 255
-39.046016693115234 -4.788082599639893 59.118038177490234 255 255 255
-5.887537002563477 2.8892955780029297 61.86594772338867 255 255 255
-9.782387733459473 -5.892857074737549 68.0471420288086 255 255 255
-29.218652725219727 7.185204029083252 49.896297454833984 255 255 255
-34.28377151489258 2.3936169147491455 63.55744171142578 255 255 255
-65.8381576538086 3.2798542976379395 65.14921569824219 255 255 255
-47.86030197143555 7.636838912963867 61.18269348144531 255 255 255
8.860557556152344 2.467642307281494 116.06703186035156 255 255 255
12.679422378540039 4.873452186584473 115.93408203125 255 255 255
25.281299591064453 -3.7012767791748047 136.73097229003906 255 255 255
