-21.709129333496094 -7.693918228149414 -45.63942337036133 255 255 255
-21.032407760620117 -6.68013334274292 -45.144630432128906 255 255 255
-21.23674964904785 -8.04836368560791 -45.283329010009766 255 255 255
-21.30002212524414 -8.048110008239746 -45.42430877685547 255 255 255
11.163680076599121 -6.022284030914307 -45.341278076171875 255 255 255
-21.387378692626953 -9.137117385864258 -44.52784729003906 255 255 255
-19.213966369628906 -6.38397216796875 -43.56205368041992 255 255 255
-19.328882217407227 -8.111493110656738 -43.385986328125 255 255 255
-13.615081787109375 -13.668581008911133 -34.56208038330078 255 255 255
-18.827665328979492 -7.6327619552612305 -42.981510162353516 255 255 255
-21.09447479248047 -11.094670295715332 -43.86858367919922 255 255 255
-21.531776428222656 -7.592751979827881 -45.847373962402344 255 255 255
-21.60147476196289 -7.676591873168945 -45.45431900024414 255 255 255
-21.534751892089844 -8.075738906860352 -45.77394485473633 255 255 255
-20.6232967376709 -6.422583103179932 -44.834930419921875 255 255 255
-19.25967788696289 -6.153973579406738 -46.78163528442383 255 255 255
-21.422231674194336 -7.572477340698242 -45.897335052490234 255 255 255
-21.626293182373047 -6.4042134284973145 -45.59780502319336 255 255 255
-21.211896896362305 -6.135664463043213 -47.1103515625 255 255 255
-17.675048828125 -6.751492023468018 -50.11189651489258 255 255 255
-18.38507652282715 -6.8970441818237305 -50.38059616088867 255 255 255
-18.12909698486328 -8.860211372375488 -51.24394607543945 255 255 255
-21.39667510986328 -7.9528889656066895 -45.231502532958984 255 255 255
-21.369810104370117 -7.55293607711792 -45.600074768066406 255 255 255
-18.290203094482422 -7.62101411819458 -52.54144287109375 255 255 255
-17.000967025756836 -9.894242286682129 -42.46666717529297 255 255 255
-21.6018123626709 -8.744964599609375 -45.23963165283203 255 255 255
-21.577648162841797 -8.760154724121094 -45.19961929321289 255 255 255
-22.303424835205078 -9.83993148803711 -52.773780822753906 255 255 255
-24.201242446899414 -7.438490390777588 -48.34086227416992 255 255 255
-21.278806686401367 -6.303110122680664 -45.59843444824219 255 255 255
-21.095041275024414 -8.054636001586914 -44.98165512084961 255 255 255
-20.075035095214844 -5.78605842590332 -45.24241256713867 255 255 255
-20.518465042114258 -5.956775188446045 -45.78242874145508 255 255 255
-20.642921447753906 -6.441349029541016 -44.85325622558594 255 255 255
-19.80976676940918 -7.39371919631958 -44.04945755004883 255 255 255
-20.290897369384766 -7.868776321411133 -44.564571380615234 255 255 255
-15.155725479125977 -5.954570770263672 -45.11976623535156 255 255 255
-13.130636215209961 -5.466456890106201 -43.58792495727539 255 255 255
-20.792694091796875 -8.216567993164062 -44.82087707519531 255 255 255
-19.813697814941406 -7.739163398742676 -44.394737243652344 255 255 255
-15.963112831115723 -11.65024185180664 -48.595741271972656 255 255 255
-19.159543991088867 -6.181032180786133 -43.56172180175781 255 255 255
-20.71712875366211 -6.918445587158203 -44.7070426940918 255 255 255
-21.688339233398438 -6.076005935668945 -45.8990478515625 255 255 255
-20.752887725830078 -8.212799072265625 -44.73196029663086 255 255 255
-15.692560195922852 -10.355656623840332 -47.944149017333984 255 255 255
-19.231529235839844 -8.117170333862305 -43.20087814331055 255 255 255
-15.92461109161377 -10.543254852294922 -47.67078399658203 255 255 255
-19.51546287536621 -7.15280294418335 -43.86753463745117 255 255 255
-13.299444198608398 -6.818748474121094 -49.596858978271484 255 255 255
-18.49332046508789 -6.290308952331543 -47.30588912963867 255 255 255
-19.21449851989746 -6.485811233520508 -47.871273040771484 255 255 255
-19.7130069732666 -6.620542049407959 -48.236148834228516 255 255 255
-16.91468048095703 -6.546639442443848 -48.588966369628906 255 255 255
-20.305627822875977 -10.616175651550293 -44.321868896484375 255 255 255
-19.6143856048584 -7.707327365875244 -43.95149612426758 255 255 255
-15.440311431884766 -5.9022626876831055 -45.44630813598633 255 255 255
-19.536266326904297 -5.870534420013428 -45.57557678222656 255 255 255
-19.923810958862305 -5.773617744445801 -44.45838928222656 255 255 255
-13.031084060668945 -6.8137030601501465 -50.2299690246582 255 255 255
-21.266462326049805 -7.553348541259766 -45.64952087402344 255 255 255
-21.452545166015625 -7.569350719451904 -45.719505310058594 255 255 255
-17.959022521972656 -7.245893955230713 -51.050872802734375 255 255 255
-13.018295288085938 -6.178948402404785 -48.90956497192383 255 255 255
-19.033246994018555 -7.604400634765625 -43.430667877197266 255 255 255
-17.84968376159668 -7.35666561126709 -42.5274658203125 255 255 255
-14.544078826904297 -10.907092094421387 -48.69661331176758 255 255 255
-15.047111511230469 -10.686193466186523 -48.23063278198242 255 255 255
-18.871273040771484 -9.62841510772705 -43.38267517089844 255 255 255
-18.82698631286621 -9.649053573608398 -43.29656982421875 255 255 255
-18.120006561279297 -10.88622760772705 -44.823081970214844 255 255 255
-19.55173110961914 -11.012409210205078 -41.19318771362305 255 255 255
-17.230653762817383 -5.82955265045166 -44.457252502441406 255 255 255
-15.110809326171875 -10.742630958557129 -48.86114501953125 255 255 255
-16.62905502319336 -9.783615112304688 -44.571495056152344 255 255 255
-18.27484130859375 -7.267736434936523 -42.92392349243164 255 255 255
-12.762383460998535 -8.195448875427246 -47.264190673828125 255 255 255
-21.209321975708008 -8.040909767150879 -45.2447395324707 255 255 255
-15.729293823242188 -7.138412952423096 -50.8307991027832 255 255 255
-19.043235778808594 -5.858587265014648 -44.93781280517578 255 255 255
-17.954967498779297 -5.605205059051514 -43.992862701416016 255 255 255
-19.705930709838867 -7.4717888832092285 -43.32374572753906 255 255 255
-20.074825286865234 -10.731204986572266 -43.8951301574707 255 255 255
-19.670316696166992 -7.629050254821777 -43.61723327636719 255 255 255
-19.206390380859375 -7.681408882141113 -43.17974853515625 255 255 255
-19.147844314575195 -7.662985324859619 -43.0728645324707 255 255 255
-19.086687088012695 -6.325742244720459 -43.35258483886719 255 255 255
-19.621990203857422 -6.470738410949707 -44.21394348144531 255 255 255
-17.39629554748535 -7.2778825759887695 -41.513423919677734 255 255 255
-14.453580856323242 -8.192926406860352 -45.92827224731445 255 255 255
-17.04294776916504 -6.551913738250732 -48.66680908203125 255 255 255
-16.345544815063477 -11.505209922790527 -48.767555236816406 255 255 255
-17.59440803527832 -5.495275020599365 -42.288230895996094 255 255 255
-15.72817325592041 -12.191383361816406 -48.2583122253418 255 255 255
-14.940528869628906 -10.781682014465332 -48.80980682373047 255 255 255
-13.09174633026123 -13.159031867980957 -47.446224212646484 255 255 255
-14.118712425231934 -11.335016250610352 -50.170982360839844 255 255 255
-15.976158142089844 -5.945281505584717 -45.14845275878906 255 255 255
-15.173513412475586 -10.717044830322266 -48.93343734741211 255 255 255
-13.166396141052246 -10.286591529846191 -40.63665008544922 255 255 255
-13.109724998474121 -8.65367603302002 -46.550537109375 255 255 255
-13.54884147644043 -8.107121467590332 -46.81140899658203 255 255 255
-20.354555130004883 -8.75106430053711 -45.01374816894531 255 255 255
-19.107460021972656 -8.123312950134277 -42.93022537231445 255 255 255
-14.983088493347168 -10.695579528808594 -48.211639404296875 255 255 255
-14.185751914978027 -10.958544731140137 -47.910037994384766 255 255 255
-15.795158386230469 -10.723305702209473 -47.72421646118164 255 255 255
-14.911038398742676 -10.709017753601074 -48.19858169555664 255 255 255
-14.603019714355469 -10.933675765991211 -48.722618103027344 255 255 255
-18.998823165893555 -9.368071556091309 -43.626285552978516 255 255 255
-18.89385414123535 -9.368332862854004 -43.449737548828125 255 255 255
-18.37372398376465 -9.621713638305664 -43.37856674194336 255 255 255
-15.94906234741211 -7.201082706451416 -50.26767349243164 255 255 255
-18.34882164001465 -6.302690029144287 -45.3880615234375 255 255 255
-16.49161720275879 -5.411067962646484 -42.635887145996094 255 255 255
-19.382352828979492 -7.126855373382568 -43.90935516357422 255 255 255
-19.422794342041016 -7.135199546813965 -43.97674560546875 255 255 255
-19.527820587158203 -7.184618949890137 -44.16300582885742 255 255 255
-19.314525604248047 -7.646098613739014 -43.965877532958984 255 255 255
-18.731576919555664 -6.0927042961120605 -43.00426483154297 255 255 255
-18.79393768310547 -6.113893985748291 -43.11128616333008 255 255 255
-14.91940689086914 -6.564929485321045 -48.20231246948242 255 255 255
-13.001620292663574 -8.1016845703125 -47.809207916259766 255 255 255
-13.67017936706543 -8.114274024963379 -46.861122131347656 255 255 255
-12.808688163757324 -8.081387519836426 -46.80547332763672 255 255 255
-14.307665824890137 -8.486419677734375 -46.02035140991211 255 255 255
-12.332775115966797 -8.454748153686523 -47.343849182128906 255 255 255
-17.221698760986328 -6.131515026092529 -40.933006286621094 255 255 255
-14.995319366455078 -10.693687438964844 -48.21061706542969 255 255 255
-10.293129920959473 -12.199856758117676 -29.77173614501953 255 255 255
-18.956378936767578 -7.593252658843994 -43.22796630859375 255 255 255
-14.492727279663086 -9.806034088134766 -42.2460823059082 255 255 255
-14.537853240966797 -9.794631004333496 -42.27650451660156 255 255 255
-13.37137222290039 -8.68836498260498 -45.674896240234375 255 255 255
-13.07816219329834 -8.018046379089355 -46.551692962646484 255 255 255
-18.14459991455078 -7.39577054977417 -43.26044845581055 255 255 255
-14.895550727844238 -10.719118118286133 -48.18353271484375 255 255 255
-18.158361434936523 -7.398531436920166 -43.27415466308594 255 255 255
-14.825250625610352 -10.767465591430664 -48.16299057006836 255 255 255
-18.862323760986328 -10.237177848815918 -40.756134033203125 255 255 255
-16.649391174316406 -4.911531448364258 -40.75515365600586 255 255 255
-15.636686325073242 -10.775739669799805 -47.801055908203125 255 255 255
-19.286333084106445 -6.288788318634033 -43.80196762084961 255 255 255
-14.948798179626465 -10.776988983154297 -48.8123664855957 255 255 255
-19.40825653076172 -7.715916633605957 -43.54542541503906 255 255 255
-14.910735130310059 -10.737884521484375 -48.16958236694336 255 255 255
-19.0058650970459 -8.13231372833252 -42.623565673828125 255 255 255
-7.6430983543396 -13.601195335388184 -44.3167724609375 255 255 255
-17.02359962463379 -5.626512050628662 -43.313392639160156 255 255 255
-16.720306396484375 -9.642219543457031 -42.57261657714844 255 255 255
-17.449567794799805 -5.430072784423828 -42.060768127441406 255 255 255
-17.17435646057129 -11.238442420959473 -42.97700500488281 255 255 255
-19.10365104675293 -7.617703437805176 -43.54893112182617 255 255 255
-18.104434967041016 -7.5340576171875 -40.53833770751953 255 255 255
-11.742236137390137 -3.215433120727539 -36.87832260131836 255 255 255
-20.072874069213867 -7.678826332092285 -44.31782531738281 255 255 255
-19.710521697998047 -7.636298656463623 -43.690616607666016 255 255 255
-19.671783447265625 -7.732294082641602 -44.06218338012695 255 255 255
-16.67403793334961 -5.45578145980835 -42.799468994140625 255 255 255
-17.12866973876953 -9.9666748046875 -42.779296875 255 255 255
-13.985772132873535 -8.068187713623047 -47.18678665161133 255 255 255
-19.34815788269043 -7.1055731773376465 -43.810707092285156 255 255 255
-13.553315162658691 -8.024856567382812 -47.042945861816406 255 255 255
-14.379531860351562 -8.139296531677246 -47.75618362426758 255 255 255
-13.42139720916748 -8.046433448791504 -46.99957275390625 255 255 255
-11.676654815673828 -9.762527465820312 -47.5901985168457 255 255 255
-13.1298828125 -8.22106647491455 -47.84322738647461 255 255 255
-12.77175521850586 -8.485745429992676 -47.80784225463867 255 255 255
-18.163864135742188 -9.77629566192627 -42.898521423339844 255 255 255
-12.599699020385742 -8.497577667236328 -47.600276947021484 255 255 255
-13.654967308044434 -8.158032417297363 -47.63344192504883 255 255 255
8.830076217651367 -13.350528717041016 -42.50926971435547 255 255 255
1.9644113779067993 -12.138627052307129 -44.21156311035156 255 255 255
-16.361522674560547 -8.217103958129883 -37.4532585144043 255 255 255
-13.064770698547363 -8.479470252990723 -47.87538146972656 255 255 255
-15.562993049621582 -10.4024076461792 -47.904056549072266 255 255 255
-18.55710792541504 -8.827418327331543 -45.67463302612305 255 255 255
-15.327195167541504 -10.835956573486328 -47.7114143371582 255 255 255
-16.571199417114258 -9.43014144897461 -42.688236236572266 255 255 255
-18.230945587158203 -8.418243408203125 -41.61604309082031 255 255 255
-17.10894012451172 -9.29173469543457 -43.406673431396484 255 255 255
-9.311737060546875 -5.0479631423950195 -39.36090087890625 255 255 255
-15.918011665344238 -10.451026916503906 -45.78441619873047 255 255 255
-16.10613250732422 -10.472418785095215 -47.74375534057617 255 255 255
-12.772119522094727 -7.324243068695068 -46.68522262573242 255 255 255
-10.688809394836426 -7.202488422393799 -46.17961502075195 255 255 255
-13.922324180603027 -8.578197479248047 -45.92770004272461 255 255 255
-13.284339904785156 -8.267534255981445 -46.41989517211914 255 255 255
-17.462282180786133 -5.766772270202637 -41.43720245361328 255 255 255
-13.538684844970703 -9.07933235168457 -45.69354248046875 255 255 255
-16.170045852661133 -10.073591232299805 -42.890342712402344 255 255 255
-17.114479064941406 -6.079750061035156 -40.71702575683594 255 255 255
-11.820831298828125 -8.402752876281738 -46.24860763549805 255 255 255
-17.917827606201172 -7.548759937286377 -42.831634521484375 255 255 255
-13.417174339294434 -8.030411720275879 -46.99662399291992 255 255 255
-13.380186080932617 -8.021958351135254 -46.99061584472656 255 255 255
-17.26535415649414 -9.982410430908203 -42.292659759521484 255 255 255
-12.907341957092285 -6.690279483795166 -47.64381408691406 255 255 255
-14.062301635742188 -5.647984981536865 -36.32035446166992 255 255 255
-13.690580368041992 -9.42018985748291 -45.91738510131836 255 255 255
-13.494829177856445 -9.48726749420166 -45.83964538574219 255 255 255
-13.545038223266602 -9.516797065734863 -46.18991470336914 255 255 255
-13.08111572265625 -9.680174827575684 -46.005699157714844 255 255 255
-13.443307876586914 -9.550986289978027 -46.16646957397461 255 255 255
-13.152251243591309 -8.043927192687988 -46.42094039916992 255 255 255
-12.771991729736328 -10.434626579284668 -46.41389465332031 255 255 255
-13.275914192199707 -8.044913291931152 -46.46686553955078 255 255 255
-13.149341583251953 -7.996807098388672 -46.5822868347168 255 255 255
-17.983257293701172 -7.364319324493408 -42.91193771362305 255 255 255
-12.995765686035156 -8.05087947845459 -46.38104248046875 255 255 255
-10.485489845275879 -8.079669952392578 -45.43885803222656 255 255 255
-13.179137229919434 -7.999602317810059 -46.57817077636719 255 255 255
-13.153739929199219 -8.00137996673584 -46.57062530517578 255 255 255
-13.296417236328125 -8.011474609375 -46.606510162353516 255 255 255
-16.940757751464844 -6.1901092529296875 -40.405853271484375 255 255 255
-13.108891487121582 -8.044670104980469 -46.4201774597168 255 255 255
-12.887885093688965 -10.391464233398438 -46.443904876708984 255 255 255
-14.640796661376953 -8.436115264892578 -46.97880172729492 255 255 255
-16.56619644165039 -5.7914042472839355 -40.26660919189453 255 255 255
-17.536951065063477 -5.826010227203369 -41.61127853393555 255 255 255
-17.996503829956055 -7.367849826812744 -42.950538635253906 255 255 255
-12.730064392089844 -7.314635276794434 -46.688270568847656 255 255 255
-12.9245023727417 -8.677902221679688 -46.49771499633789 255 255 255
-15.876959800720215 -10.268584251403809 -42.61221694946289 255 255 255
-12.882696151733398 -8.346315383911133 -46.6634407043457 255 255 255
-14.220821380615234 -8.502909660339355 -45.99310302734375 255 255 255
-13.297704696655273 -8.318812370300293 -46.796348571777344 255 255 255
-17.11332893371582 -6.372855186462402 -40.63529586791992 255 255 255
-13.819299697875977 -8.680529594421387 -46.09855651855469 255 255 255
-13.459742546081543 -8.058608055114746 -47.01290512084961 255 255 255
-12.37239933013916 -6.505962371826172 -46.33018493652344 255 255 255
-18.160694122314453 -7.581963062286377 -43.367652893066406 255 255 255
-18.055374145507812 -7.376809120178223 -43.082611083984375 255 255 255
-13.316865921020508 -8.148656845092773 -47.91164779663086 255 255 255
-10.650749206542969 -8.650437355041504 -47.412574768066406 255 255 255
-12.853872299194336 -9.48095989227295 -46.42474365234375 255 255 255
-12.829870223999023 -10.41140079498291 -46.4300537109375 255 255 255
-6.5575737953186035 -10.966878890991211 -44.24888610839844 255 255 255
-14.54915714263916 -9.748872756958008 -42.29405975341797 255 255 255
-10.62952995300293 -6.856680870056152 -46.08888244628906 255 255 255
-12.383462905883789 -9.571636199951172 -46.27544021606445 255 255 255
-1.224164605140686 -12.245141983032227 -42.58639144897461 255 255 255
-12.998641967773438 -9.006250381469727 -46.75835037231445 255 255 255
-13.112141609191895 -8.19396686553955 -47.33642578125 255 255 255
-17.194786071777344 -5.271519660949707 -41.5401496887207 255 255 255
-16.974777221679688 -10.055276870727539 -42.51915740966797 255 255 255
-16.764251708984375 -10.197574615478516 -41.60622024536133 255 255 255
-17.676952362060547 -6.978139400482178 -41.358726501464844 255 255 255
-17.18619155883789 -6.497848987579346 -40.74455642700195 255 255 255
-14.170348167419434 -8.329792976379395 -45.7371826171875 255 255 255
-13.37773323059082 -8.37956428527832 -47.59305953979492 255 255 255
-13.341482162475586 -8.016576766967773 -46.99094009399414 255 255 255
-13.76121997833252 -8.693175315856934 -46.083587646484375 255 255 255
-13.56074333190918 -8.8203125 -45.50859832763672 255 255 255
-14.530394554138184 -6.985866546630859 -38.13593292236328 255 255 255
-15.972225189208984 -6.644095420837402 -39.562156677246094 255 255 255
-15.630783081054688 -5.386940956115723 -39.37775421142578 255 255 255
-15.628826141357422 -6.336134433746338 -39.315834045410156 255 255 255
-15.74012279510498 -6.37514066696167 -39.59496307373047 255 255 255
-15.48318099975586 -5.34697961807251 -39.05889892578125 255 255 255
-12.837425231933594 -5.37614107131958 -41.25483322143555 255 255 255
-15.219772338867188 -6.63176965713501 -39.07435989379883 255 255 255
-13.588950157165527 -8.240171432495117 -46.519866943359375 255 255 255
-13.433242797851562 -8.255695343017578 -46.46049118041992 255 255 255
-14.662652969360352 -8.406060218811035 -46.184532165527344 255 255 255
-12.567479133605957 -8.089531898498535 -46.28963851928711 255 255 255
-12.99715518951416 -9.006897926330566 -46.74287796020508 255 255 255
-13.225800514221191 -8.011956214904785 -46.96657180786133 255 255 255
-12.572545051574707 -7.28788423538208 -46.27141571044922 255 255 255
-13.197588920593262 -8.647256851196289 -45.610374450683594 255 255 255
-11.473424911499023 -9.41010570526123 -45.79451370239258 255 255 255
-13.840249061584473 -8.643508911132812 -45.5065803527832 255 255 255
-16.70039939880371 -5.471799850463867 -40.71836471557617 255 255 255
-12.507543563842773 -8.08459758758545 -45.84354019165039 255 255 255
-12.158537864685059 -9.748913764953613 -43.926597595214844 255 255 255
-1.8216936588287354 -12.63668155670166 -32.981571197509766 255 255 255
-7.4099931716918945 -5.1558308601379395 -38.60354232788086 255 255 255
-8.564921379089355 -4.50852108001709 -35.67604064941406 255 255 255
-9.688475608825684 -7.741701126098633 -39.95412063598633 255 255 255
-14.789149284362793 -6.439848899841309 -38.88460159301758 255 255 255
-13.47972297668457 -8.656641006469727 -45.757450103759766 255 255 255
-14.095532417297363 -8.342835426330566 -45.70555877685547 255 255 255
-4.862217426300049 -11.554954528808594 -40.043418884277344 255 255 255
-11.013812065124512 -9.063214302062988 -45.56602096557617 255 255 255
-13.559206008911133 -8.597057342529297 -46.301570892333984 255 255 255
-11.692460060119629 -4.662539958953857 -37.22107696533203 255 255 255
-14.503052711486816 -6.994187355041504 -38.03632736206055 255 255 255
-7.462289810180664 -5.2830352783203125 -39.447364807128906 255 255 255
-8.083100318908691 -10.843202590942383 -33.34231948852539 255 255 255
-9.702994346618652 -11.259202003479004 -36.469661712646484 255 255 255
-8.699667930603027 -9.053484916687012 -36.954463958740234 255 255 255
-13.215598106384277 -5.902014255523682 -34.88551330566406 255 255 255
-7.30308198928833 -5.298501968383789 -39.016178131103516 255 255 255
-7.715953350067139 -5.391241073608398 -39.306251525878906 255 255 255
-12.260883331298828 -4.848855972290039 -37.893978118896484 255 255 255
-14.23485279083252 -8.337754249572754 -45.7524528503418 255 255 255
-13.844276428222656 -8.386183738708496 -45.60808563232422 255 255 255
-16.788267135620117 -7.432117462158203 -40.217227935791016 255 255 255
-12.779535293579102 -8.629536628723145 -46.19125747680664 255 255 255
-11.98691463470459 -9.393767356872559 -45.53867721557617 255 255 255
-13.086038589477539 -8.013836860656738 -46.94010543823242 255 255 255
-1.3314619064331055 -8.09871768951416 -31.157236099243164 255 255 255
-12.685726165771484 -4.441809177398682 -36.43675231933594 255 255 255
-12.538396835327148 -4.361845016479492 -36.108055114746094 255 255 255
-12.650442123413086 -4.336606502532959 -34.72804260253906 255 255 255
-9.602660179138184 -4.988314151763916 -38.18657302856445 255 255 255
5.965617656707764 -10.838359832763672 -34.420989990234375 255 255 255
-6.313934803009033 -8.128257751464844 -39.375308990478516 255 255 255
-11.575471878051758 -4.432613372802734 -36.625484466552734 255 255 255
-12.238251686096191 -6.9839582443237305 -46.55069351196289 255 255 255
-13.344165802001953 -8.429255485534668 -45.35724639892578 255 255 255
-11.598600387573242 -4.415694713592529 -36.638092041015625 255 255 255
-12.20313835144043 -6.788740158081055 -46.74949264526367 255 255 255
-12.496552467346191 -8.542888641357422 -45.89882278442383 255 255 255
-0.33744096755981445 -8.274028778076172 -30.277339935302734 255 255 255
-12.44680404663086 -4.619655609130859 -36.345947265625 255 255 255
-12.655742645263672 -4.385993480682373 -34.94978713989258 255 255 255
-13.34284496307373 -6.669605255126953 -36.03218078613281 255 255 255
-12.801289558410645 -4.560779094696045 -35.44105529785156 255 255 255
-12.666502952575684 -4.5387468338012695 -35.301185607910156 255 255 255
-1.623369812965393 -7.541109085083008 -33.6109504699707 255 255 255
-8.340598106384277 -9.701098442077637 -37.61977767944336 255 255 255
0.07199670374393463 -16.167755126953125 -6.642748832702637 255 255 255
-11.191847801208496 -7.9258575439453125 -37.86179733276367 255 255 255
20.866743087768555 -19.878131866455078 -31.614587783813477 255 255 255
-1.5518683195114136 -12.269866943359375 -39.75727844238281 255 255 255
-7.6841511726379395 -10.471405982971191 -34.107452392578125 255 255 255
-9.593494415283203 -8.48321533203125 -34.08696746826172 255 255 255
-9.740982055664062 -8.408973693847656 -34.30693435668945 255 255 255
-11.588172912597656 -4.828158855438232 -32.56912612915039 255 255 255
-9.444427490234375 -8.209965705871582 -35.27433776855469 255 255 255
-5.568206787109375 -6.398590564727783 -37.9417839050293 255 255 255
1.3048721551895142 -5.9529619216918945 -33.81824493408203 255 255 255
-12.492820739746094 -5.401665687561035 -34.60475158691406 255 255 255
-8.563490867614746 -8.864005088806152 -39.83786392211914 255 255 255
-7.996047019958496 -9.033356666564941 -39.48818588256836 255 255 255
-11.739034652709961 -4.270589351654053 -33.82915496826172 255 255 255
-11.235882759094238 -3.862133741378784 -32.228004455566406 255 255 255
-6.976931571960449 -10.372007369995117 -36.25434494018555 255 255 255
-10.123443603515625 -4.140041828155518 -33.926204681396484 255 255 255
-11.79797649383545 -5.14242696762085 -32.92024612426758 255 255 255
-11.69320011138916 -4.927652359008789 -33.07270812988281 255 255 255
-6.718479156494141 -6.435335636138916 -38.577640533447266 255 255 255
2.9276885986328125 -10.318379402160645 -38.169525146484375 255 255 255
-6.725361347198486 -8.782692909240723 -33.25089645385742 255 255 255
-9.040862083435059 -7.603882312774658 -38.466026306152344 255 255 255
-9.523401260375977 -9.869790077209473 -43.17867660522461 255 255 255
-11.684728622436523 -5.4641194343566895 -41.869606018066406 255 255 255
-12.494573593139648 -6.118163585662842 -33.9219856262207 255 255 255
-12.539462089538574 -4.875429153442383 -34.5966796875 255 255 255
-11.312923431396484 -3.9105799198150635 -32.533058166503906 255 255 255
-6.956887245178223 -9.243927001953125 -38.821266174316406 255 255 255
-7.182660102844238 -8.118365287780762 -39.977779388427734 255 255 255
8.80041790008545 -3.0953104496002197 -29.622364044189453 255 255 255
-9.55790901184082 -7.599799156188965 -38.97809600830078 255 255 255
-12.647555351257324 -6.157207489013672 -34.54806137084961 255 255 255
-8.297771453857422 -7.903271675109863 -38.80613708496094 255 255 255
-8.808527946472168 -9.956976890563965 -37.171852111816406 255 255 255
-8.458654403686523 -10.078481674194336 -36.88861846923828 255 255 255
-9.340572357177734 -5.013718605041504 -38.5201530456543 255 255 255
-12.772330284118652 -4.397634983062744 -35.02293395996094 255 255 255
-12.516470909118652 -5.111955642700195 -33.36704635620117 255 255 255
-12.721929550170898 -5.218225955963135 -33.93854904174805 255 255 255
-9.027623176574707 -4.807473182678223 -37.56278991699219 255 255 255
-5.653393745422363 -4.9287333488464355 -38.495540618896484 255 255 255
-13.872693061828613 -8.495999336242676 -45.747962951660156 255 255 255
-15.002738952636719 -6.961261749267578 -37.97389221191406 255 255 255
-8.78259563446045 -8.743992805480957 -19.236873626708984 255 255 255
-9.181815147399902 -8.912164688110352 -37.415321350097656 255 255 255
-9.724605560302734 -8.043360710144043 -39.52301788330078 255 255 255
-5.702661037445068 -4.614416122436523 -34.94511032104492 255 255 255
8.736922264099121 -11.177435874938965 -36.30804443359375 255 255 255
2.8569586277008057 -10.297991752624512 -38.3587646484375 255 255 255
8.669106483459473 -11.219494819641113 -36.2525634765625 255 255 255
3.535268545150757 -10.393743515014648 -38.127559661865234 255 255 255
-13.147001266479492 -4.3580193519592285 -35.690589904785156 255 255 255
-14.798465728759766 -6.639256954193115 -38.336299896240234 255 255 255
-14.980879783630371 -6.970512390136719 -37.86360549926758 255 255 255
-14.83662223815918 -7.211214065551758 -38.245361328125 255 255 255
-15.161585807800293 -6.592081546783447 -39.44231033325195 255 255 255
-9.575322151184082 -5.800810813903809 -40.89042282104492 255 255 255
-6.191862106323242 -12.57689094543457 -29.637893676757812 255 255 255
-7.660984992980957 -8.977365493774414 -35.86226272583008 255 255 255
-7.414649486541748 -6.675175189971924 -20.0194149017334 255 255 255
7.045781135559082 -10.393536567687988 -37.85566711425781 255 255 255
-9.3723783493042 -8.083806991577148 -39.212310791015625 255 255 255
-12.549757957458496 -4.867176532745361 -34.650691986083984 255 255 255
-9.963488578796387 -8.270888328552246 -39.375606536865234 255 255 255
6.353978157043457 -6.5003838539123535 -28.455303192138672 255 255 255
-7.411624908447266 -10.559178352355957 -34.61683654785156 255 255 255
7.114325523376465 -6.456685543060303 -27.866804122924805 255 255 255
-4.84920597076416 -10.875245094299316 -33.48671340942383 255 255 255
-3.3661866188049316 -4.387196063995361 -36.185142517089844 255 255 255
-6.507134914398193 -9.438694953918457 -38.5318489074707 255 255 255
-8.868037223815918 -8.713027000427246 -38.14531707763672 255 255 255
1.7192374467849731 -7.1123528480529785 -31.483104705810547 255 255 255
-9.658873558044434 -7.754225254058838 -39.9063835144043 255 255 255
-13.528454780578613 -6.429895877838135 -36.43280792236328 255 255 255
-11.130614280700684 -9.853557586669922 -37.48491668701172 255 255 255
-8.936185836791992 -7.59160041809082 -38.37413787841797 255 255 255
-9.573156356811523 -7.957637786865234 -39.36680221557617 255 255 255
-6.662980556488037 -7.287964344024658 -15.357805252075195 255 255 255
-9.800643920898438 -7.5852532386779785 -39.213748931884766 255 255 255
-6.671323776245117 -7.284397602081299 -37.955726623535156 255 255 255
-9.184211730957031 -4.0901689529418945 -33.59517288208008 255 255 255
-9.992286682128906 -7.73075008392334 -39.82075881958008 255 255 255
-7.670389175415039 -10.10064697265625 -33.7657356262207 255 255 255
-9.94334602355957 -7.552874565124512 -39.328208923339844 255 255 255
-9.74483871459961 -3.9465203285217285 -35.0944938659668 255 255 255
-12.563726425170898 -5.232372760772705 -33.94740295410156 255 255 255
-4.84990119934082 -4.745604038238525 -37.829036712646484 255 255 255
-10.68283748626709 -11.839020729064941 -23.60817527770996 255 255 255
-8.983246803283691 -9.260900497436523 -37.36075973510742 255 255 255
-8.624373435974121 -7.3752055168151855 -39.233245849609375 255 255 255
-13.105981826782227 -4.804347515106201 -38.39395523071289 255 255 255
-9.58394718170166 -5.126895904541016 -39.61428451538086 255 255 255
-8.88855266571045 -9.840051651000977 -37.42911911010742 255 255 255
-6.721121311187744 -7.051214218139648 -38.7097282409668 255 255 255
-10.156034469604492 -4.588237762451172 -35.9409294128418 255 255 255
-6.740128517150879 -9.415445327758789 -38.73424530029297 255 255 255
-7.158654689788818 -9.29680347442627 -38.98255920410156 255 255 255
-10.07043170928955 -4.418830394744873 -35.035823822021484 255 255 255
-10.323582649230957 -4.571261882781982 -35.5045166015625 255 255 255
-9.868102073669434 -7.941606521606445 -39.72011947631836 255 255 255
-8.99350357055664 -4.5665283203125 -35.95720291137695 255 255 255
-10.16679573059082 -4.493555068969727 -35.22395706176758 255 255 255
-9.140191078186035 -8.298568725585938 -34.769187927246094 255 255 255
-9.817720413208008 -7.867672443389893 -39.58429718017578 255 255 255
-11.786771774291992 -5.137286186218262 -32.90183639526367 255 255 255
-6.801592826843262 -7.058399677276611 -38.74934768676758 255 255 255
-3.9704055786132812 -8.122838973999023 -36.99404525756836 255 255 255
-9.061891555786133 -8.519060134887695 -38.525150299072266 255 255 255
-6.72340726852417 -7.683197498321533 -39.0971565246582 255 255 255
-10.990797996520996 -7.373560428619385 -40.18336486816406 255 255 255
-11.553958892822266 -3.993947982788086 -32.90380096435547 255 255 255
-11.563214302062988 -4.002294063568115 -32.94182205200195 255 255 255
-10.261890411376953 -4.411930561065674 -34.85649871826172 255 255 255
5.68036413192749 -6.4043731689453125 -32.547607421875 255 255 255
-11.003512382507324 -4.382091045379639 -31.46657943725586 255 255 255
-5.584702491760254 -5.995631217956543 -38.316314697265625 255 255 255
-4.738829612731934 -3.999687671661377 -32.239418029785156 255 255 255
-4.902398109436035 -8.304286003112793 -33.97783279418945 255 255 255
-4.48640251159668 -7.644017696380615 -33.35283279418945 255 255 255
-6.137762069702148 -7.394946575164795 -38.359230041503906 255 255 255
-6.073398590087891 -8.214498519897461 -36.9224739074707 255 255 255
-6.569432258605957 -8.511960983276367 -36.57429122924805 255 255 255
-7.74515438079834 -7.941851615905762 -38.258480072021484 255 255 255
-9.865323066711426 -7.578836441040039 -39.28822708129883 255 255 255
-7.286007881164551 -4.655675411224365 -35.66444396972656 255 255 255
-8.287528991699219 -4.45387601852417 -34.88543701171875 255 255 255
-8.789935111999512 -4.691052436828613 -35.620033264160156 255 255 255
-8.035082817077637 -1.1877344846725464 -23.379884719848633 255 255 255
-11.0626859664917 -4.192545413970947 -31.86561393737793 255 255 255
-10.945823669433594 -4.206329345703125 -31.419631958007812 255 255 255
-11.043631553649902 -4.3378586769104 -31.839527130126953 255 255 255
-0.9810348153114319 -8.411344528198242 -34.03634262084961 255 255 255
-5.131261825561523 -7.833491802215576 -36.65892028808594 255 255 255
-8.845272064208984 -8.4443998336792 -34.201812744140625 255 255 255
-6.242649555206299 -7.3172454833984375 -37.7806282043457 255 255 255
-2.0036258697509766 -9.239681243896484 -34.64585494995117 255 255 255
-6.444182872772217 -7.376640319824219 -38.486873626708984 255 255 255
-4.075350284576416 -3.7755379676818848 -31.214330673217773 255 255 255
-6.650814533233643 -3.009392023086548 -27.19115447998047 255 255 255
-10.058235168457031 -9.451229095458984 -24.000263214111328 255 255 255
-0.07886248826980591 -5.0102338790893555 -33.08234786987305 255 255 255
-3.212859630584717 -10.9282865524292 -28.538150787353516 255 255 255
-9.268875122070312 -4.350846290588379 -26.320270538330078 255 255 255
-10.539142608642578 -3.700392961502075 -31.843114852905273 255 255 255
-5.915803909301758 -5.558964252471924 -38.5792121887207 255 255 255
0.47668159008026123 -10.917455673217773 -33.50079345703125 255 255 255
0.17808447778224945 -10.802181243896484 -33.6693115234375 255 255 255
-2.2320895195007324 -6.007999420166016 -30.15826988220215 255 255 255
-10.247035026550293 -4.9354777336120605 -28.796825408935547 255 255 255
-4.566051006317139 -7.855240821838379 -32.27235412597656 255 255 255
-0.7199782133102417 -2.465075731277466 -27.52728271484375 255 255 255
-10.222050666809082 -4.898067474365234 -28.623857498168945 255 255 255
-6.025989055633545 -9.006908416748047 -32.35641860961914 255 255 255
-8.076481819152832 -3.091810703277588 -28.212505340576172 255 255 255
-9.56653118133545 -3.475294589996338 -27.833763122558594 255 255 255
-4.895195484161377 -7.771758556365967 -32.61076736450195 255 255 255
-2.9770262241363525 -9.86639404296875 -28.022451400756836 255 255 255
-9.972076416015625 -7.54232120513916 -39.34522247314453 255 255 255
-10.193245887756348 -3.529878616333008 -29.42652702331543 255 255 255
-10.068694114685059 -4.760772705078125 -27.518831253051758 255 255 255
-5.131542682647705 -4.427884578704834 -33.38459014892578 255 255 255
-7.818428993225098 -3.5970685482025146 -30.37871742248535 255 255 255
-3.4688823223114014 -4.094351768493652 -31.680355072021484 255 255 255
-10.919693946838379 -4.250333309173584 -30.766746520996094 255 255 255
-10.836705207824707 -5.139496803283691 -29.466537475585938 255 255 255
-10.277494430541992 -7.076437473297119 -23.343524932861328 255 255 255
-11.045666694641113 -4.146831035614014 -31.676054000854492 255 255 255
-11.05048656463623 -4.460485935211182 -31.74011993408203 255 255 255
-2.2916927337646484 -9.029908180236816 -31.45841407775879 255 255 255
-8.196941375732422 -3.2081620693206787 -28.608261108398438 255 255 255
-6.42467737197876 -3.9687893390655518 -32.98949432373047 255 255 255
-10.253913879394531 -5.143424987792969 -26.632646560668945 255 255 255
1.9285438060760498 -7.554677486419678 -27.622819900512695 255 255 255
-0.14329731464385986 -5.034060955047607 -33.117923736572266 255 255 255
0.03585858643054962 -10.78603744506836 -25.95262908935547 255 255 255
-3.681098699569702 -9.483322143554688 -30.54800796508789 255 255 255
-0.013317778706550598 -8.625412940979004 -30.5600643157959 255 255 255
-9.775243759155273 -3.518916606903076 -28.379480361938477 255 255 255
0.8077632784843445 -4.116158962249756 -32.50760269165039 255 255 255
-3.601975202560425 -3.541841983795166 -29.106416702270508 255 255 255
-9.148723602294922 -5.47709321975708 -24.921077728271484 255 255 255
-3.4720799922943115 -3.4969773292541504 -28.914581298828125 255 255 255
-9.945671081542969 -5.790900230407715 -25.748977661132812 255 255 255
-9.899957656860352 -5.774545669555664 -25.337787628173828 255 255 255
-9.351753234863281 -3.225715398788452 -26.647031784057617 255 255 255
-5.8396220207214355 -9.089187622070312 -32.14878845214844 255 255 255
-2.6647047996520996 -7.968896865844727 -31.44167137145996 255 255 255
-3.201118230819702 -4.025605201721191 -31.41681480407715 255 255 255
-1.5404690504074097 -9.486050605773926 -26.266624450683594 255 255 255
-2.7098586559295654 -8.936893463134766 -28.465919494628906 255 255 255
-3.4873440265655518 -3.8117072582244873 -29.563323974609375 255 255 255
-1.4474787712097168 -5.956902027130127 -29.143798828125 255 255 255
-6.308648109436035 -8.617720603942871 -36.3895149230957 255 255 255
-4.158210277557373 -7.3141703605651855 -32.40072250366211 255 255 255
-9.906754493713379 -4.5404863357543945 -26.133277893066406 255 255 255
2.8975203037261963 -2.6967227458953857 -26.04678726196289 255 255 255
-8.284327507019043 -2.9947237968444824 -27.94793128967285 255 255 255
0.517042875289917 -3.1773486137390137 -27.129240036010742 255 255 255
-3.5096817016601562 -8.673151016235352 -29.486595153808594 255 255 255
-9.848284721374512 -5.756338119506836 -24.85247230529785 255 255 255
-2.9373879432678223 -5.643051624298096 -30.844425201416016 255 255 255
-0.137351855635643 -5.0429229736328125 -33.134368896484375 255 255 255
-5.226018905639648 -3.198051929473877 -27.726123809814453 255 255 255
-9.775181770324707 -3.7108242511749268 -28.302080154418945 255 255 255
-8.887598037719727 -2.963963270187378 -25.186452865600586 255 255 255
-1.6694375276565552 -5.441208362579346 -29.113819122314453 255 255 255
-2.9209468364715576 -7.854111671447754 -30.24394989013672 255 255 255
0.3426451086997986 -3.222886323928833 -27.2853946685791 255 255 255
-2.85665225982666 -8.527017593383789 -32.70331954956055 255 255 255
-4.9000630378723145 -4.075301647186279 -32.122745513916016 255 255 255
-9.540753364562988 -3.4262032508850098 -27.76876449584961 255 255 255
-2.6432113647460938 -8.305134773254395 -30.313980102539062 255 255 255
-9.240849494934082 -10.159846305847168 -15.980446815490723 255 255 255
-9.983794212341309 -9.416587829589844 -21.56041145324707 255 255 255
-5.441979885101318 -4.414267063140869 -34.67889404296875 255 255 255
-10.688762664794922 -4.690295696258545 -30.629196166992188 255 255 255
-2.2662596702575684 -6.346231937408447 -30.446163177490234 255 255 255
-2.5397026538848877 -6.319267272949219 -30.662616729736328 255 255 255
-2.3540830612182617 -6.319460868835449 -30.54275131225586 255 255 255
-9.263108253479004 -4.315920829772949 -26.09922981262207 255 255 255
-8.222123146057129 -2.6452860832214355 -25.730920791625977 255 255 255
-9.796185493469238 -3.9442601203918457 -27.757461547851562 255 255 255
-6.224502086639404 -3.422600507736206 -28.835498809814453 255 255 255
-6.019381999969482 -3.3287887573242188 -28.485454559326172 255 255 255
-5.925193786621094 -3.2512409687042236 -28.22873306274414 255 255 255
-1.7496907711029053 -6.103708744049072 -29.711896896362305 255 255 255
1.6090818643569946 -9.207223892211914 -26.986833572387695 255 255 255
-8.975249290466309 -3.1519339084625244 -25.98989486694336 255 255 255
0.8220604658126831 -3.725562334060669 -26.944358825683594 255 255 255
2.1292777061462402 -11.861093521118164 -23.479825973510742 255 255 255
-3.3355369567871094 -3.180753231048584 -27.313995361328125 255 255 255
-9.249310493469238 -4.285334587097168 -25.914505004882812 255 255 255
-2.473825216293335 -8.755841255187988 -29.142980575561523 255 255 255
-3.451298713684082 -4.095017910003662 -31.670696258544922 255 255 255
-3.2108089923858643 -7.923366546630859 -30.568391799926758 255 255 255
7.025981903076172 -10.579870223999023 -20.32957649230957 255 255 255
-2.849943161010742 -5.618777751922607 -30.763439178466797 255 255 255
-0.3823172152042389 -9.626011848449707 -31.739322662353516 255 255 255
-10.235894203186035 -3.6518795490264893 -29.84734535217285 255 255 255
-1.834576964378357 -5.814315319061279 -29.492006301879883 255 255 255
-8.295296669006348 -2.4201912879943848 -23.291337966918945 255 255 255
-8.536443710327148 -3.267993927001953 -23.53554344177246 255 255 255
-2.3952670097351074 -3.5638084411621094 -28.42180824279785 255 255 255
-3.2773494720458984 -7.52817964553833 -27.881757736206055 255 255 255
-0.5204669237136841 -7.408210754394531 -29.616174697875977 255 255 255
-2.550593614578247 -8.580363273620605 -29.83892822265625 255 255 255
-9.338165283203125 -4.993937015533447 -24.767305374145508 255 255 255
-2.061215400695801 -3.605355978012085 -29.120887756347656 255 255 255
-3.060225009918213 -7.449685573577881 -30.168739318847656 255 255 255
-3.9025909900665283 -3.2085869312286377 -27.636022567749023 255 255 255
1.264028787612915 -4.033389091491699 -32.309322357177734 255 255 255
-2.3320682048797607 -8.231536865234375 -31.28215980529785 255 255 255
-1.1242281198501587 -8.135122299194336 -29.99698257446289 255 255 255
-2.1936864852905273 -3.639403820037842 -29.294336318969727 255 255 255
-9.153525352478027 -5.473283290863037 -25.006486892700195 255 255 255
-8.892614364624023 -7.557921409606934 -25.87849998474121 255 255 255
-1.6913654804229736 -8.59636116027832 -27.412782669067383 255 255 255
-2.901200294494629 -4.0633440017700195 -31.52298355102539 255 255 255
-8.72529411315918 -3.1653199195861816 -24.692697525024414 255 255 255
-8.787271499633789 -3.3482298851013184 -25.582908630371094 255 255 255
-2.9263317584991455 -7.539421558380127 -30.388031005859375 255 255 255
-3.539628267288208 -7.799651622772217 -29.65148162841797 255 255 255
-3.184307098388672 -3.7409138679504395 -28.960166931152344 255 255 255
-2.790064811706543 -7.9940876960754395 -27.445777893066406 255 255 255
-2.734011650085449 -3.5872280597686768 -28.49522590637207 255 255 255
-1.8593474626541138 -3.2734363079071045 -27.476612091064453 255 255 255
-0.5856487154960632 -6.810354232788086 -29.35160255432129 255 255 255
-9.008173942565918 -5.344007968902588 -25.139848709106445 255 255 255
-7.82081937789917 -2.746194839477539 -25.721904754638672 255 255 255
-9.009186744689941 -5.32617712020874 -24.836694717407227 255 255 255
-3.4499754905700684 -6.27647590637207 -31.432897567749023 255 255 255
-1.038098931312561 -7.346480846405029 -29.940195083618164 255 255 255
-2.675626039505005 -6.291758060455322 -30.78695297241211 255 255 255
-3.331648826599121 -6.275851249694824 -31.305706024169922 255 255 255
-8.945076942443848 -3.203486680984497 -25.58153533935547 255 255 255
-1.1866406202316284 -6.172598838806152 -29.295331954956055 255 255 255
-9.171221733093262 -5.431314945220947 -24.67280387878418 255 255 255
-8.761029243469238 -5.27354621887207 -24.227949142456055 255 255 255
-3.1668553352355957 -6.4439215660095215 -30.100894927978516 255 255 255
-8.474245071411133 -4.137029647827148 -22.353269577026367 255 255 255
-8.739825248718262 -5.264786720275879 -24.13119125366211 255 255 255
-8.15032958984375 -2.522618293762207 -23.150049209594727 255 255 255
-1.850656270980835 -6.078808307647705 -29.828155517578125 255 255 255
-3.7784676551818848 -8.084364891052246 -30.917301177978516 255 255 255
-8.995086669921875 -5.354753017425537 -25.462764739990234 255 255 255
-1.920487880706787 -2.501962423324585 -25.438676834106445 255 255 255
-1.8807533979415894 -3.388590097427368 -27.83822250366211 255 255 255
-2.1776089668273926 -3.493631601333618 -28.153867721557617 255 255 255
-2.8575336933135986 -3.7187752723693848 -28.926742553710938 255 255 255
-9.237070083618164 -4.3773088455200195 -26.55889320373535 255 255 255
-8.751379013061523 -2.9383585453033447 -23.853588104248047 255 255 255
-9.261836051940918 -4.215991497039795 -25.529935836791992 255 255 255
-8.590731620788574 -4.433532238006592 -24.72080421447754 255 255 255
-8.730116844177246 -5.271762371063232 -24.631372451782227 255 255 255
-2.4237215518951416 -7.5259575843811035 -29.524690628051758 255 255 255
3.769188642501831 -3.796038866043091 -30.35176658630371 255 255 255
0.8889244794845581 -9.365464210510254 -29.361488342285156 255 255 255
-4.256112098693848 -3.379516363143921 -28.26357078552246 255 255 255
-8.724998474121094 -5.2470502853393555 -24.439495086669922 255 255 255
-2.6281726360321045 -3.769467830657959 -29.665170669555664 255 255 255
-8.736309051513672 -5.269315719604492 -24.56471824645996 255 255 255
-8.593207359313965 -4.437124252319336 -24.743595123291016 255 255 255
-3.5669240951538086 -3.0201590061187744 -27.166736602783203 255 255 255
-8.327946662902832 -2.5918707847595215 -23.846296310424805 255 255 255
0.5694319605827332 -7.131712436676025 -27.566181182861328 255 255 255
-0.7354789972305298 -5.813556671142578 -25.85957908630371 255 255 255
-1.0751066207885742 -6.10023307800293 -28.847492218017578 255 255 255
-2.004868984222412 -7.323702812194824 -29.749467849731445 255 255 255
-5.110509872436523 -3.077428102493286 -26.948322296142578 255 255 255
-8.231693267822266 -4.3461995124816895 -23.811704635620117 255 255 255
-8.244775772094727 -3.1483306884765625 -22.769620895385742 255 255 255
-1.9243642091751099 -6.83342170715332 -27.60418701171875 255 255 255
-2.69718074798584 -5.989746570587158 -30.506269454956055 255 255 255
-2.740297317504883 -5.992583751678467 -30.54281234741211 255 255 255
-8.730716705322266 -3.0062663555145264 -25.19110679626465 255 255 255
-2.1926279067993164 -7.199272155761719 -28.66697883605957 255 255 255
-2.642899513244629 -5.866998195648193 -30.17350196838379 255 255 255
-2.927967071533203 -4.692419528961182 -28.691551208496094 255 255 255
-8.702707290649414 -5.126819610595703 -25.032920837402344 255 255 255
-2.205583095550537 -7.228702068328857 -28.584089279174805 255 255 255
-2.9107298851013184 -3.0797085762023926 -26.75590705871582 255 255 255
-0.5930353403091431 -3.017090082168579 -25.254390716552734 255 255 255
-1.550087571144104 -8.537018775939941 -28.826709747314453 255 255 255
-8.50992488861084 -3.0825648307800293 -23.425952911376953 255 255 255
-2.934445858001709 -8.413493156433105 -30.1046199798584 255 255 255
-6.163095474243164 -3.393897533416748 -28.72170639038086 255 255 255
-9.289403915405273 -3.5490798950195312 -26.816776275634766 255 255 255
-0.5497159361839294 -5.852586269378662 -25.673336029052734 255 255 255
-8.167542457580566 -4.251585006713867 -23.342016220092773 255 255 255
-8.313693046569824 -4.363255977630615 -22.606822967529297 255 255 255
-1.678542137145996 -4.070287227630615 -26.457582473754883 255 255 255
-1.7901686429977417 -4.100535869598389 -26.5633602142334 255 255 255
-1.032151460647583 -7.397754192352295 -26.330617904663086 255 255 255
-7.954127311706543 -2.6665847301483154 -21.516023635864258 255 255 255
-1.2023193836212158 -2.5811946392059326 -24.17195701599121 255 255 255
-3.4073798656463623 -2.523289918899536 -24.05900764465332 255 255 255
-8.082249641418457 -3.231773614883423 -22.778005599975586 255 255 255
-1.7704050540924072 -2.965097427368164 -25.825990676879883 255 255 255
-8.197029113769531 -3.6993069648742676 -22.146507263183594 255 255 255
-0.6803439259529114 -3.119727373123169 -25.56741714477539 255 255 255
-1.9743446111679077 -6.05945348739624 -27.36573600769043 255 255 255
-0.8943513035774231 -6.107578754425049 -28.722768783569336 255 255 255
-1.6928709745407104 -7.345094680786133 -23.999603271484375 255 255 255
-1.7720633745193481 -3.069713592529297 -25.627689361572266 255 255 255
0.4908476769924164 -3.813101053237915 -26.80988883972168 255 255 255
-1.0871591567993164 -5.653686046600342 -26.21193504333496 255 255 255
-0.6234365105628967 -5.4292073249816895 -26.223169326782227 255 255 255
-0.3710048198699951 -5.688676357269287 -25.518585205078125 255 255 255
-1.0433396100997925 -5.688982963562012 -26.229158401489258 255 255 255
2.378330945968628 -3.7698464393615723 -23.741865158081055 255 255 255
-3.0227508544921875 -5.206418991088867 -28.897052764892578 255 255 255
-2.0399365425109863 -6.762544631958008 -27.71194076538086 255 255 255
-2.813469171524048 -2.1578409671783447 -22.850887298583984 255 255 255
-6.9104485511779785 -2.6189467906951904 -24.724214553833008 255 255 255
-2.235358476638794 -6.691277503967285 -27.89647674560547 255 255 255
-2.6555631160736084 -6.622852325439453 -28.31177520751953 255 255 255
-8.371447563171387 -3.1851065158843994 -23.348499298095703 255 255 255
-8.36552619934082 -3.2166996002197266 -23.491619110107422 255 255 255
-2.065431833267212 -7.980286121368408 -27.29621124267578 255 255 255
-3.162522077560425 -7.0045342445373535 -28.4267520904541 255 255 255
-8.192839622497559 -3.628293991088867 -21.782615661621094 255 255 255
-8.699917793273926 -5.032526969909668 -25.371475219726562 255 255 255
