115.12669372558594 -18.119356155395508 -83.2856216430664 255 255 255
-25.71076011657715 -9.557028770446777 -10.023591995239258 255 255 255
-21.490720748901367 2.8775572776794434 23.135478973388672 255 255 255
-15.498188018798828 -9.875155448913574 6.456963539123535 255 255 255
-25.8557186126709 -8.747934341430664 43.00979995727539 255 255 255
-18.705059051513672 -0.2662995755672455 5.95781946182251 255 255 255
-9.835116386413574 -1.8927953243255615 -6.45551872253418 255 255 255
137.29754638671875 -4.07779598236084 -11.03567886352539 255 255 255
133.9298553466797 0.834542453289032 -7.816650390625 255 255 255
114.42967224121094 0.08238796144723892 3.4984421730041504 255 255 255
6.598659515380859 1.3944326639175415 45.49013137817383 255 255 255
9.698201179504395 0.3254697322845459 35.58308029174805 255 255 255
10.156695365905762 -0.3226412534713745 35.05571746826172 255 255 255
86.16217803955078 -10.441980361938477 -45.246543884277344 255 255 255
-382.68817138671875 -313.6202392578125 -562.7760620117188 255 255 255
81.64813232421875 -15.48424243927002 -56.50316619873047 255 255 255
116.38255310058594 -3.4952738285064697 -28.271554946899414 255 255 255
87.49739837646484 -21.728012084960938 -62.18912887573242 255 255 255
73.0814437866211 -49.06663131713867 -84.06111145019531 255 255 255
95.6814193725586 -6.473896503448486 -36.8626823425293 255 255 255
89.74381256103516 -10.571098327636719 -50.393775939941406 255 255 255
107.88309478759766 7.336272716522217 19.492403030395508 255 255 255
109.57728576660156 1.82084059715271 21.63527488708496 255 255 255
109.70963287353516 2.891310214996338 21.53721809387207 255 255 255
41.27811050415039 -15.924298286437988 -11.950270652770996 255 255 255
28.674623489379883 -17.457921981811523 -23.29949951171875 255 255 255
31.78364372253418 -16.60712432861328 -23.4093017578125 255 255 255
48.58028030395508 -4.138646602630615 -17.78547477722168 255 255 255
56.846099853515625 -18.242948532104492 -33.1751823425293 255 255 255
109.87178802490234 2.5278561115264893 22.043371200561523 255 255 255
104.0064926147461 -38.277099609375 -87.65148162841797 255 255 255
1900.4442138671875 -1155.139404296875 -3280.414306640625 255 255 255
113.44013977050781 3.069714307785034 2.983391284942627 255 255 255
114.7041244506836 -0.4206121265888214 2.9263856410980225 255 255 255
115.06817626953125 3.487433433532715 1.723625898361206 255 255 255
115.0909652709961 3.476240396499634 1.6387358903884888 255 255 255
120.35464477539062 -4.550496578216553 -33.56045150756836 255 255 255
113.57011413574219 -2.601550579071045 -4.863279819488525 255 255 255
69.73467254638672 -10.790668487548828 -14.3505277633667 255 255 255
57.30372619628906 -18.001914978027344 -30.394214630126953 255 255 255
104.12049865722656 -42.6156005859375 -82.7406234741211 255 255 255
6.177066326141357 -13.883716583251953 -25.155590057373047 255 255 255
64.1738510131836 -3.9474828243255615 -20.393177032470703 255 255 255
58.625980377197266 -3.288985252380371 -21.858381271362305 255 255 255
55.413333892822266 -13.376133918762207 -13.543196678161621 255 255 255
79.41261291503906 -5.13313627243042 -19.165403366088867 255 255 255
49.170799255371094 -16.394603729248047 -27.1921443939209 255 255 255
121.19661712646484 1.5911787748336792 -6.4938249588012695 255 255 255
10.587539672851562 -0.6069616079330444 40.72398376464844 255 255 255
-4.090981960296631 8.497794151306152 52.828895568847656 255 255 255
8.972325325012207 1.3098278045654297 38.03326416015625 255 255 255
-4.333985805511475 7.227397918701172 39.9217529296875 255 255 255
83.4660873413086 -49.16737365722656 -85.06954956054688 255 255 255
89.19967651367188 -47.441856384277344 -82.62520599365234 255 255 255
23.596874237060547 -8.27459716796875 -31.966304779052734 255 255 255
19.8361759185791 -10.771187782287598 -32.587371826171875 255 255 255
35.9224853515625 -5.660372257232666 -16.893901824951172 255 255 255
2.0217301845550537 -2.5799927711486816 -21.630617141723633 255 255 255
9.769598007202148 -5.623329162597656 -29.593835830688477 255 255 255
30.024553298950195 -8.983885765075684 -28.984731674194336 255 255 255
37.46376419067383 -3.329070568084717 -21.12482452392578 255 255 255
95.26378631591797 -10.486898422241211 -52.201934814453125 255 255 255
48.70383834838867 -44.053951263427734 -114.16214752197266 255 255 255
23.734535217285156 -4.079087734222412 -18.778940200805664 255 255 255
20.7413387298584 -10.805949211120605 -29.997657775878906 255 255 255
22.81526756286621 -3.9657399654388428 -24.936912536621094 255 255 255
103.56037902832031 -32.240055084228516 -93.79961395263672 255 255 255
144.27474975585938 -6.297114849090576 -41.95014953613281 255 255 255
112.41569519042969 4.597211837768555 7.219295501708984 255 255 255
82.26886749267578 -47.28462219238281 -104.2748794555664 255 255 255
102.21296691894531 -7.257589340209961 -39.36525344848633 255 255 255
88.94898986816406 -8.931193351745605 -37.71047592163086 255 255 255
83.69940185546875 -13.610897064208984 -59.87132263183594 255 255 255
103.90008544921875 -25.811342239379883 -89.71497344970703 255 255 255
82.656005859375 -24.362056732177734 -61.356197357177734 255 255 255
8.75619888305664 -0.44226303696632385 32.563045501708984 255 255 255
-15.547593116760254 -34.61774444580078 154.2760772705078 255 255 255
44.26271057128906 -12.11091423034668 -49.747310638427734 255 255 255
53.4754753112793 -9.549345970153809 -38.34175491333008 255 255 255
51.8369140625 -9.935638427734375 -44.872493743896484 255 255 255
-29.862834930419922 -15.760045051574707 -0.5240533947944641 255 255 255
-73.54521179199219 -6.494234085083008 -11.653857231140137 255 255 255
34.566551208496094 -6.847155570983887 -18.25948715209961 255 255 255
58.38238525390625 -3.8093433380126953 -19.78104591369629 255 255 255
37.18864822387695 -7.668557167053223 -33.715972900390625 255 255 255
46.07986068725586 -4.5305562019348145 -19.252243041992188 255 255 255
35.04476547241211 -12.581467628479004 -22.457855224609375 255 255 255
116.77742767333984 -11.764272689819336 -38.078529357910156 255 255 255
82.87394714355469 -41.503639221191406 -83.18041229248047 255 255 255
90.40826416015625 -7.483305931091309 -34.42821502685547 255 255 255
79.66629028320312 -52.23590850830078 -97.91373443603516 255 255 255
87.04409790039062 -35.819061279296875 -89.2524185180664 255 255 255
82.37503051757812 -19.918642044067383 -57.96320724487305 255 255 255
89.96060180664062 -35.33208465576172 -88.35774230957031 255 255 255
91.00811767578125 -46.926856994628906 -89.54680633544922 255 255 255
95.2584457397461 -6.1849470138549805 -36.00151062011719 255 255 255
67.1439437866211 -21.829275131225586 -64.92424011230469 255 255 255
4.280007839202881 16.740156173706055 91.22293853759766 255 255 255
4.312448501586914 16.83517074584961 91.97193908691406 255 255 255
131.24964904785156 -33.85356140136719 -87.04232025146484 255 255 255
123.30371856689453 0.22110357880592346 -12.998849868774414 255 255 255
150.9113006591797 -23.03925132751465 -72.44947814941406 255 255 255
127.9798583984375 -24.12616539001465 -73.37670135498047 255 255 255
102.41424560546875 -28.163143157958984 -92.25859069824219 255 255 255
136.12771606445312 -15.889530181884766 -62.3215217590332 255 255 255
143.58018493652344 -3.6845037937164307 -21.945804595947266 255 255 255
133.84121704101562 -4.04719352722168 -9.28487777709961 255 255 255
153.09580993652344 -13.665088653564453 -63.68839645385742 255 255 255
124.28272247314453 -8.237597465515137 -48.13785171508789 255 255 255
80.45846557617188 -9.362150192260742 -28.23663330078125 255 255 255
82.25788116455078 -5.936514377593994 -18.870769500732422 255 255 255
65.40377044677734 -2.9517292976379395 -20.603986740112305 255 255 255
25.49094009399414 -16.187427520751953 -61.263648986816406 255 255 255
113.75675964355469 0.4764752686023712 9.682100296020508 255 255 255
127.58133697509766 -0.10048834979534149 -13.53019905090332 255 255 255
115.09722900390625 3.6332545280456543 2.501499652862549 255 255 255
114.7994384765625 0.5867367386817932 3.6952128410339355 255 255 255
113.06245422363281 1.8642852306365967 8.991301536560059 255 255 255
114.21630096435547 -0.01463636290282011 6.463837623596191 255 255 255
120.65434265136719 -8.435490608215332 -30.71458625793457 255 255 255
106.645263671875 -33.48720169067383 -112.96479797363281 255 255 255
114.14706420898438 -0.7247310876846313 9.03536605834961 255 255 255
114.30474853515625 0.4271427392959595 4.051690578460693 255 255 255
159.84716796875 -40.53158950805664 -92.67276000976562 255 255 255
119.17948150634766 3.5476274490356445 6.752843856811523 255 255 255
149.70303344726562 -12.304916381835938 -34.954444885253906 255 255 255
111.724609375 3.5196480751037598 6.516949653625488 255 255 255
112.20865631103516 4.924571514129639 8.126374244689941 255 255 255
85.01024627685547 -34.3227424621582 -85.9724349975586 255 255 255
97.27172088623047 -7.457219123840332 -43.63167953491211 255 255 255
107.44672393798828 -1.3253822326660156 -18.5650691986084 255 255 255
116.30950164794922 -11.220187187194824 -40.53748321533203 255 255 255
-1.8429347276687622 -2.9524030685424805 0.054283514618873596 255 255 255
56.828102111816406 -2.8949949741363525 -20.161941528320312 255 255 255
40.14250564575195 -15.161747932434082 -12.959745407104492 255 255 255
75.768798828125 -5.5306267738342285 -28.682119369506836 255 255 255
83.49129486083984 -8.588891983032227 -27.715532302856445 255 255 255
9.896988868713379 1.0421524047851562 39.52961349487305 255 255 255
9.629356384277344 0.11832424253225327 40.2621955871582 255 255 255
119.97682189941406 0.08049900829792023 -12.048432350158691 255 255 255
114.3247299194336 -0.20463168621063232 3.5011157989501953 255 255 255
114.40965270996094 1.439070224761963 3.5642073154449463 255 255 255
133.55499267578125 -2.1413872241973877 -7.832917213439941 255 255 255
132.46981811523438 -1.128664255142212 -15.848835945129395 255 255 255
97.07359313964844 -109.1888656616211 -235.5511474609375 255 255 255
113.09854125976562 -3.9142143726348877 -30.76053237915039 255 255 255
62.16044998168945 -19.790054321289062 -28.255062103271484 255 255 255
69.58729553222656 -5.968221664428711 -18.989273071289062 255 255 255
78.10853576660156 -6.416586399078369 -22.118385314941406 255 255 255
76.22065734863281 -8.623405456542969 -28.749780654907227 255 255 255
113.61157989501953 0.8260566592216492 6.099071502685547 255 255 255
24.619192123413086 -8.1798095703125 -17.39170265197754 255 255 255
53.319427490234375 -20.4517879486084 -22.632905960083008 255 255 255
56.49972152709961 -22.114418029785156 -32.225746154785156 255 255 255
82.33650207519531 -11.222522735595703 -46.33106994628906 255 255 255
-908.5037231445312 -1021.0569458007812 -1901.072021484375 255 255 255
109.61206817626953 -1.3415426015853882 -17.988618850708008 255 255 255
74.37322235107422 -48.25001525878906 -83.53828430175781 255 255 255
-6.006702899932861 -3.4695639610290527 -7.5502166748046875 255 255 255
-13.913041114807129 -0.2833806872367859 2.6867520809173584 255 255 255
-6.279231548309326 -2.81372332572937 -3.32004714012146 255 255 255
-7.568445682525635 -2.9258930683135986 -14.738649368286133 255 255 255
134.52488708496094 -19.659000396728516 -72.23475646972656 255 255 255
114.68141174316406 1.0605196952819824 3.7599029541015625 255 255 255
120.57514190673828 -13.66235637664795 -44.163665771484375 255 255 255
114.45751190185547 0.282717764377594 3.465054512023926 255 255 255
108.2818374633789 -30.267898559570312 -75.12335205078125 255 255 255
76.10794067382812 -22.111574172973633 -50.9544792175293 255 255 255
129.16427612304688 -1.0889837741851807 -24.088003158569336 255 255 255
133.41500854492188 0.807881772518158 -7.940220832824707 255 255 255
139.7718505859375 -1.155784010887146 -14.023964881896973 255 255 255
114.58567810058594 0.45754438638687134 3.837287425994873 255 255 255
142.7886962890625 -2.290388822555542 -17.778236389160156 255 255 255
147.33602905273438 -35.844871520996094 -43.590824127197266 255 255 255
174.8947296142578 -39.52785110473633 -65.38599395751953 255 255 255
112.43228912353516 4.587237358093262 7.119363307952881 255 255 255
-16.736576080322266 -3.9648983478546143 -2.006165027618408 255 255 255
110.00008392333984 8.797167778015137 68.16529083251953 255 255 255
138.11727905273438 -13.598565101623535 -72.71748352050781 255 255 255
116.92462921142578 -7.129421710968018 -39.981204986572266 255 255 255
209.8358612060547 -83.54960632324219 -212.53567504882812 255 255 255
84.1025619506836 -3.5564937591552734 -24.978103637695312 255 255 255
88.53376770019531 -9.451101303100586 -30.84497833251953 255 255 255
49.862022399902344 -28.191957473754883 -24.27648162841797 255 255 255
82.34295654296875 -3.8505945205688477 -26.81633186340332 255 255 255
85.09325408935547 -8.265787124633789 -29.516817092895508 255 255 255
121.6134262084961 -0.4620154798030853 -14.13746166229248 255 255 255
117.92020416259766 -12.984586715698242 -42.576229095458984 255 255 255
109.55321502685547 2.5888240337371826 22.26480484008789 255 255 255
93.25270080566406 -4.393239974975586 -30.26974868774414 255 255 255
83.39086151123047 -13.014567375183105 -50.999755859375 255 255 255
88.28410339355469 -16.494083404541016 -62.009521484375 255 255 255
109.20545959472656 -6.922362327575684 -39.14988327026367 255 255 255
83.11308288574219 -4.7955098152160645 -29.659530639648438 255 255 255
84.43590545654297 -8.73604679107666 -29.98314666748047 255 255 255
58.56887435913086 -7.626326084136963 -26.606904983520508 255 255 255
-8.305127143859863 -13.09779167175293 -27.056020736694336 255 255 255
57.69301986694336 -10.671971321105957 -25.408912658691406 255 255 255
83.23306274414062 -16.5605411529541 -62.09524154663086 255 255 255
77.4805908203125 -17.753963470458984 -59.22598648071289 255 255 255
104.76608276367188 -261.976806640625 -558.8649291992188 255 255 255
61.16440963745117 -50.0275764465332 -105.63005065917969 255 255 255
53.7813720703125 -10.910560607910156 -53.526092529296875 255 255 255
75.72862243652344 -18.327274322509766 -61.649566650390625 255 255 255
57.63924789428711 -11.6544828414917 -26.54387664794922 255 255 255
64.67700958251953 -10.05444622039795 -11.469718933105469 255 255 255
67.45854187011719 -8.174790382385254 -17.465808868408203 255 255 255
58.266456604003906 -6.453405380249023 -27.104389190673828 255 255 255
68.18988800048828 -5.7934651374816895 -26.78090476989746 255 255 255
88.6273422241211 -9.415962219238281 -29.508155822753906 255 255 255
71.86162567138672 -12.764666557312012 -17.087648391723633 255 255 255
84.23284149169922 -9.332782745361328 -30.532987594604492 255 255 255
54.3641357421875 -22.910425186157227 -25.630828857421875 255 255 255
54.25197219848633 -21.224456787109375 -26.007991790771484 255 255 255
71.75850677490234 -12.180222511291504 -16.932889938354492 255 255 255
78.09285736083984 -2.9583208560943604 -21.429061889648438 255 255 255
80.59337615966797 -6.784134864807129 -25.056734085083008 255 255 255
75.04102325439453 -2.5976338386535645 -18.675928115844727 255 255 255
72.05030059814453 -10.177153587341309 -17.610349655151367 255 255 255
71.0815658569336 -5.280773162841797 -28.87082862854004 255 255 255
22.70519256591797 -2.558415651321411 -17.389219284057617 255 255 255
102.89035034179688 -6.611076354980469 -36.18434143066406 255 255 255
-4.277639865875244 2.323681116104126 78.81271362304688 255 255 255
92.90674591064453 -46.2104377746582 -88.46080017089844 255 255 255
87.42697143554688 -41.354591369628906 -86.17452239990234 255 255 255
95.97734069824219 -7.112156391143799 -41.52448272705078 255 255 255
80.5178451538086 -15.001168251037598 -56.627586364746094 255 255 255
-20.035503387451172 -5.251278877258301 33.05032730102539 255 255 255
-5.348458290100098 8.248160362243652 33.30613708496094 255 255 255
58.86210250854492 -4.674893379211426 -26.727325439453125 255 255 255
67.47103118896484 -2.0647499561309814 -14.420905113220215 255 255 255
74.45581817626953 -4.9746928215026855 -19.467988967895508 255 255 255
80.688720703125 -18.610109329223633 -62.91325759887695 255 255 255
107.85242462158203 -49.90338897705078 -87.53868103027344 255 255 255
74.74594116210938 -21.575857162475586 -62.0678825378418 255 255 255
-2.7108304500579834 -68.09821319580078 -139.01614379882812 255 255 255
74.9087142944336 -39.848854064941406 -83.6156234741211 255 255 255
83.82566833496094 -22.081863403320312 -63.109718322753906 255 255 255
89.24683380126953 -45.05488586425781 -141.0350799560547 255 255 255
85.52360534667969 -7.623795986175537 -29.059099197387695 255 255 255
93.02574157714844 -8.436168670654297 -35.13247299194336 255 255 255
46.045894622802734 -8.092002868652344 -27.386764526367188 255 255 255
-15.734227180480957 1.0468186140060425 12.252603530883789 255 255 255
-14.4827880859375 -9.398204803466797 11.673552513122559 255 255 255
-22.551918029785156 -1.5695176124572754 -12.683586120605469 255 255 255
96.9937515258789 -6.804787635803223 -39.77392578125 255 255 255
88.78646087646484 -10.00886058807373 -29.843734741210938 255 255 255
78.59663391113281 -2.9847636222839355 -21.481945037841797 255 255 255
43.932464599609375 -9.594229698181152 -17.667282104492188 255 255 255
83.83454132080078 -9.22865104675293 -28.602312088012695 255 255 255
85.19232940673828 -3.56687593460083 -19.192773818969727 255 255 255
80.60803985595703 -2.827944755554199 -21.219600677490234 255 255 255
80.95925903320312 -4.988839626312256 -29.193090438842773 255 255 255
60.52004623413086 -8.88524341583252 -16.026073455810547 255 255 255
35.104469299316406 -25.516708374023438 -37.38529586791992 255 255 255
71.94871520996094 -11.687479972839355 -17.19213104248047 255 255 255
8.116621971130371 -3.6700246334075928 25.702253341674805 255 255 255
45.56740951538086 -14.108442306518555 -19.13156509399414 255 255 255
107.39554595947266 -52.949825286865234 -122.75603485107422 255 255 255
73.97179412841797 -20.471906661987305 -59.22095489501953 255 255 255
-845.8916625976562 -642.9077758789062 -620.497314453125 255 255 255
107.57855987548828 -5.970150470733643 -38.01567077636719 255 255 255
81.59477996826172 -2.9181318283081055 -21.347679138183594 255 255 255
78.57347106933594 -20.179168701171875 -58.87141036987305 255 255 255
-107.4703598022461 -119.86893463134766 -99.791015625 255 255 255
84.42269134521484 -6.465229511260986 -34.57547378540039 255 255 255
79.63082885742188 -16.692737579345703 -50.862125396728516 255 255 255
83.53538513183594 -8.747870445251465 -28.448165893554688 255 255 255
70.2799301147461 -7.732655048370361 -26.30413055419922 255 255 255
61.91254425048828 -5.334957122802734 -26.227005004882812 255 255 255
59.87099838256836 -7.899669170379639 -26.42735481262207 255 255 255
45.245418548583984 -20.850727081298828 -19.176433563232422 255 255 255
72.962890625 -21.622888565063477 -70.34569549560547 255 255 255
51.917728424072266 -14.056496620178223 -20.540271759033203 255 255 255
85.15010070800781 -7.998953342437744 -32.94021987915039 255 255 255
88.39492797851562 -9.892672538757324 -29.305173873901367 255 255 255
79.12049102783203 -2.994934320449829 -21.539377212524414 255 255 255
77.97073364257812 -15.358844757080078 -48.06134796142578 255 255 255
107.91368103027344 -22.86379623413086 -86.39791870117188 255 255 255
72.61849212646484 -9.334834098815918 -42.568851470947266 255 255 255
96.30427551269531 -7.619598388671875 -42.921180725097656 255 255 255
88.29789733886719 -11.284354209899902 -57.734745025634766 255 255 255
-316.02630615234375 -288.82318115234375 -287.419677734375 255 255 255
111.92957305908203 -14.2874116897583 -60.27304458618164 255 255 255
77.9231185913086 -11.018991470336914 -43.4079704284668 255 255 255
-19.417404174804688 -0.11822483688592911 -6.30108642578125 255 255 255
6.1404523849487305 -5.875949382781982 -27.602041244506836 255 255 255
89.48778533935547 -9.874348640441895 -30.81014633178711 255 255 255
-2.7472798824310303 -0.2013360857963562 -6.184762954711914 255 255 255
-11.484040260314941 0.6596593260765076 2.540811538696289 255 255 255
32.4602165222168 -14.326922416687012 -23.03659439086914 255 255 255
87.31829071044922 -8.71280288696289 -33.8929443359375 255 255 255
79.49732208251953 -5.567211151123047 -29.436351776123047 255 255 255
66.01203918457031 -12.683629989624023 -59.791481018066406 255 255 255
-43.688812255859375 -105.15254211425781 -111.78501892089844 255 255 255
98.50821685791016 -9.359757423400879 -50.32546615600586 255 255 255
48.593177795410156 -9.297111511230469 -17.82941436767578 255 255 255
89.36863708496094 -21.32229232788086 -61.60243606567383 255 255 255
98.83344268798828 -28.963359832763672 -85.99569702148438 255 255 255
110.32575988769531 -32.67616653442383 -110.00377655029297 255 255 255
108.4627914428711 -38.249305725097656 -125.17733764648438 255 255 255
99.40998077392578 -28.239564895629883 -93.14427185058594 255 255 255
110.00498962402344 -36.994773864746094 -111.19010925292969 255 255 255
-68.64777374267578 -97.87102508544922 -243.68475341796875 255 255 255
77.39580535888672 -18.423181533813477 -60.98360824584961 255 255 255
91.91890716552734 -9.932674407958984 -32.97640609741211 255 255 255
63.82234573364258 -11.356961250305176 -26.80936622619629 255 255 255
-6.179305553436279 1.7600990533828735 4.368730068206787 255 255 255
101.88553619384766 -49.79082107543945 -87.84330749511719 255 255 255
-6.498270034790039 0.7505055665969849 7.431908130645752 255 255 255
57.782047271728516 -12.678837776184082 -23.758649826049805 255 255 255
89.75349426269531 -10.67174243927002 -32.877071380615234 255 255 255
89.06001281738281 -10.549785614013672 -29.986181259155273 255 255 255
80.40237426757812 -9.649860382080078 -37.00233840942383 255 255 255
90.2396011352539 -9.816234588623047 -31.496192932128906 255 255 255
67.6900405883789 -36.22035217285156 -75.0107650756836 255 255 255
107.81698608398438 -40.32100296020508 -101.24119567871094 255 255 255
107.87810516357422 -38.51441955566406 -96.87104034423828 255 255 255
108.01019287109375 -35.27718734741211 -85.8978042602539 255 255 255
92.0081558227539 -44.85525894165039 -100.15022277832031 255 255 255
88.12834167480469 -8.411791801452637 -33.26296615600586 255 255 255
89.86446380615234 -10.008651733398438 -31.78871726989746 255 255 255
78.91749572753906 -18.264217376708984 -67.3606185913086 255 255 255
47.68376159667969 -30.74110221862793 -71.7551498413086 255 255 255
72.62030029296875 -4.556938648223877 -28.286592483520508 255 255 255
33.63459396362305 -2.1607441902160645 -11.526119232177734 255 255 255
59.51068878173828 -5.961126327514648 -31.328125 255 255 255
73.28958129882812 -5.2765374183654785 -27.76285743713379 255 255 255
64.3946762084961 -22.95008087158203 -56.46940231323242 255 255 255
87.81730651855469 -6.620513916015625 -36.76446533203125 255 255 255
36.50214385986328 -54.00396728515625 -114.74420928955078 255 255 255
88.84571838378906 -12.825559616088867 -47.729103088378906 255 255 255
78.41695404052734 -11.167903900146484 -45.14453887939453 255 255 255
99.91302490234375 -15.843713760375977 -76.28185272216797 255 255 255
91.34089660644531 -5.560172080993652 -34.45896911621094 255 255 255
79.6319808959961 -7.402760028839111 -38.82370376586914 255 255 255
82.55941009521484 -47.22830581665039 -90.22319030761719 255 255 255
19.563289642333984 -12.039350509643555 -30.65500831604004 255 255 255
-5.261317729949951 -13.41473388671875 -25.802322387695312 255 255 255
24.358083724975586 -8.90739917755127 -10.867728233337402 255 255 255
15.254996299743652 -13.619831085205078 -34.82228469848633 255 255 255
-1.0413199663162231 -2.145944833755493 -17.776376724243164 255 255 255
-10.068155288696289 -4.3904032707214355 -7.457744598388672 255 255 255
77.42161560058594 -17.029083251953125 -57.5251350402832 255 255 255
89.13849639892578 -13.002167701721191 -59.427303314208984 255 255 255
86.46017456054688 -8.57992935180664 -29.207304000854492 255 255 255
57.66633224487305 -16.29920196533203 -33.71651077270508 255 255 255
53.16680145263672 -21.261655807495117 -22.765180587768555 255 255 255
-40.461891174316406 -31.860795974731445 -31.03722381591797 255 255 255
62.10184097290039 -5.685666561126709 -28.41319465637207 255 255 255
62.60158157348633 -11.924498558044434 -35.60976791381836 255 255 255
50.944557189941406 -27.38178062438965 -25.68817710876465 255 255 255
77.54425048828125 -8.881851196289062 -43.15755081176758 255 255 255
75.8791732788086 -44.12066650390625 -88.08682250976562 255 255 255
-5.663340091705322 -82.52017974853516 -166.17190551757812 255 255 255
91.99465942382812 -8.436174392700195 -33.674285888671875 255 255 255
82.0125961303711 -58.03717041015625 -108.02916717529297 255 255 255
69.37010955810547 -18.739038467407227 -56.780277252197266 255 255 255
-154.0906524658203 -160.76731872558594 -152.9422149658203 255 255 255
74.6430892944336 -10.566121101379395 -51.05068588256836 255 255 255
79.30123901367188 -11.5823335647583 -17.531124114990234 255 255 255
85.79576110839844 -8.10942268371582 -28.813570022583008 255 255 255
51.50675964355469 -27.200984954833984 -27.131532669067383 255 255 255
54.841182708740234 -23.49271583557129 -22.288406372070312 255 255 255
73.71698760986328 -46.40096664428711 -82.62777709960938 255 255 255
-7.048531532287598 9.303070068359375 50.283016204833984 255 255 255
-0.17815600335597992 7.659542083740234 37.79164505004883 255 255 255
-24.3438720703125 -5.035827159881592 61.818790435791016 255 255 255
65.32573699951172 -60.34645080566406 -100.19105529785156 255 255 255
80.49629974365234 -10.749102592468262 -38.14909744262695 255 255 255
75.33453369140625 -13.322712898254395 -55.176483154296875 255 255 255
72.28710174560547 -15.736242294311523 -59.76420211791992 255 255 255
46.98821258544922 -12.604963302612305 -19.316335678100586 255 255 255
47.48505783081055 -15.51030445098877 -20.511640548706055 255 255 255
52.86116409301758 -20.832073211669922 -19.98459815979004 255 255 255
-9.574586868286133 -6.1285719871521 -12.61340045928955 255 255 255
-23.542560577392578 -4.2175703048706055 -29.298206329345703 255 255 255
-9.757431030273438 -2.789771556854248 -11.627565383911133 255 255 255
72.64532470703125 -9.598714828491211 -42.34480285644531 255 255 255
103.52828979492188 -47.47707748413086 -84.34683227539062 255 255 255
88.25634765625 -9.707369804382324 -29.990957260131836 255 255 255
78.6061782836914 -11.595810890197754 -17.4648380279541 255 255 255
70.97046661376953 -3.383427143096924 -15.737622261047363 255 255 255
87.4991683959961 -7.182831764221191 -31.16864013671875 255 255 255
82.12886810302734 -10.968170166015625 -18.83644676208496 255 255 255
85.88896179199219 -15.614603042602539 -69.07577514648438 255 255 255
72.86738586425781 -16.317304611206055 -61.74927520751953 255 255 255
78.55691528320312 -14.555008888244629 -56.3704948425293 255 255 255
115.62137603759766 -12.017841339111328 -36.58570861816406 255 255 255
72.24153137207031 -21.362831115722656 -61.35829544067383 255 255 255
119.04431915283203 -21.32469367980957 -86.01807403564453 255 255 255
85.50208282470703 -9.029743194580078 -29.23545265197754 255 255 255
84.33269500732422 -8.339890480041504 -29.184919357299805 255 255 255
84.22183990478516 -8.370738983154297 -29.234861373901367 255 255 255
80.35529327392578 -11.193856239318848 -17.942331314086914 255 255 255
49.32189178466797 -10.150891304016113 -17.031827926635742 255 255 255
104.89018249511719 -55.85612487792969 -162.8293914794922 255 255 255
114.6822509765625 -12.158937454223633 -39.94236755371094 255 255 255
84.3333969116211 -9.645171165466309 -28.751583099365234 255 255 255
82.23924255371094 -6.881541728973389 -36.529640197753906 255 255 255
67.8341293334961 -17.986351013183594 -55.37912368774414 255 255 255
107.27259826660156 -16.53249740600586 -82.21443176269531 255 255 255
-6.32172966003418 1.6129792928695679 4.598062515258789 255 255 255
19.329557418823242 -13.030542373657227 -28.49962043762207 255 255 255
-9.167499542236328 -6.003500461578369 -11.584688186645508 255 255 255
109.90702819824219 -37.401832580566406 -119.22756958007812 255 255 255
109.50269317626953 -6.941735744476318 -39.28817367553711 255 255 255
71.9345474243164 -16.443504333496094 -58.05032730102539 255 255 255
91.5795669555664 -4.999451160430908 -33.39064025878906 255 255 255
84.92335510253906 -18.54383087158203 -61.19944381713867 255 255 255
82.67894744873047 -43.454776763916016 -89.71519470214844 255 255 255
89.9455795288086 -6.178133964538574 -34.83382034301758 255 255 255
85.31432342529297 -13.545702934265137 -62.200050354003906 255 255 255
77.87782287597656 -17.352846145629883 -58.168277740478516 255 255 255
53.723655700683594 -18.418697357177734 -35.10470199584961 255 255 255
87.76091003417969 -8.630011558532715 -29.449325561523438 255 255 255
74.5107650756836 -19.119863510131836 -62.873802185058594 255 255 255
95.38529968261719 -4.001416206359863 -29.12637710571289 255 255 255
79.31507110595703 -10.50767993927002 -42.109981536865234 255 255 255
103.25231170654297 -6.011224269866943 -33.59370803833008 255 255 255
96.31251525878906 -7.596142292022705 -43.098514556884766 255 255 255
104.54851531982422 -26.60773468017578 -75.39567565917969 255 255 255
9.830398559570312 -0.9083594083786011 40.84379959106445 255 255 255
9.283400535583496 1.3535330295562744 34.633731842041016 255 255 255
8.61090087890625 0.9232045412063599 34.53890609741211 255 255 255
186.1084747314453 -36.06619644165039 -56.026676177978516 255 255 255
106.79045867919922 5.127845287322998 22.8343448638916 255 255 255
99.3871841430664 -32.74612808227539 -82.6541976928711 255 255 255
95.80826568603516 -6.488938331604004 -34.688541412353516 255 255 255
101.95724487304688 -32.519508361816406 -75.09294128417969 255 255 255
144.703125 -28.532360076904297 -57.30613708496094 255 255 255
148.64503479003906 -12.01962661743164 -33.76515197753906 255 255 255
114.20641326904297 -0.0777759999036789 9.5817289352417 255 255 255
113.35208129882812 -0.7115195989608765 8.987236022949219 255 255 255
114.77924346923828 0.9049606323242188 4.044175148010254 255 255 255
21.307174682617188 -5.947331428527832 -30.444835662841797 255 255 255
20.56260871887207 -14.3755521774292 -29.611862182617188 255 255 255
36.74778747558594 -12.171875953674316 -21.246767044067383 255 255 255
112.9119644165039 -9.917808532714844 -45.25484848022461 255 255 255
114.340087890625 -31.978662490844727 -126.11980438232422 255 255 255
124.3726806640625 0.3821154534816742 -10.8656005859375 255 255 255
123.05735778808594 -8.598183631896973 -56.42532730102539 255 255 255
121.80181884765625 -17.783912658691406 -74.01726531982422 255 255 255
122.65998840332031 -0.2058703601360321 -12.6231050491333 255 255 255
88.16748046875 -24.338253021240234 -87.31416320800781 255 255 255
91.8874740600586 -18.526412963867188 -73.57426452636719 255 255 255
99.98812866210938 -14.372833251953125 -60.36542892456055 255 255 255
111.03141021728516 0.018127035349607468 -11.769720077514648 255 255 255
116.7449951171875 -10.514787673950195 -38.03417205810547 255 255 255
119.1686782836914 0.17994791269302368 -11.683333396911621 255 255 255
-48.56310272216797 -15.800638198852539 -29.549556732177734 255 255 255
41.031681060791016 -7.812262058258057 -18.38446617126465 255 255 255
37.271060943603516 -5.9376540184021 -16.799697875976562 255 255 255
196.83477783203125 -82.9124526977539 -167.41366577148438 255 255 255
164.09780883789062 -44.2925910949707 -83.32917785644531 255 255 255
488.6889343261719 -268.3952941894531 -774.297119140625 255 255 255
115.2289810180664 -1.454795241355896 0.2385207563638687 255 255 255
-6.633048057556152 -4.8149638175964355 0.49950626492500305 255 255 255
7.867316246032715 -2.082929849624634 25.39929962158203 255 255 255
113.07469940185547 0.40655946731567383 7.915079593658447 255 255 255
108.60637664794922 6.021856784820557 15.438880920410156 255 255 255
113.33147430419922 5.913275241851807 14.12806224822998 255 255 255
110.53507995605469 -6.325458526611328 -38.38275146484375 255 255 255
72.19263458251953 -2.1204373836517334 -14.723349571228027 255 255 255
47.79985809326172 -4.552035331726074 -26.881284713745117 255 255 255
6.532609939575195 -6.033611297607422 -27.50995445251465 255 255 255
36.28068923950195 -16.19141387939453 -23.907026290893555 255 255 255
23.00390625 -14.753860473632812 -27.123456954956055 255 255 255
72.73626708984375 -18.72316551208496 -56.45957946777344 255 255 255
56.293067932128906 -22.95104217529297 -30.002511978149414 255 255 255
45.987186431884766 -29.977176666259766 -26.894636154174805 255 255 255
62.880157470703125 -16.667137145996094 -88.22661590576172 255 255 255
37.07878875732422 -13.545026779174805 -21.00572395324707 255 255 255
42.36995315551758 -2.983999252319336 -19.839229583740234 255 255 255
37.59403991699219 -15.106073379516602 -22.119253158569336 255 255 255
33.72564697265625 -13.579389572143555 -23.286670684814453 255 255 255
99.79264831542969 -43.72865676879883 -84.62450408935547 255 255 255
184.77891540527344 -36.87936019897461 -59.5272216796875 255 255 255
124.58468627929688 0.08013658225536346 -12.454695701599121 255 255 255
106.9361801147461 5.038802146911621 23.11018943786621 255 255 255
109.52587127685547 1.8515604734420776 21.684722900390625 255 255 255
111.02259063720703 5.632702350616455 11.300515174865723 255 255 255
107.37986755371094 2.1203925609588623 26.4174861907959 255 255 255
52.11404800415039 -17.82594871520996 -19.913982391357422 255 255 255
49.94524383544922 -2.6989550590515137 -9.432648658752441 255 255 255
-68.52831268310547 -5.8254475593566895 -23.422988891601562 255 255 255
-10.840094566345215 -1.880583643913269 -5.857817649841309 255 255 255
37.18120574951172 -7.504073619842529 105.4943618774414 255 255 255
-13.759881019592285 -3.1027634143829346 43.3721923828125 255 255 255
-13.497101783752441 -3.1588943004608154 -5.1634955406188965 255 255 255
106.6519546508789 5.163332939147949 23.120412826538086 255 255 255
149.88671875 -31.679433822631836 -117.40638732910156 255 255 255
130.98910522460938 -4.305812358856201 -32.54654312133789 255 255 255
-12.075007438659668 -1.1145050525665283 -9.927660942077637 255 255 255
-16.755525588989258 -6.5913405418396 -2.106231212615967 255 255 255
135.43817138671875 -4.94185733795166 -5.681163311004639 255 255 255
147.2569580078125 -11.607399940490723 -45.93141174316406 255 255 255
113.55973815917969 -0.009555733762681484 4.6472625732421875 255 255 255
114.83145904541016 -0.0017093188362196088 3.821587324142456 255 255 255
113.61540222167969 -0.5631263256072998 4.481550216674805 255 255 255
198.79649353027344 -55.34314727783203 -141.58595275878906 255 255 255
154.0419158935547 -20.34479522705078 -63.64839553833008 255 255 255
99.939208984375 -18.142791748046875 -65.22119903564453 255 255 255
90.1002426147461 -18.075138092041016 -59.760650634765625 255 255 255
107.051513671875 -1.1511341333389282 -17.393705368041992 255 255 255
-12.455915451049805 -6.864452838897705 -16.78999900817871 255 255 255
152.75437927246094 -9.854848861694336 -58.67013168334961 255 255 255
139.4276123046875 -7.811941623687744 -14.529019355773926 255 255 255
165.53546142578125 -40.351036071777344 -93.55582427978516 255 255 255
107.4907455444336 3.2397408485412598 24.892681121826172 255 255 255
110.0537338256836 3.302112579345703 12.69194507598877 255 255 255
128.40762329101562 -2.953080177307129 12.57491397857666 255 255 255
106.42340087890625 4.137322902679443 28.04804229736328 255 255 255
395.86846923828125 -324.3475341796875 -422.3694152832031 255 255 255
98.76296997070312 -25.51426887512207 -113.07597351074219 255 255 255
126.24713897705078 -23.012928009033203 -69.55513000488281 255 255 255
126.99893188476562 -19.35004234313965 -59.40141677856445 255 255 255
120.31118774414062 0.31744489073753357 -10.956769943237305 255 255 255
113.68447875976562 1.2396214008331299 8.152693748474121 255 255 255
152.702392578125 -15.358720779418945 -12.141131401062012 255 255 255
110.22340393066406 2.5980758666992188 12.322915077209473 255 255 255
112.00423431396484 3.106492757797241 4.219511985778809 255 255 255
111.81727600097656 3.288015365600586 5.382219314575195 255 255 255
113.808349609375 0.6506432890892029 9.365483283996582 255 255 255
116.1956787109375 2.5533454418182373 0.8659750819206238 255 255 255
148.71592712402344 -0.0741240531206131 -7.470373630523682 255 255 255
108.20410919189453 3.044665813446045 15.413198471069336 255 255 255
113.75328063964844 -0.7951525449752808 11.028250694274902 255 255 255
88.9256820678711 -14.018782615661621 -72.58195495605469 255 255 255
117.66449737548828 -8.284778594970703 -45.73989486694336 255 255 255
86.45065307617188 -16.70452308654785 -62.66413879394531 255 255 255
120.90892028808594 0.3125027120113373 -10.991789817810059 255 255 255
147.457763671875 -19.93584632873535 -103.47250366210938 255 255 255
134.6620330810547 -4.3654866218566895 -5.3344855308532715 255 255 255
113.40192413330078 1.1400364637374878 6.829559326171875 255 255 255
129.25270080566406 -1.9446187019348145 1.8283313512802124 255 255 255
92.84074401855469 -6.093978404998779 -32.25436019897461 255 255 255
91.61065673828125 -4.597621917724609 -32.00674819946289 255 255 255
118.67677307128906 -12.703375816345215 -35.002933502197266 255 255 255
106.9878158569336 -47.226707458496094 -82.6460189819336 255 255 255
116.95487976074219 -12.34671401977539 -35.10415267944336 255 255 255
121.49958038330078 -20.936128616333008 -84.39794921875 255 255 255
131.7779998779297 -2.686937093734741 2.0114667415618896 255 255 255
110.37699127197266 8.140706062316895 23.01099967956543 255 255 255
108.55821228027344 3.314605951309204 23.16543960571289 255 255 255
101.28270721435547 -17.921918869018555 -74.91767883300781 255 255 255
102.30775451660156 -15.589173316955566 -68.04808044433594 255 255 255
113.76256561279297 -0.7433439493179321 -15.180373191833496 255 255 255
133.99871826171875 -4.616293907165527 -18.92392921447754 255 255 255
120.792236328125 3.741849899291992 5.1944427490234375 255 255 255
123.80036163330078 0.17406147718429565 -13.437305450439453 255 255 255
114.04319763183594 -0.4155743420124054 3.4620256423950195 255 255 255
20.787370681762695 -14.088146209716797 -26.87950897216797 255 255 255
20.12989616394043 -11.613183975219727 -29.464427947998047 255 255 255
118.94686889648438 -7.221340656280518 -41.48646926879883 255 255 255
104.12126159667969 -43.173152923583984 -83.84403991699219 255 255 255
14.780814170837402 -129.5884552001953 570.640869140625 255 255 255
-3.867595672607422 7.598020553588867 39.31968307495117 255 255 255
56.24755859375 -19.511926651000977 -29.481189727783203 255 255 255
68.35906982421875 -8.34276294708252 -26.450557708740234 255 255 255
45.35354995727539 -17.583759307861328 -30.60338592529297 255 255 255
71.03164672851562 -12.713614463806152 -48.93796157836914 255 255 255
55.31675338745117 -47.83344268798828 -90.31299591064453 255 255 255
118.78563690185547 -7.02473258972168 -40.727046966552734 255 255 255
-4.781368255615234 -9.667984962463379 -27.511903762817383 255 255 255
-101.81965637207031 -52.46687698364258 -229.13111877441406 255 255 255
-82.79029083251953 -21.931133270263672 11.940299034118652 255 255 255
-15.301411628723145 0.6598120927810669 7.970315456390381 255 255 255
-8.705507278442383 -0.39006268978118896 -3.5885889530181885 255 255 255
-12.439936637878418 -2.911524772644043 -11.395753860473633 255 255 255
-8.845344543457031 -4.077575206756592 -9.755879402160645 255 255 255
-8.149394989013672 -2.3426125049591064 -13.226395606994629 255 255 255
114.95880889892578 5.48663854598999 10.84205436706543 255 255 255
111.41996765136719 4.333535671234131 7.911433696746826 255 255 255
134.8276824951172 -2.5021297931671143 0.9744488000869751 255 255 255
113.10853576660156 0.07207732647657394 11.217673301696777 255 255 255
127.65360260009766 -2.3948042392730713 12.341036796569824 255 255 255
110.02689361572266 2.5624074935913086 21.591699600219727 255 255 255
115.01872253417969 5.293145656585693 4.139839172363281 255 255 255
114.21223449707031 5.234457015991211 9.190160751342773 255 255 255
106.67134857177734 4.818048000335693 23.210956573486328 255 255 255
130.9655303955078 -7.163606643676758 15.04675579071045 255 255 255
38.663021087646484 -13.740750312805176 -24.13596534729004 255 255 255
35.33940505981445 -16.18584442138672 -25.72713851928711 255 255 255
35.62375259399414 -15.199825286865234 -24.52792739868164 255 255 255
-4.034918308258057 -30.53044319152832 178.53367614746094 255 255 255
-15.740138053894043 -0.21937310695648193 -1.433309555053711 255 255 255
131.93931579589844 -2.8181705474853516 10.242304801940918 255 255 255
125.29157257080078 -0.21506811678409576 -14.164802551269531 255 255 255
134.52931213378906 -4.951094150543213 2.264207601547241 255 255 255
129.689208984375 -1.8808716535568237 11.75217056274414 255 255 255
93.54874420166016 -10.386733055114746 -51.43342590332031 255 255 255
99.87571716308594 -19.386486053466797 -81.3581771850586 255 255 255
89.1667709350586 -39.4660530090332 -79.85970306396484 255 255 255
195.1924285888672 -81.84327697753906 -165.4657440185547 255 255 255
122.69969940185547 -7.80659294128418 -53.77320861816406 255 255 255
136.80459594726562 -13.80643367767334 -60.999839782714844 255 255 255
161.61373901367188 -28.017677307128906 -86.33303833007812 255 255 255
118.73526763916016 3.1849277019500732 0.7344835996627808 255 255 255
109.83563995361328 2.617293119430542 22.097091674804688 255 255 255
109.74453735351562 3.755908966064453 21.20110511779785 255 255 255
115.00967407226562 3.561511516571045 1.5368632078170776 255 255 255
109.89942169189453 2.854665994644165 20.557437896728516 255 255 255
131.01832580566406 -6.030276298522949 17.254810333251953 255 255 255
128.17454528808594 -4.75349760055542 14.926697731018066 255 255 255
107.34345245361328 3.5967319011688232 26.94926643371582 255 255 255
111.49983978271484 3.449915885925293 2.28324031829834 255 255 255
109.76331329345703 1.3916466236114502 18.243968963623047 255 255 255
104.55680084228516 7.296878814697266 26.621780395507812 255 255 255
107.80760192871094 3.3594601154327393 27.123401641845703 255 255 255
104.78971099853516 6.759966850280762 26.84850311279297 255 255 255
116.26390838623047 -1.6733431816101074 4.346150875091553 255 255 255
128.974365234375 -3.5929689407348633 12.334871292114258 255 255 255
129.35848999023438 -2.630141496658325 10.58731746673584 255 255 255
113.24730682373047 0.022279730066657066 8.879457473754883 255 255 255
128.44546508789062 -1.9878408908843994 13.030473709106445 255 255 255
-9.879480361938477 -0.8900203704833984 -9.369308471679688 255 255 255
-10.1120023727417 -4.824880599975586 -7.081140995025635 255 255 255
-17.208988189697266 -10.20654010772705 -0.9471786022186279 255 255 255
-10.480252265930176 -2.147446393966675 -4.236028671264648 255 255 255
-15.855719566345215 -7.611958980560303 -28.67194366455078 255 255 255
-20.235204696655273 -5.489271640777588 -33.790096282958984 255 255 255
-11.655210494995117 -5.298262596130371 -16.886659622192383 255 255 255
-10.582131385803223 19.93781852722168 103.63501739501953 255 255 255
3.377903461456299 19.219558715820312 100.8459243774414 255 255 255
-9.816366195678711 18.720745086669922 108.22447204589844 255 255 255
0.5479064583778381 13.11765193939209 102.14505004882812 255 255 255
7.847710132598877 16.797590255737305 89.96996307373047 255 255 255
6.073729038238525 12.185873985290527 101.53689575195312 255 255 255
-9.540705680847168 -0.6318815350532532 -15.185038566589355 255 255 255
-13.616264343261719 -2.425724983215332 68.42237091064453 255 255 255
-6.169194221496582 10.512405395507812 66.76785278320312 255 255 255
4.119736194610596 1.1616261005401611 147.06765747070312 255 255 255
-7.29559850692749 -3.7701029777526855 -5.620834827423096 255 255 255
-9.165342330932617 -4.660606384277344 -3.64486026763916 255 255 255
-9.921829223632812 -3.981213092803955 -7.061004161834717 255 255 255
-10.07231330871582 -2.85251784324646 -4.397495746612549 255 255 255
-11.218291282653809 -1.1849623918533325 -10.327550888061523 255 255 255
-22.161230087280273 -1.8526926040649414 -1.5711629390716553 255 255 255
-39.332698822021484 -9.654695510864258 0.6542424559593201 255 255 255
-52.13526153564453 -16.39853858947754 8.078996658325195 255 255 255
9.235605239868164 -4.10167121887207 27.153621673583984 255 255 255
-15.179896354675293 -7.092833518981934 -27.3371639251709 255 255 255
-8.715676307678223 -2.245561122894287 -14.37873649597168 255 255 255
-15.046211242675781 -5.027403831481934 -29.94191551208496 255 255 255
-7.192534446716309 -12.925606727600098 -29.18780517578125 255 255 255
5.004893779754639 -4.141749858856201 -17.20408821105957 255 255 255
-8.415913581848145 -2.2744007110595703 -14.593684196472168 255 255 255
-4.141061305999756 -4.128365993499756 -26.773191452026367 255 255 255
-30.433204650878906 -11.582984924316406 -29.473012924194336 255 255 255
-35.13188171386719 -13.605766296386719 -28.968833923339844 255 255 255
-14.483162879943848 -7.862981796264648 -18.3785400390625 255 255 255
-7.337777614593506 -0.9888716340065002 -10.98486042022705 255 255 255
-8.443439483642578 -2.245473861694336 -14.596319198608398 255 255 255
7.016561508178711 1.1754924058914185 46.936729431152344 255 255 255
7.94980001449585 1.8425369262695312 47.18411636352539 255 255 255
-4.300943374633789 4.554317474365234 75.80936431884766 255 255 255
-1.40218186378479 4.146675109863281 79.00460815429688 255 255 255
1.6996577978134155 10.82792854309082 102.87809753417969 255 255 255
7.192043781280518 9.610392570495605 72.36601257324219 255 255 255
-7.765680313110352 5.042022228240967 76.94458770751953 255 255 255
-1.8902570009231567 3.6921980381011963 80.86832427978516 255 255 255
5.858025550842285 6.593704700469971 77.32418823242188 255 255 255
9.164933204650879 7.058550834655762 71.19770812988281 255 255 255
6.622729778289795 5.932675838470459 74.1974105834961 255 255 255
6.559536457061768 5.97875452041626 73.85768127441406 255 255 255
-4.414074897766113 13.273479461669922 74.73587799072266 255 255 255
-5.825191497802734 2.5227432250976562 79.36627960205078 255 255 255
-76.77613830566406 -0.29471343755722046 -8.68323040008545 255 255 255
-67.61536407470703 -7.338371276855469 -40.874549865722656 255 255 255
-16.6619930267334 -5.842065334320068 -29.305566787719727 255 255 255
-19.856821060180664 -3.1709392070770264 -24.08217430114746 255 255 255
-6.3276472091674805 -9.761966705322266 -26.20612907409668 255 255 255
-14.872319221496582 -5.23680305480957 -13.664883613586426 255 255 255
-4.822029113769531 -13.722771644592285 -26.89839744567871 255 255 255
-6.165526866912842 -2.0049705505371094 -1.9289010763168335 255 255 255
-13.303442001342773 -3.874788999557495 -13.250643730163574 255 255 255
-10.555909156799316 -4.181814193725586 -13.823607444763184 255 255 255
-5.840299606323242 -11.412874221801758 -28.07438087463379 255 255 255
1.4578633308410645 -2.7984137535095215 -20.900617599487305 255 255 255
-20.324602127075195 -4.4241228103637695 -26.526891708374023 255 255 255
-6.696930885314941 -2.0767786502838135 -1.8418350219726562 255 255 255
-50.056297302246094 -141.55133056640625 492.5710144042969 255 255 255
-379.7823486328125 36.27632522583008 35.078182220458984 255 255 255
-54.445247650146484 -3.8712456226348877 -11.228452682495117 255 255 255
0.8520784378051758 -4.7365007400512695 -27.378692626953125 255 255 255
-9.735267639160156 -3.6391704082489014 -27.607473373413086 255 255 255
-26.98111915588379 -6.242712497711182 -26.4038028717041 255 255 255
-30.7596435546875 -4.059786796569824 -26.588449478149414 255 255 255
3.169267177581787 -0.03435991704463959 2.6450893878936768 255 255 255
2.5179781913757324 -2.701505422592163 -20.111501693725586 255 255 255
-40.03305435180664 -1.9630118608474731 -14.187259674072266 255 255 255
-16.032447814941406 -7.195349216461182 -27.686058044433594 255 255 255
-8.173359870910645 -5.6410417556762695 -12.006433486938477 255 255 255
-11.37787914276123 -3.8681468963623047 -26.291563034057617 255 255 255
9.840472221374512 16.964603424072266 90.9953384399414 255 255 255
17.486719131469727 15.855168342590332 129.95562744140625 255 255 255
