-100.71504974365234 9.793499946594238 135.1856689453125 255 255 255
-82.21823120117188 10.921299934387207 120.82486724853516 255 255 255
-80.9454574584961 10.744450569152832 119.8941879272461 255 255 255
-81.41725158691406 11.080772399902344 120.3459701538086 255 255 255
-82.62523651123047 9.715689659118652 114.65261840820312 255 255 255
-106.93543243408203 8.239192008972168 119.30265045166016 255 255 255
-107.40402221679688 7.013069152832031 119.27559661865234 255 255 255
-101.6677017211914 5.880853176116943 114.45567321777344 255 255 255
-104.19694519042969 3.1464130878448486 113.0271224975586 255 255 255
-64.66984558105469 -27.27702522277832 -170.65158081054688 255 255 255
-68.79179382324219 -26.724590301513672 -152.13540649414062 255 255 255
-68.11024475097656 -23.518754959106445 -147.95733642578125 255 255 255
-70.92478942871094 -23.309799194335938 -146.21226501464844 255 255 255
-25.00044059753418 -21.490497589111328 -103.49798583984375 255 255 255
19.107946395874023 -21.873577117919922 -131.16397094726562 255 255 255
2.9857091903686523 -20.640541076660156 -141.15081787109375 255 255 255
-100.42233276367188 13.063911437988281 118.40727233886719 255 255 255
-100.18351745605469 8.14079761505127 113.24881744384766 255 255 255
-101.66576385498047 6.87042236328125 110.85653686523438 255 255 255
-96.93134307861328 13.005899429321289 111.88497161865234 255 255 255
-99.21247100830078 12.875207901000977 111.52373504638672 255 255 255
-80.76322937011719 -4.586507320404053 -10.980237007141113 255 255 255
-81.96095275878906 -11.395585060119629 -6.023432731628418 255 255 255
-95.02845001220703 -5.996378421783447 -13.377750396728516 255 255 255
-59.545806884765625 -20.370126724243164 -94.12206268310547 255 255 255
-82.50784301757812 -12.187214851379395 -6.190500736236572 255 255 255
-59.78715133666992 -27.3509521484375 -179.9265899658203 255 255 255
-48.60081481933594 -62.90068817138672 -242.6076202392578 255 255 255
-69.16051483154297 -23.70060157775879 -139.98899841308594 255 255 255
-101.70147705078125 4.315449237823486 112.32186126708984 255 255 255
-128.73248291015625 -26.12609100341797 3.2781500816345215 255 255 255
-110.28824615478516 -20.84356689453125 14.347821235656738 255 255 255
-114.83899688720703 -27.34145164489746 5.972210884094238 255 255 255
-100.96439361572266 6.796707630157471 59.61248779296875 255 255 255
-94.74983978271484 3.7620394229888916 36.572242736816406 255 255 255
-77.2525405883789 -4.497986316680908 -5.82475471496582 255 255 255
-81.7048110961914 -5.2597432136535645 0.6211631298065186 255 255 255
-90.87239074707031 1.5152332782745361 24.03372573852539 255 255 255
-56.31254196166992 -23.861988067626953 -118.81483459472656 255 255 255
-129.91075134277344 -39.74675369262695 -16.150009155273438 255 255 255
-96.19693756103516 6.323365211486816 54.09525680541992 255 255 255
-100.68938446044922 5.233190059661865 48.68777084350586 255 255 255
-89.83765411376953 -8.741724967956543 -6.1279072761535645 255 255 255
-79.90599822998047 -8.8423490524292 -13.688570022583008 255 255 255
-232.34036254882812 -892.7518920898438 -3023.19287109375 255 255 255
-83.28756713867188 -3.5336780548095703 -5.696485996246338 255 255 255
-81.90662384033203 -9.763867378234863 -4.899852275848389 255 255 255
-85.28202819824219 10.147921562194824 85.86891174316406 255 255 255
-93.96495056152344 7.972554683685303 64.64027404785156 255 255 255
-88.30235290527344 6.206335544586182 89.15339660644531 255 255 255
-86.1914291381836 10.070954322814941 78.35811614990234 255 255 255
-101.36306762695312 12.536359786987305 114.4760513305664 255 255 255
-100.98941040039062 12.362348556518555 113.78829193115234 255 255 255
-100.9713363647461 5.7209320068359375 108.54093170166016 255 255 255
-101.35578155517578 8.685290336608887 107.3007583618164 255 255 255
-108.94253540039062 9.89301586151123 102.7332992553711 255 255 255
-107.82474517822266 4.69314432144165 114.94480895996094 255 255 255
-112.8917236328125 9.495993614196777 103.00039672851562 255 255 255
-86.31794738769531 -11.482497215270996 -46.50591278076172 255 255 255
-92.2442626953125 -2.4208343029022217 2.025695562362671 255 255 255
-93.08366394042969 -7.093735694885254 3.0704636573791504 255 255 255
-80.90624237060547 -15.71363639831543 -4.757405757904053 255 255 255
-91.0521469116211 -5.354939937591553 -14.380716323852539 255 255 255
-99.76504516601562 -23.442825317382812 -29.75724220275879 255 255 255
-94.53482055664062 -5.551486492156982 -10.738677978515625 255 255 255
-94.98785400390625 -5.887589931488037 -14.38138198852539 255 255 255
-89.88810729980469 -9.533193588256836 -9.576409339904785 255 255 255
-91.68400573730469 -5.753410816192627 -5.18407678604126 255 255 255
-86.62602233886719 -27.180686950683594 -72.96891784667969 255 255 255
-82.76982879638672 -7.517200946807861 9.679464340209961 255 255 255
-91.57596588134766 -1.3597958087921143 7.213013172149658 255 255 255
-94.46581268310547 -0.34721311926841736 13.769542694091797 255 255 255
-95.48638916015625 1.865723729133606 39.63175964355469 255 255 255
-95.6314926147461 -4.782414436340332 38.61971664428711 255 255 255
-57.726341247558594 -39.21725845336914 -221.20596313476562 255 255 255
-81.85464477539062 -27.47690773010254 -154.54905700683594 255 255 255
-81.71920776367188 -26.492250442504883 -126.58816528320312 255 255 255
-58.087615966796875 -39.067726135253906 -153.5347900390625 255 255 255
-57.20513916015625 -25.207866668701172 -156.47079467773438 255 255 255
-85.5549087524414 -24.126739501953125 -135.25051879882812 255 255 255
-111.09033966064453 -28.319732666015625 -108.33797454833984 255 255 255
-125.41800689697266 12.0414457321167 119.96510314941406 255 255 255
-92.62993621826172 14.334073066711426 120.1556625366211 255 255 255
-107.85637664794922 6.916677474975586 119.22171783447266 255 255 255
-86.65282440185547 11.586304664611816 121.95439910888672 255 255 255
-86.63601684570312 11.28347396850586 121.82746124267578 255 255 255
-76.35403442382812 -2.385982036590576 75.90499877929688 255 255 255
-96.90288543701172 3.7682981491088867 88.67140197753906 255 255 255
-100.6600341796875 5.827478408813477 95.81197357177734 255 255 255
-82.55171203613281 -8.430994987487793 14.790772438049316 255 255 255
-101.73380279541016 6.958868980407715 115.00384521484375 255 255 255
-127.1322250366211 14.448601722717285 125.7981948852539 255 255 255
-104.6529541015625 9.517885208129883 109.4027328491211 255 255 255
-102.11518859863281 5.460408687591553 110.70918273925781 255 255 255
-106.03010559082031 8.782326698303223 115.74029541015625 255 255 255
-552.6142578125 -143.7428741455078 347.4690856933594 255 255 255
-103.4253158569336 9.43760871887207 119.30496978759766 255 255 255
-88.6507797241211 -10.895684242248535 -9.53176498413086 255 255 255
-89.69013214111328 10.441272735595703 73.3477554321289 255 255 255
-89.44580078125 7.670431137084961 57.68968963623047 255 255 255
-101.130126953125 -8.085352897644043 35.48207473754883 255 255 255
-105.14527893066406 -19.061019897460938 15.705867767333984 255 255 255
-66.92955017089844 -34.80208969116211 -169.43284606933594 255 255 255
-84.77411651611328 -25.317588806152344 -148.9447021484375 255 255 255
-51.726131439208984 -42.703365325927734 -164.66305541992188 255 255 255
-43.525455474853516 -51.781558990478516 -184.65452575683594 255 255 255
-70.68186950683594 -22.722246170043945 -138.64149475097656 255 255 255
-83.68743896484375 -23.926584243774414 -88.68789672851562 255 255 255
-85.5003662109375 -23.600133895874023 -130.035400390625 255 255 255
-83.2149658203125 -18.209522247314453 -104.7398452758789 255 255 255
-83.05752563476562 -25.727249145507812 -119.95484161376953 255 255 255
-80.14823150634766 -25.06891441345215 -158.31976318359375 255 255 255
-79.81973266601562 -22.33754539489746 -136.84725952148438 255 255 255
-78.02831268310547 -23.249052047729492 -146.33551025390625 255 255 255
-70.15225219726562 -22.06883430480957 -138.24325561523438 255 255 255
-100.60850524902344 12.18649959564209 133.66171264648438 255 255 255
-102.68359375 6.301474094390869 111.26902770996094 255 255 255
-89.86792755126953 7.643942356109619 112.99931335449219 255 255 255
-88.18415069580078 6.865334987640381 115.73892974853516 255 255 255
-78.83855438232422 -12.511933326721191 15.146012306213379 255 255 255
-94.54251098632812 3.0082294940948486 33.7535400390625 255 255 255
-88.61325073242188 -4.564498424530029 20.09002685546875 255 255 255
-82.97879028320312 -13.731440544128418 5.261687755584717 255 255 255
-103.19676208496094 12.466720581054688 128.59971618652344 255 255 255
-89.20087432861328 14.913643836975098 123.64092254638672 255 255 255
-324.82208251953125 -47.82083511352539 213.7870635986328 255 255 255
-111.88623046875 3.1683454513549805 102.53916931152344 255 255 255
-99.61140441894531 8.034531593322754 108.189208984375 255 255 255
-111.207763671875 7.758508682250977 111.97499084472656 255 255 255
-105.5490493774414 11.337074279785156 96.24959564208984 255 255 255
-103.2652587890625 10.88537311553955 107.71302795410156 255 255 255
-98.74365234375 6.997183322906494 104.35774993896484 255 255 255
-98.71361541748047 9.869470596313477 104.22573852539062 255 255 255
-103.70060729980469 5.3684401512146 99.57685852050781 255 255 255
-95.42267608642578 13.480186462402344 114.28042602539062 255 255 255
-359.2668762207031 -101.43234252929688 135.50454711914062 255 255 255
-96.72976684570312 11.444053649902344 84.24388122558594 255 255 255
-85.02694702148438 2.3322551250457764 91.7296371459961 255 255 255
-85.89203643798828 3.160609006881714 81.98100280761719 255 255 255
-95.17671203613281 2.60960054397583 33.25762939453125 255 255 255
-87.19154357910156 3.1765999794006348 34.020267486572266 255 255 255
15.67381477355957 -4.168637752532959 86.81951904296875 255 255 255
-86.82825469970703 8.291263580322266 62.231300354003906 255 255 255
-91.62547302246094 7.593094825744629 58.43063735961914 255 255 255
-92.73475646972656 -5.306087017059326 20.764890670776367 255 255 255
-81.80467224121094 -0.36756742000579834 11.820494651794434 255 255 255
-92.45352935791016 -12.175158500671387 -16.099300384521484 255 255 255
-92.08866882324219 -23.887685775756836 -58.81498336791992 255 255 255
-95.77021789550781 -16.189125061035156 -36.67781448364258 255 255 255
-95.7310791015625 3.4984562397003174 82.1985855102539 255 255 255
-102.4425277709961 11.648063659667969 99.5782241821289 255 255 255
-94.97036743164062 5.982585906982422 61.078800201416016 255 255 255
3.111189603805542 4.544521331787109 18.843032836914062 255 255 255
-4.5809125900268555 1.3269798755645752 11.909384727478027 255 255 255
-176.02206420898438 11.518003463745117 141.7986602783203 255 255 255
1.555025339126587 -20.16949462890625 -81.08197021484375 255 255 255
1.4113006591796875 -21.36071014404297 -84.23052215576172 255 255 255
9.941561698913574 -12.097464561462402 -82.49622344970703 255 255 255
0.6050639748573303 -13.321523666381836 -90.02384185791016 255 255 255
-1.7182801961898804 -9.731740951538086 -62.93748474121094 255 255 255
36.75214767456055 -9.435867309570312 -21.301393508911133 255 255 255
-103.3028564453125 3.496878147125244 113.17009735107422 255 255 255
-85.01596069335938 0.617204487323761 76.5592269897461 255 255 255
-98.04281616210938 11.492598533630371 90.47061920166016 255 255 255
-99.75199890136719 10.582718849182129 78.5462875366211 255 255 255
-86.23837280273438 8.58458137512207 91.96086883544922 255 255 255
-86.17245483398438 9.88850212097168 80.64409637451172 255 255 255
-119.00799560546875 17.904033660888672 149.1844024658203 255 255 255
-95.07911682128906 14.419647216796875 122.86093139648438 255 255 255
-102.6317138671875 8.456188201904297 115.82921600341797 255 255 255
-101.6309585571289 8.197288513183594 115.35458374023438 255 255 255
-81.76970672607422 -5.6035590171813965 6.139519214630127 255 255 255
-81.1649398803711 -15.282045364379883 -11.14649772644043 255 255 255
-67.32549285888672 -15.015031814575195 -69.32096099853516 255 255 255
-87.49236297607422 10.38744831085205 122.91730499267578 255 255 255
-97.55916595458984 7.971752643585205 89.75924682617188 255 255 255
-98.7713851928711 11.919133186340332 94.04623413085938 255 255 255
-97.42344665527344 10.1696138381958 78.775146484375 255 255 255
-94.53404998779297 11.647295951843262 87.76577758789062 255 255 255
-94.54064178466797 11.652795791625977 87.11650848388672 255 255 255
-101.23464965820312 9.472511291503906 81.90727233886719 255 255 255
-98.21147918701172 0.4816402792930603 94.1464614868164 255 255 255
-97.92598724365234 4.42186164855957 95.96144104003906 255 255 255
-101.2865219116211 4.713704586029053 97.26933288574219 255 255 255
-104.38998413085938 8.694291114807129 75.87665557861328 255 255 255
-84.40225982666016 -15.201301574707031 -79.58251190185547 255 255 255
-82.65188598632812 -21.7249813079834 -86.86758422851562 255 255 255
-85.93486785888672 -22.935623168945312 -129.6006622314453 255 255 255
-72.97138977050781 -18.07365608215332 -102.23553466796875 255 255 255
-73.4422607421875 -16.169052124023438 -89.68245697021484 255 255 255
-517.1282348632812 -204.8826904296875 371.36566162109375 255 255 255
-100.2331771850586 14.711183547973633 124.55937957763672 255 255 255
-100.83687591552734 10.399189949035645 127.56996154785156 255 255 255
-111.15830993652344 9.389139175415039 109.16852569580078 255 255 255
-170.83218383789062 6.890433311462402 144.16175842285156 255 255 255
-101.23985290527344 5.516436576843262 105.005859375 255 255 255
-110.69388580322266 9.55701732635498 106.84757995605469 255 255 255
-107.17950439453125 6.3048481941223145 108.08939361572266 255 255 255
-109.69792175292969 6.344051837921143 111.42427062988281 255 255 255
-100.85366821289062 8.652240753173828 115.4001693725586 255 255 255
-101.92169952392578 6.383968830108643 114.71660614013672 255 255 255
-102.8187484741211 5.291796684265137 113.12747192382812 255 255 255
-81.18244171142578 -17.252727508544922 -17.217138290405273 255 255 255
-103.10254669189453 9.452539443969727 119.73481750488281 255 255 255
-105.53536987304688 5.488238334655762 115.50817108154297 255 255 255
-92.68204498291016 -7.409467697143555 0.5898057222366333 255 255 255
-93.93190002441406 -3.4559736251831055 13.934649467468262 255 255 255
5.859875202178955 -12.502256393432617 -84.08081817626953 255 255 255
-4.191214084625244 -10.783905982971191 -70.73800659179688 255 255 255
2.9801104068756104 -20.65866470336914 -82.09268188476562 255 255 255
2.04026460647583 -20.754459381103516 -81.20361328125 255 255 255
9.686577796936035 -14.722025871276855 -53.45977020263672 255 255 255
-2.3299999237060547 -20.175052642822266 -68.51995849609375 255 255 255
-102.18132781982422 9.229342460632324 117.83465576171875 255 255 255
-135.04989624023438 3.7078404426574707 154.25863647460938 255 255 255
-107.62879180908203 7.750174522399902 112.03846740722656 255 255 255
-101.60221099853516 13.527759552001953 134.1365509033203 255 255 255
-101.40888977050781 9.828691482543945 117.27656555175781 255 255 255
-107.61302185058594 7.113838195800781 112.08226013183594 255 255 255
-106.12353515625 6.735727787017822 108.57688903808594 255 255 255
-111.67635345458984 8.350656509399414 101.60508728027344 255 255 255
11.873442649841309 -15.937145233154297 -51.365760803222656 255 255 255
6.176457405090332 -9.166654586791992 -64.91954040527344 255 255 255
-0.24509096145629883 -13.847540855407715 -69.9710922241211 255 255 255
-100.9398193359375 8.778275489807129 115.42473602294922 255 255 255
-105.42276763916016 10.594598770141602 111.80611419677734 255 255 255
-104.58293914794922 3.7098207473754883 89.8054428100586 255 255 255
-100.29801940917969 9.840598106384277 100.84153747558594 255 255 255
-100.15140533447266 7.368519306182861 103.52615356445312 255 255 255
-102.43107604980469 2.3533878326416016 98.58417510986328 255 255 255
-115.94026947021484 9.03986930847168 100.2729263305664 255 255 255
-103.20032501220703 7.3356170654296875 111.68196105957031 255 255 255
-126.4462661743164 -1.9316401481628418 98.57610321044922 255 255 255
-105.82009887695312 10.354080200195312 104.63420104980469 255 255 255
-101.63809967041016 12.636911392211914 105.05888366699219 255 255 255
-102.69572448730469 5.004239082336426 91.783203125 255 255 255
-103.60985565185547 6.043472766876221 108.84021759033203 255 255 255
-99.32865905761719 5.613005638122559 102.42237854003906 255 255 255
-108.74536895751953 8.515157699584961 111.7449951171875 255 255 255
-101.0698471069336 4.08204984664917 101.3278579711914 255 255 255
-101.0677719116211 4.131283283233643 102.203857421875 255 255 255
-103.74304962158203 9.655400276184082 104.00273132324219 255 255 255
-101.69833374023438 11.106377601623535 101.05976867675781 255 255 255
-87.55972290039062 2.0592761039733887 56.40403366088867 255 255 255
-95.44874572753906 4.384925842285156 82.87123107910156 255 255 255
-97.14863586425781 7.045438766479492 90.74526977539062 255 255 255
-106.80952453613281 11.71549129486084 96.36801147460938 255 255 255
-106.68528747558594 1.9527183771133423 91.56316375732422 255 255 255
-97.14501953125 6.849465370178223 95.16218566894531 255 255 255
-105.10625457763672 8.301128387451172 67.7628402709961 255 255 255
-100.99543762207031 15.055357933044434 129.9423828125 255 255 255
-123.92709350585938 11.237963676452637 101.75745391845703 255 255 255
-102.35179901123047 12.440530776977539 105.12164306640625 255 255 255
-102.4798583984375 5.884704113006592 110.76692962646484 255 255 255
-85.20479583740234 14.571545600891113 120.94364929199219 255 255 255
-89.97888946533203 14.843270301818848 123.6976089477539 255 255 255
-87.24995422363281 14.18579387664795 119.30068969726562 255 255 255
-89.31244659423828 13.545169830322266 114.58427429199219 255 255 255
-101.07534790039062 5.885416507720947 110.88841247558594 255 255 255
-86.19153594970703 10.680201530456543 121.7790756225586 255 255 255
-88.3844985961914 6.64232873916626 91.43827819824219 255 255 255
-103.01345825195312 9.981328010559082 89.73046112060547 255 255 255
-108.26642608642578 10.111427307128906 81.67095947265625 255 255 255
-88.809814453125 11.677223205566406 78.22251892089844 255 255 255
-79.02175903320312 -9.95586109161377 -41.06489562988281 255 255 255
-78.99409484863281 -17.180063247680664 -33.022674560546875 255 255 255
-100.52543640136719 6.906198501586914 95.97959899902344 255 255 255
-82.16062927246094 -1.799381136894226 55.54525375366211 255 255 255
-86.12117767333984 4.180450916290283 92.50912475585938 255 255 255
-85.45755767822266 2.94762921333313 91.5433120727539 255 255 255
-101.697998046875 4.668306350708008 93.95104217529297 255 255 255
-82.79981231689453 1.8104948997497559 86.03166198730469 255 255 255
-93.18325805664062 14.313833236694336 123.04497528076172 255 255 255
-83.30326843261719 10.925699234008789 121.02655792236328 255 255 255
-80.05818939208984 11.610594749450684 121.42406463623047 255 255 255
-96.94366455078125 -10.518217086791992 -29.09391975402832 255 255 255
-81.57054138183594 -15.549383163452148 -4.032020568847656 255 255 255
-93.17159271240234 -8.39700984954834 -0.025605201721191406 255 255 255
-95.55779266357422 -1.3830734491348267 7.735525608062744 255 255 255
-82.25175476074219 -10.245506286621094 -20.0894832611084 255 255 255
-89.89069366455078 -10.868119239807129 -10.15530776977539 255 255 255
-96.17235565185547 14.308516502380371 122.15912628173828 255 255 255
-3214.5830078125 -1063.2362060546875 1730.645751953125 255 255 255
-100.92369842529297 10.829580307006836 118.26950073242188 255 255 255
-87.03382873535156 8.274022102355957 115.11451721191406 255 255 255
-115.70946502685547 13.470560073852539 135.1756591796875 255 255 255
-88.61311340332031 13.370598793029785 113.37028503417969 255 255 255
-102.28143310546875 5.537459373474121 113.29505157470703 255 255 255
-85.91545104980469 10.84604263305664 120.99308013916016 255 255 255
-85.43603515625 14.64404582977295 121.27684783935547 255 255 255
-80.62518310546875 11.045048713684082 121.40730285644531 255 255 255
-87.3755874633789 10.585346221923828 113.04253387451172 255 255 255
-80.09972381591797 11.119647026062012 120.4740219116211 255 255 255
-99.45210266113281 13.5394868850708 117.79275512695312 255 255 255
-105.4318618774414 16.602764129638672 138.25074768066406 255 255 255
-104.6006851196289 6.162559986114502 116.805908203125 255 255 255
-79.40676879882812 14.132084846496582 120.02819061279297 255 255 255
-102.23139190673828 6.336694717407227 114.96819305419922 255 255 255
-103.50984954833984 9.415234565734863 127.72618103027344 255 255 255
-85.7822494506836 10.7356538772583 121.96833038330078 255 255 255
-104.25651550292969 1.994949221611023 113.57598876953125 255 255 255
-1246.45703125 -471.6776123046875 454.1518249511719 255 255 255
-96.7840805053711 14.758502960205078 124.43151092529297 255 255 255
-100.63935089111328 7.410170078277588 114.06640625 255 255 255
-100.29035949707031 12.475696563720703 127.17105102539062 255 255 255
-83.49896240234375 9.72419548034668 112.89315032958984 255 255 255
-100.87908935546875 12.624255180358887 133.09197998046875 255 255 255
-96.37777709960938 14.386301040649414 122.27652740478516 255 255 255
-98.70182800292969 11.485152244567871 87.37113952636719 255 255 255
-99.69316864013672 6.074839115142822 96.97944641113281 255 255 255
-98.6716537475586 9.434332847595215 103.98892974853516 255 255 255
-79.19023132324219 10.358073234558105 118.54591369628906 255 255 255
-93.00532531738281 -8.166192054748535 -28.70612907409668 255 255 255
-96.80520629882812 3.2902424335479736 80.37510681152344 255 255 255
-102.36009216308594 4.937809467315674 100.55878448486328 255 255 255
-94.72067260742188 -3.653001546859741 21.74131202697754 255 255 255
-85.86906433105469 1.9786064624786377 84.58788299560547 255 255 255
-100.64939880371094 12.4113130569458 112.53032684326172 255 255 255
-107.07545471191406 13.563286781311035 132.4407501220703 255 255 255
-130.05213928222656 8.953840255737305 116.09571075439453 255 255 255
-87.64851379394531 7.0951128005981445 114.34927368164062 255 255 255
-82.73778533935547 11.688626289367676 120.6866683959961 255 255 255
-88.39492797851562 8.207104682922363 113.34605407714844 255 255 255
-81.01129150390625 14.458861351013184 120.18916320800781 255 255 255
-105.79408264160156 6.083829879760742 117.7451171875 255 255 255
-78.99789428710938 10.553255081176758 118.66045379638672 255 255 255
-82.81848907470703 -0.19306185841560364 14.06896686553955 255 255 255
-79.44596862792969 11.83455753326416 120.7702865600586 255 255 255
-110.68426513671875 8.162060737609863 115.32610321044922 255 255 255
-101.71980285644531 9.439366340637207 119.54756164550781 255 255 255
-83.68943786621094 2.4459640979766846 79.48007202148438 255 255 255
-94.74819946289062 -8.567070007324219 -11.682047843933105 255 255 255
-92.94611358642578 -6.728339195251465 19.015352249145508 255 255 255
-95.19969177246094 -1.8847136497497559 34.44948196411133 255 255 255
-77.6134262084961 -9.805411338806152 20.26359748840332 255 255 255
-86.07559967041016 2.519033432006836 29.257526397705078 255 255 255
-94.66092681884766 -1.302283763885498 35.250762939453125 255 255 255
-100.28485870361328 12.110237121582031 133.4095001220703 255 255 255
-95.2773208618164 4.619491100311279 112.645263671875 255 255 255
-102.54794311523438 14.11934757232666 130.4874267578125 255 255 255
-90.72443389892578 6.728572368621826 114.36187744140625 255 255 255
-150.33096313476562 16.12877655029297 139.25753784179688 255 255 255
-86.64387512207031 11.083234786987305 112.88711547851562 255 255 255
-98.36581420898438 9.792084693908691 85.3654556274414 255 255 255
-103.8638916015625 6.439191818237305 98.2982177734375 255 255 255
-96.70231628417969 4.418188571929932 90.82610321044922 255 255 255
-103.5079345703125 11.347458839416504 99.09104919433594 255 255 255
-106.63378143310547 3.196312427520752 95.40245056152344 255 255 255
-104.7601089477539 3.1133036613464355 95.64973449707031 255 255 255
-36.32134246826172 -35.3343620300293 -208.62571716308594 255 255 255
-49.751224517822266 -36.190975189208984 -208.87742614746094 255 255 255
-104.44821166992188 8.726480484008789 107.61590576171875 255 255 255
-101.98271179199219 7.784567356109619 110.61454010009766 255 255 255
-86.4153823852539 11.459004402160645 122.241943359375 255 255 255
-92.72660827636719 13.957752227783203 117.74929809570312 255 255 255
-97.37295532226562 12.196600914001465 93.79605865478516 255 255 255
-97.84557342529297 5.1221537590026855 96.80113983154297 255 255 255
-87.56871032714844 14.084144592285156 118.58139038085938 255 255 255
-240.1665496826172 -50.29704666137695 144.11892700195312 255 255 255
-88.27613830566406 7.6014838218688965 115.42566680908203 255 255 255
-86.17044067382812 10.567530632019043 122.20162963867188 255 255 255
-79.73188781738281 -5.330911159515381 -10.474370956420898 255 255 255
-96.8239974975586 6.885317802429199 58.08832550048828 255 255 255
-87.89674377441406 6.534617900848389 54.90104675292969 255 255 255
-94.64191436767578 3.0043020248413086 33.71684265136719 255 255 255
-93.13407135009766 2.812617540359497 30.495405197143555 255 255 255
-82.61454010009766 -8.339826583862305 16.991182327270508 255 255 255
-105.80844116210938 -1.0488789081573486 23.704734802246094 255 255 255
-86.5093765258789 4.858970642089844 42.796321868896484 255 255 255
-94.52298736572266 0.6477211117744446 39.9755744934082 255 255 255
-95.34305572509766 3.3972764015197754 39.23834991455078 255 255 255
-105.43930053710938 -0.8775423765182495 24.637331008911133 255 255 255
-81.82459259033203 -2.188473701477051 14.251763343811035 255 255 255
-101.39163208007812 9.267658233642578 80.94328308105469 255 255 255
-94.79088592529297 10.918615341186523 68.90666961669922 255 255 255
-100.9399642944336 8.954388618469238 93.29292297363281 255 255 255
-93.50777435302734 12.900209426879883 123.85581970214844 255 255 255
-90.03340148925781 14.855690002441406 123.732666015625 255 255 255
-160.87387084960938 -14.331539154052734 144.312744140625 255 255 255
-256.17510986328125 -61.64287185668945 118.89292907714844 255 255 255
-85.21369934082031 14.575637817382812 120.94589233398438 255 255 255
-86.97178649902344 14.457874298095703 120.69232940673828 255 255 255
-87.28889465332031 14.044716835021973 118.62091064453125 255 255 255
-102.05465698242188 9.640456199645996 128.24594116210938 255 255 255
-83.16497039794922 14.386909484863281 118.96052551269531 255 255 255
-82.3529052734375 13.953825950622559 117.06964111328125 255 255 255
-101.48016357421875 12.341764450073242 113.61375427246094 255 255 255
-86.20741271972656 12.903191566467285 112.94950103759766 255 255 255
-80.81812286376953 9.966253280639648 120.10888671875 255 255 255
-112.1333999633789 12.875702857971191 116.31803894042969 255 255 255
-1.8041107654571533 -1.515979528427124 -18.72459602355957 255 255 255
-2.4154889583587646 -2.6607697010040283 -20.763296127319336 255 255 255
-104.93869018554688 8.50933837890625 112.07060241699219 255 255 255
-103.34235382080078 13.07850170135498 114.67273712158203 255 255 255
-103.18405151367188 9.857625007629395 109.65544128417969 255 255 255
-104.12590789794922 8.591329574584961 106.49297332763672 255 255 255
-103.98469543457031 6.957613468170166 112.99483489990234 255 255 255
-110.44256591796875 13.363497734069824 119.94544219970703 255 255 255
-97.71275329589844 6.3299784660339355 96.86237335205078 255 255 255
-97.42250061035156 7.627509117126465 92.55548858642578 255 255 255
-100.0957260131836 8.523757934570312 101.77046203613281 255 255 255
-104.49542999267578 9.193753242492676 109.87374114990234 255 255 255
-100.61267852783203 9.765007019042969 118.60916900634766 255 255 255
-105.92589569091797 8.873860359191895 109.07662963867188 255 255 255
-101.51820373535156 6.193490982055664 111.10155487060547 255 255 255
-107.57964324951172 5.757165431976318 117.88304138183594 255 255 255
-103.05281066894531 6.289704322814941 111.21068572998047 255 255 255
-101.9670181274414 6.964119911193848 110.3096694946289 255 255 255
-99.1412582397461 14.558795928955078 122.89969635009766 255 255 255
-92.44172668457031 -10.232328414916992 0.7762417197227478 255 255 255
-168.74880981445312 -0.5882031321525574 178.49330139160156 255 255 255
-96.2672348022461 14.820755004882812 124.46973419189453 255 255 255
-87.1488265991211 11.346492767333984 122.45626068115234 255 255 255
-95.0262222290039 -17.918075561523438 -70.68980407714844 255 255 255
-100.60829162597656 10.809203147888184 117.34001159667969 255 255 255
-102.52838897705078 9.06096076965332 78.18956756591797 255 255 255
-84.78321838378906 2.5828092098236084 87.33235168457031 255 255 255
-87.27091217041016 7.341829776763916 57.21342849731445 255 255 255
-95.6888427734375 -3.801304340362549 47.673675537109375 255 255 255
-99.80204010009766 10.48912239074707 76.64275360107422 255 255 255
-82.03099060058594 -3.196014165878296 -2.6244194507598877 255 255 255
-81.35107421875 -10.827268600463867 7.0740647315979 255 255 255
-83.6493911743164 -5.983948707580566 15.057718276977539 255 255 255
-92.19417572021484 -5.037019729614258 -8.563483238220215 255 255 255
-65.39701080322266 -15.662894248962402 -77.6393814086914 255 255 255
-76.1978759765625 -6.145736217498779 -7.0028395652771 255 255 255
-99.49360656738281 -28.549646377563477 -33.17054748535156 255 255 255
-92.32826232910156 -7.079026699066162 0.6054713129997253 255 255 255
-101.12698364257812 9.589025497436523 86.41764831542969 255 255 255
-103.27476501464844 10.05461311340332 88.17986297607422 255 255 255
-102.8399887084961 12.601524353027344 105.53962707519531 255 255 255
-98.36463928222656 4.152867794036865 103.81481170654297 255 255 255
-109.06895446777344 9.831469535827637 107.7520980834961 255 255 255
-99.3608169555664 6.371359825134277 109.22199249267578 255 255 255
-100.63687896728516 4.991569519042969 106.90617370605469 255 255 255
-89.58645629882812 12.126739501953125 87.8477554321289 255 255 255
-92.91057586669922 13.995182037353516 117.75379943847656 255 255 255
-103.37763977050781 5.337117671966553 114.16481018066406 255 255 255
-80.5018081665039 14.651018142700195 121.98348236083984 255 255 255
-100.53126525878906 12.473769187927246 127.06317138671875 255 255 255
-83.92205047607422 10.110553741455078 112.88509368896484 255 255 255
-85.318115234375 13.867897033691406 117.8582534790039 255 255 255
-78.30909729003906 9.824027061462402 119.45550537109375 255 255 255
-77.54839324951172 10.632181167602539 117.45352935791016 255 255 255
-185.60562133789062 8.473694801330566 146.43943786621094 255 255 255
-79.18343353271484 14.433210372924805 119.56962585449219 255 255 255
-78.91634368896484 13.907124519348145 115.5640869140625 255 255 255
-138.2406005859375 9.12969970703125 136.08802795410156 255 255 255
-116.13240814208984 7.564851760864258 120.89277648925781 255 255 255
-89.67835998535156 -10.606701850891113 -9.914193153381348 255 255 255
-89.54549407958984 -9.422380447387695 -9.937714576721191 255 255 255
-89.90718078613281 -9.530491828918457 -9.536816596984863 255 255 255
-80.95279693603516 -12.2354736328125 -12.301037788391113 255 255 255
-98.7010269165039 -16.343761444091797 -19.462602615356445 255 255 255
-82.2874526977539 -13.70899772644043 -20.3944091796875 255 255 255
-86.85941314697266 7.798163890838623 115.13136291503906 255 255 255
-99.1529312133789 14.0089750289917 136.57479858398438 255 255 255
-109.72750854492188 9.769998550415039 114.46977233886719 255 255 255
-85.25675201416016 11.17019271850586 123.79002380371094 255 255 255
-89.61676788330078 -3.6774613857269287 15.721620559692383 255 255 255
-89.04273986816406 -5.447429656982422 14.222369194030762 255 255 255
-83.60991668701172 -9.588799476623535 14.521951675415039 255 255 255
-83.50822448730469 -8.727367401123047 15.685184478759766 255 255 255
-80.99134826660156 -2.2174549102783203 7.962589263916016 255 255 255
-80.0355224609375 14.170489311218262 117.39785766601562 255 255 255
-79.55501556396484 13.816680908203125 120.7721939086914 255 255 255
-107.23460388183594 16.822641372680664 140.01307678222656 255 255 255
-94.8240737915039 6.62436056137085 114.59091186523438 255 255 255
-79.73332214355469 13.667474746704102 120.51655578613281 255 255 255
-74.13187408447266 8.321690559387207 118.22801971435547 255 255 255
-87.60843658447266 7.222919940948486 114.38288879394531 255 255 255
-82.17835998535156 -22.857730865478516 -87.17929077148438 255 255 255
-80.13091278076172 14.533737182617188 119.5069351196289 255 255 255
-101.62579345703125 11.93645191192627 113.65288543701172 255 255 255
-93.20377349853516 13.836527824401855 116.55438232421875 255 255 255
-101.02416229248047 8.131455421447754 112.40984344482422 255 255 255
-101.65142059326172 4.702448844909668 111.94511413574219 255 255 255
-139.47677612304688 11.685667037963867 120.48438262939453 255 255 255
-100.9951171875 11.01577377319336 98.80876159667969 255 255 255
-96.64674377441406 7.279935359954834 83.10505676269531 255 255 255
-74.47393035888672 10.44257640838623 118.35770416259766 255 255 255
-90.54210662841797 10.181090354919434 72.53862762451172 255 255 255
-85.48914337158203 2.5427794456481934 91.65115356445312 255 255 255
-85.9571533203125 5.700183391571045 88.93479919433594 255 255 255
-98.00450897216797 4.736203670501709 96.0842056274414 255 255 255
-101.0730209350586 12.284111976623535 133.9495391845703 255 255 255
-99.60238647460938 10.470240592956543 128.42977905273438 255 255 255
-88.17423248291016 7.643914699554443 115.44178771972656 255 255 255
-105.31556701660156 8.516973495483398 131.19290161132812 255 255 255
-104.26078033447266 8.888649940490723 117.11981964111328 255 255 255
-153.08990478515625 10.724903106689453 135.72340393066406 255 255 255
-138.71742248535156 9.688725471496582 138.30165100097656 255 255 255
-92.77447509765625 -11.750231742858887 6.897457599639893 255 255 255
-98.48104858398438 11.862972259521484 95.08840942382812 255 255 255
-85.7215805053711 10.224566459655762 84.33467864990234 255 255 255
-85.66224670410156 10.204303741455078 84.18941497802734 255 255 255
-84.45396423339844 1.3078861236572266 83.66423034667969 255 255 255
-102.27731323242188 3.9617624282836914 100.49864196777344 255 255 255
-103.03009033203125 6.20062780380249 107.87212371826172 255 255 255
-105.1097183227539 6.263653755187988 114.03848266601562 255 255 255
-101.55696105957031 12.070416450500488 114.52073669433594 255 255 255
-101.42288208007812 13.310338020324707 115.74119567871094 255 255 255
-101.42774963378906 13.124786376953125 115.0163345336914 255 255 255
-82.39775848388672 1.8672066926956177 116.52925872802734 255 255 255
-90.47409057617188 11.419975280761719 83.2178955078125 255 255 255
-86.24685668945312 9.836888313293457 80.74005126953125 255 255 255
-79.13579559326172 -5.912931442260742 48.38603591918945 255 255 255
-86.85514068603516 8.33720874786377 115.14408111572266 255 255 255
-88.39601135253906 7.8058905601501465 114.34208679199219 255 255 255
-101.18305969238281 14.062743186950684 119.5309829711914 255 255 255
-100.3256607055664 8.440884590148926 111.5684585571289 255 255 255
-104.31697845458984 6.22385311126709 114.56208801269531 255 255 255
-97.42164611816406 2.5404820442199707 83.58295440673828 255 255 255
-97.62702178955078 9.107240676879883 92.1960678100586 255 255 255
-86.65413665771484 8.440901756286621 63.35579299926758 255 255 255
-97.9127426147461 7.588913917541504 95.56338500976562 255 255 255
-62.49570083618164 7.933793544769287 110.28485870361328 255 255 255
-85.36262512207031 11.05807876586914 122.05726623535156 255 255 255
-94.21743774414062 13.952387809753418 120.69020080566406 255 255 255
-85.35902404785156 10.537592887878418 121.69757843017578 255 255 255
-107.03585052490234 10.469173431396484 116.53054809570312 255 255 255
-85.52906036376953 10.486666679382324 121.79718780517578 255 255 255
-92.07262420654297 13.434971809387207 117.87471008300781 255 255 255
-101.59935760498047 5.049615859985352 113.60070037841797 255 255 255
-74.2813491821289 8.775912284851074 116.85762786865234 255 255 255
-72.51470947265625 12.060208320617676 109.16629791259766 255 255 255
-69.37879180908203 10.001644134521484 116.78592681884766 255 255 255
-78.69900512695312 13.782722473144531 118.02116394042969 255 255 255
-99.34190368652344 12.302906036376953 113.95345306396484 255 255 255
-77.96875762939453 6.647212505340576 114.8624496459961 255 255 255
-77.62857055664062 10.981950759887695 119.48473358154297 255 255 255
-138.52699279785156 14.72629165649414 148.20335388183594 255 255 255
-74.84517669677734 8.712518692016602 117.19701385498047 255 255 255
-89.9260482788086 12.682304382324219 122.36399841308594 255 255 255
-78.8812255859375 10.487839698791504 119.72477722167969 255 255 255
-81.32192993164062 11.066692352294922 120.6060562133789 255 255 255
-59.277748107910156 10.142559051513672 113.0477294921875 255 255 255
-61.886051177978516 6.962629795074463 111.12531280517578 255 255 255
-57.89134216308594 13.918646812438965 115.15067291259766 255 255 255
-83.01765441894531 11.698811531066895 111.39913940429688 255 255 255
-63.6233024597168 13.390320777893066 110.93016815185547 255 255 255
-102.32369232177734 14.887640953063965 130.3854217529297 255 255 255
-69.6102294921875 9.274909019470215 111.29147338867188 255 255 255
-60.968326568603516 12.548042297363281 106.21731567382812 255 255 255
-57.28713607788086 10.673308372497559 113.0542221069336 255 255 255
-77.43425750732422 6.126956462860107 113.01217651367188 255 255 255
-74.99575805664062 6.166154861450195 112.95719909667969 255 255 255
-74.41423797607422 9.96855640411377 117.9247817993164 255 255 255
-70.64253997802734 13.949082374572754 120.82527923583984 255 255 255
-97.16188049316406 11.18874454498291 72.42729949951172 255 255 255
-80.28157043457031 8.737452507019043 114.28793334960938 255 255 255
-77.16656494140625 11.33173656463623 128.90977478027344 255 255 255
-110.61544036865234 11.449018478393555 121.75465393066406 255 255 255
-74.04405975341797 10.753073692321777 118.51105499267578 255 255 255
-73.75762939453125 9.964040756225586 117.40496063232422 255 255 255
-78.7345199584961 13.031496047973633 111.15522003173828 255 255 255
-158.63734436035156 10.155872344970703 134.74612426757812 255 255 255
-97.33544921875 7.126608848571777 94.95718383789062 255 255 255
-98.11858367919922 10.786693572998047 83.71601867675781 255 255 255
-94.77230072021484 -9.225374221801758 -32.930850982666016 255 255 255
-95.39008331298828 -12.669222831726074 -23.179162979125977 255 255 255
-133.3181915283203 1.94268000125885 120.66402435302734 255 255 255
-77.69844818115234 2.028607130050659 114.27171325683594 255 255 255
-77.45646667480469 4.9751200675964355 113.03532409667969 255 255 255
-76.59146118164062 14.40152645111084 119.22518157958984 255 255 255
-86.46693420410156 14.34127426147461 120.19176483154297 255 255 255
-93.3390884399414 -4.48890495300293 7.804920196533203 255 255 255
-86.069091796875 13.132614135742188 112.95381164550781 255 255 255
-77.71792602539062 13.18653392791748 123.19647979736328 255 255 255
-85.95399475097656 13.044342994689941 113.0274887084961 255 255 255
-82.67143249511719 10.050933837890625 122.28358459472656 255 255 255
-73.4429702758789 12.095876693725586 125.78347778320312 255 255 255
-57.10493087768555 13.013927459716797 108.16036987304688 255 255 255
-56.79567337036133 13.218819618225098 109.22022247314453 255 255 255
-57.365570068359375 6.922448635101318 114.4887924194336 255 255 255
-56.27796936035156 13.319510459899902 110.60034942626953 255 255 255
-59.20237731933594 8.582937240600586 113.2612533569336 255 255 255
-52.16752624511719 10.664519309997559 111.81262969970703 255 255 255
-61.323394775390625 13.862890243530273 116.49229431152344 255 255 255
-66.0929946899414 12.50642204284668 111.49427795410156 255 255 255
-60.24045181274414 9.049334526062012 105.08223724365234 255 255 255
-75.85575103759766 11.133037567138672 120.5661849975586 255 255 255
-88.46595764160156 15.059443473815918 127.16358947753906 255 255 255
-168.7421112060547 5.085773944854736 144.9464874267578 255 255 255
-102.144775390625 11.497476577758789 106.00528717041016 255 255 255
-98.77989196777344 10.529252052307129 107.5128402709961 255 255 255
-99.07625579833984 10.6873197555542 108.82838439941406 255 255 255
-97.58131408691406 2.485905647277832 100.11071014404297 255 255 255
-51.46402359008789 -32.30149841308594 -210.13038635253906 255 255 255
-41.42836380004883 -30.438129425048828 -202.43798828125 255 255 255
-39.31755828857422 -33.858089447021484 -201.1096649169922 255 255 255
-91.3754653930664 14.611873626708984 122.12981414794922 255 255 255
-101.41753387451172 3.266214370727539 113.9884262084961 255 255 255
-106.86017608642578 11.547175407409668 115.62260437011719 255 255 255
-103.1884765625 5.186303615570068 113.07360076904297 255 255 255
-63.36656188964844 13.250807762145996 109.80785369873047 255 255 255
-97.88198852539062 6.077481746673584 96.31501007080078 255 255 255
-99.12112426757812 6.0042643547058105 97.88603210449219 255 255 255
-98.46366882324219 10.557817459106445 109.27446746826172 255 255 255
-96.40863800048828 6.18970251083374 87.30521392822266 255 255 255
-102.87237548828125 9.2509126663208 80.73419189453125 255 255 255
-96.86425018310547 4.606257915496826 98.23784637451172 255 255 255
-101.7521743774414 3.4276700019836426 99.7481918334961 255 255 255
-98.4639663696289 7.164374828338623 98.18096923828125 255 255 255
-62.68742370605469 9.230340957641602 106.85258483886719 255 255 255
-62.15650177001953 13.904290199279785 113.42617797851562 255 255 255
-84.20323944091797 5.574432849884033 117.70065307617188 255 255 255
-56.68510437011719 11.121267318725586 113.75031280517578 255 255 255
-58.784698486328125 9.979355812072754 112.08118438720703 255 255 255
-58.761329650878906 13.487287521362305 115.59368896484375 255 255 255
-61.89048767089844 8.541769027709961 108.51679229736328 255 255 255
-67.21065521240234 11.004325866699219 115.85421752929688 255 255 255
-83.12294006347656 13.246179580688477 131.66534423828125 255 255 255
-82.05435943603516 5.2588396072387695 117.16847229003906 255 255 255
-45.121952056884766 12.537622451782227 103.90409851074219 255 255 255
-47.517433166503906 12.025569915771484 102.55811309814453 255 255 255
-52.002254486083984 12.007627487182617 112.36693572998047 255 255 255
-41.64426040649414 13.44962215423584 111.43061065673828 255 255 255
-101.3364028930664 12.18659496307373 113.98657989501953 255 255 255
-42.38149642944336 9.093981742858887 104.47625732421875 255 255 255
-49.01103210449219 12.108807563781738 102.5868148803711 255 255 255
-99.92597198486328 8.119209289550781 113.27499389648438 255 255 255
-83.90753936767578 14.438645362854004 120.70243835449219 255 255 255
-104.15138244628906 9.975778579711914 130.78758239746094 255 255 255
-86.98320007324219 10.578897476196289 113.2909927368164 255 255 255
-98.82939910888672 7.558784008026123 109.00238037109375 255 255 255
-88.0420913696289 15.111956596374512 122.55368041992188 255 255 255
-71.73920440673828 14.448404312133789 120.8102798461914 255 255 255
-78.095703125 13.745301246643066 120.20088958740234 255 255 255
-65.87369537353516 13.848105430603027 115.07836151123047 255 255 255
-168.7378692626953 -1.0440974235534668 130.7112579345703 255 255 255
-69.36256408691406 12.510177612304688 108.41842651367188 255 255 255
-75.57913970947266 13.612979888916016 119.21343994140625 255 255 255
-64.83406829833984 13.726494789123535 116.98072814941406 255 255 255
-67.50962829589844 13.824087142944336 114.60848236083984 255 255 255
-76.45526885986328 13.76706314086914 119.48873901367188 255 255 255
-100.88485717773438 9.778881072998047 118.45491790771484 255 255 255
-113.95655059814453 12.29283618927002 117.015380859375 255 255 255
-104.56539916992188 8.558892250061035 119.04061126708984 255 255 255
-79.66035461425781 13.820313453674316 120.82923126220703 255 255 255
-86.7673110961914 10.622833251953125 113.38134765625 255 255 255
-99.25782775878906 9.811192512512207 108.85370635986328 255 255 255
-85.79006958007812 9.495582580566406 113.09981536865234 255 255 255
-112.2789077758789 14.547030448913574 139.66822814941406 255 255 255
-82.26765441894531 10.55202579498291 121.14717102050781 255 255 255
-72.02002716064453 8.503775596618652 111.50984954833984 255 255 255
29.479503631591797 -30.801071166992188 -126.47733306884766 255 255 255
-75.12732696533203 13.715143203735352 114.02720642089844 255 255 255
-101.7221450805664 12.440329551696777 114.27152252197266 255 255 255
-74.55912780761719 9.456143379211426 118.28472137451172 255 255 255
-98.81245422363281 9.588502883911133 117.98362731933594 255 255 255
-68.65613555908203 8.939440727233887 110.29862213134766 255 255 255
-83.41240692138672 14.269017219543457 121.38249969482422 255 255 255
-75.11762237548828 7.6998724937438965 117.40819549560547 255 255 255
-68.92961883544922 8.981985092163086 110.62538146972656 255 255 255
-89.29351043701172 6.820744037628174 114.72095489501953 255 255 255
-81.52893829345703 0.369899183511734 113.17781829833984 255 255 255
-82.37274169921875 -27.008874893188477 -171.9686279296875 255 255 255
-74.41081237792969 -17.86004066467285 -101.25532531738281 255 255 255
-72.70509338378906 -21.746915817260742 -102.22332000732422 255 255 255
-69.26517486572266 14.494559288024902 117.03162384033203 255 255 255
-172.7311553955078 16.386276245117188 141.09486389160156 255 255 255
-63.35038375854492 13.023712158203125 109.41756439208984 255 255 255
-56.174766540527344 12.938529968261719 107.72996520996094 255 255 255
-62.774776458740234 13.26269817352295 110.68978118896484 255 255 255
-55.817955017089844 13.473165512084961 116.02351379394531 255 255 255
-73.22601318359375 11.9818696975708 132.83663940429688 255 255 255
-62.21513748168945 13.516149520874023 115.81586456298828 255 255 255
-58.2133674621582 7.203933238983154 113.84088134765625 255 255 255
-59.22193145751953 6.05230188369751 109.35155487060547 255 255 255
-58.695926666259766 7.019927501678467 114.8772964477539 255 255 255
-66.94263458251953 5.689520835876465 108.63236999511719 255 255 255
-87.48809051513672 16.08567237854004 122.40821075439453 255 255 255
-66.7877197265625 13.793272972106934 118.5863265991211 255 255 255
-62.10469055175781 6.787057876586914 111.11528015136719 255 255 255
-81.26870727539062 2.198577880859375 117.0579605102539 255 255 255
-108.91081237792969 6.655933380126953 114.88066864013672 255 255 255
-85.92692565917969 13.628541946411133 114.79670715332031 255 255 255
-84.9287338256836 10.672138214111328 121.37854766845703 255 255 255
-69.00782012939453 9.380123138427734 111.22360229492188 255 255 255
-62.44652557373047 6.211860179901123 109.17855834960938 255 255 255
-58.76958465576172 5.709356784820557 106.30593872070312 255 255 255
-85.9794692993164 2.399670124053955 80.27410888671875 255 255 255
-75.01992797851562 10.677590370178223 118.30032348632812 255 255 255
-85.38438415527344 14.099821090698242 122.47711944580078 255 255 255
-83.61804962158203 10.96612548828125 121.21009826660156 255 255 255
-90.45845031738281 10.327497482299805 124.0374526977539 255 255 255
-80.2789535522461 9.547052383422852 115.2920150756836 255 255 255
-81.58769989013672 10.676229476928711 120.89994812011719 255 255 255
-75.3920669555664 7.879252910614014 116.99209594726562 255 255 255
-58.36156463623047 8.591265678405762 113.04692077636719 255 255 255
-101.05521392822266 8.473376274108887 115.49848937988281 255 255 255
-58.84580993652344 10.210772514343262 112.84268951416016 255 255 255
-86.92695617675781 10.556562423706055 112.9141616821289 255 255 255
-173.47886657714844 4.650624752044678 137.76437377929688 255 255 255
-65.51387023925781 9.309381484985352 107.92295837402344 255 255 255
-52.20421600341797 13.1729097366333 112.81344604492188 255 255 255
-55.17953872680664 10.829447746276855 114.0362319946289 255 255 255
-52.45794677734375 10.275511741638184 111.59569549560547 255 255 255
-59.94083023071289 9.124260902404785 112.47725677490234 255 255 255
-96.25655364990234 0.7796077132225037 74.93937683105469 255 255 255
