49.64711380004883 13.057000160217285 87.7645034790039 255 255 255
62.44920349121094 9.61223030090332 64.57023620605469 255 255 255
49.48808288574219 13.468279838562012 90.50215148925781 255 255 255
60.39338684082031 11.76903247833252 72.5838851928711 255 255 255
15.760178565979004 38.612247467041016 227.23756408691406 255 255 255
-15.376603126525879 38.52004623413086 231.20767211914062 255 255 255
61.40448760986328 38.15239334106445 195.10049438476562 255 255 255
58.56992721557617 36.70924758911133 184.4027099609375 255 255 255
69.56381225585938 16.55040168762207 143.20486450195312 255 255 255
20.729511260986328 38.417640686035156 261.0271911621094 255 255 255
13.817947387695312 38.85569763183594 257.6947937011719 255 255 255
-24.720661163330078 42.22691345214844 236.2469482421875 255 255 255
9.0934419631958 38.92455291748047 254.38685607910156 255 255 255
-6.344362735748291 37.791648864746094 229.1123046875 255 255 255
-8.453105926513672 37.39247131347656 232.70916748046875 255 255 255
-10.89587688446045 38.06988525390625 234.3617401123047 255 255 255
-8.618602752685547 39.41605758666992 230.397216796875 255 255 255
12.980795860290527 38.40757369995117 234.91307067871094 255 255 255
16.281936645507812 40.25709533691406 233.77163696289062 255 255 255
10.782848358154297 44.15973663330078 235.24502563476562 255 255 255
13.518623352050781 39.018863677978516 233.614013671875 255 255 255
22.416545867919922 41.54135513305664 236.7097625732422 255 255 255
14.088281631469727 39.654476165771484 234.93072509765625 255 255 255
11.04513168334961 42.223846435546875 227.05126953125 255 255 255
17.58306121826172 37.08457946777344 235.7728729248047 255 255 255
14.624811172485352 42.761600494384766 228.6067352294922 255 255 255
12.236833572387695 42.46000289916992 228.12803649902344 255 255 255
67.98114013671875 21.49737548828125 155.73744201660156 255 255 255
66.23966979980469 21.891775131225586 155.0718536376953 255 255 255
1.2382878065109253 38.83770751953125 244.45913696289062 255 255 255
4.411349773406982 42.950531005859375 230.2869415283203 255 255 255
59.554386138916016 29.194189071655273 178.85952758789062 255 255 255
58.809776306152344 37.33998107910156 187.1393280029297 255 255 255
62.147579193115234 37.12253189086914 184.08346557617188 255 255 255
-12.161711692810059 34.67824172973633 241.00448608398438 255 255 255
-12.676994323730469 46.31004333496094 249.28961181640625 255 255 255
13.973353385925293 39.582645416259766 255.2409210205078 255 255 255
4.790277004241943 39.31808090209961 238.33363342285156 255 255 255
-15.562395095825195 34.757423400878906 230.54563903808594 255 255 255
6.200615882873535 42.30008316040039 229.7728271484375 255 255 255
105.08586883544922 23.13373374938965 215.91561889648438 255 255 255
70.32244873046875 27.16657829284668 209.06512451171875 255 255 255
71.22488403320312 41.71181869506836 218.59429931640625 255 255 255
-14.600946426391602 36.234214782714844 234.2969207763672 255 255 255
70.11608123779297 29.571537017822266 187.41932678222656 255 255 255
68.83885955810547 34.338924407958984 174.08963012695312 255 255 255
70.20339965820312 27.464813232421875 181.09361267089844 255 255 255
-30.511016845703125 43.88786315917969 236.5460662841797 255 255 255
-21.800445556640625 39.392059326171875 236.52145385742188 255 255 255
-13.14748764038086 46.96577835083008 250.8614501953125 255 255 255
-12.349258422851562 39.01803970336914 230.6361541748047 255 255 255
-12.719795227050781 36.264678955078125 246.2227020263672 255 255 255
18.644241333007812 43.42466354370117 233.10617065429688 255 255 255
-16.1517276763916 44.12108612060547 250.826904296875 255 255 255
-15.755675315856934 35.960205078125 240.36044311523438 255 255 255
-13.062909126281738 33.30351257324219 246.24009704589844 255 255 255
-12.432154655456543 36.84218215942383 244.22247314453125 255 255 255
-12.639284133911133 36.266788482666016 239.947509765625 255 255 255
-0.4724533259868622 36.250511169433594 230.78131103515625 255 255 255
-5.66015100479126 43.44022750854492 232.68560791015625 255 255 255
4.103748321533203 38.571632385253906 239.58956909179688 255 255 255
4.335094451904297 34.611820220947266 231.29150390625 255 255 255
3.841325283050537 37.736671447753906 228.63076782226562 255 255 255
10.328206062316895 37.656734466552734 236.17491149902344 255 255 255
3.4450039863586426 44.96699523925781 238.97515869140625 255 255 255
15.37192153930664 41.89436721801758 225.262451171875 255 255 255
-50.000797271728516 -15.251259803771973 -24.82199478149414 255 255 255
-56.63426971435547 -15.09636116027832 -41.888397216796875 255 255 255
-54.646549224853516 -13.21908950805664 -48.070335388183594 255 255 255
-45.932552337646484 -11.244388580322266 -55.56671905517578 255 255 255
-58.3092041015625 -8.168939590454102 -58.63631820678711 255 255 255
53.273616790771484 31.994577407836914 154.88043212890625 255 255 255
69.82081604003906 29.95882797241211 188.17005920410156 255 255 255
59.444969177246094 33.273956298828125 195.28182983398438 255 255 255
60.26889419555664 31.573984146118164 151.36883544921875 255 255 255
59.635528564453125 36.65203857421875 192.138427734375 255 255 255
68.95541381835938 28.012367248535156 176.5391845703125 255 255 255
66.33226776123047 36.90735626220703 180.97732543945312 255 255 255
59.35289001464844 30.49578285217285 178.34396362304688 255 255 255
58.50962829589844 36.360939025878906 181.34950256347656 255 255 255
-11.044901847839355 39.89909362792969 244.2430877685547 255 255 255
-16.921297073364258 37.32988739013672 238.55796813964844 255 255 255
0.9620893597602844 39.6895637512207 229.14698791503906 255 255 255
2.1514296531677246 37.10822677612305 239.1596221923828 255 255 255
2.6488819122314453 38.575931549072266 232.85565185546875 255 255 255
94.9450454711914 40.94757843017578 213.2838592529297 255 255 255
-21.08778190612793 40.10804748535156 238.2731170654297 255 255 255
43.78962707519531 42.16741180419922 224.67184448242188 255 255 255
-1.3314043283462524 37.47917938232422 233.92039489746094 255 255 255
1.6156117916107178 44.67002487182617 238.73098754882812 255 255 255
3.742568016052246 41.37834930419922 240.48248291015625 255 255 255
-9.108503341674805 40.24135208129883 242.01278686523438 255 255 255
-5.616765022277832 44.753753662109375 238.91934204101562 255 255 255
-3.6453311443328857 38.329341888427734 228.10450744628906 255 255 255
37.17990493774414 -8.49137020111084 -23.053194046020508 255 255 255
52.81398391723633 -0.8278325200080872 -6.20383882522583 255 255 255
51.52638244628906 -0.7985610961914062 -6.382894515991211 255 255 255
49.20341110229492 0.15522384643554688 -3.133449077606201 255 255 255
49.95707321166992 -0.5731430649757385 -9.414255142211914 255 255 255
48.53451156616211 0.4814915359020233 0.6395893692970276 255 255 255
-5.01262092590332 44.341583251953125 237.1837158203125 255 255 255
12.63178825378418 45.963687896728516 249.2495880126953 255 255 255
-28.454256057739258 40.42299270629883 232.18536376953125 255 255 255
-15.930630683898926 32.20122146606445 237.53041076660156 255 255 255
52.34577560424805 31.270185470581055 220.80026245117188 255 255 255
29.473081588745117 44.432823181152344 237.41058349609375 255 255 255
-29.792346954345703 41.42549514770508 237.88092041015625 255 255 255
-12.477376937866211 34.88448715209961 240.34844970703125 255 255 255
71.92346954345703 32.177005767822266 198.51016235351562 255 255 255
70.21171569824219 34.91703414916992 178.28848266601562 255 255 255
72.77740478515625 32.389896392822266 200.06448364257812 255 255 255
0.4166487157344818 39.7176513671875 231.14157104492188 255 255 255
6.728212833404541 43.6647834777832 232.8953399658203 255 255 255
13.303466796875 42.045589447021484 226.43272399902344 255 255 255
5.5375447273254395 38.88782501220703 239.79742431640625 255 255 255
10.973206520080566 39.83757781982422 224.68162536621094 255 255 255
0.3746269941329956 39.21833801269531 233.1776580810547 255 255 255
-9.790023803710938 38.461666107177734 234.5751495361328 255 255 255
0.27762913703918457 38.07954025268555 227.89163208007812 255 255 255
-8.205984115600586 38.62910461425781 234.8780975341797 255 255 255
15.96841812133789 37.42890548706055 234.66619873046875 255 255 255
142.58380126953125 -14.92061996459961 224.76641845703125 255 255 255
-1.4126002788543701 36.880069732666016 229.57359313964844 255 255 255
-11.371927261352539 38.322086334228516 234.6352996826172 255 255 255
157.84957885742188 -20.122148513793945 223.421875 255 255 255
-6.1953959465026855 37.754146575927734 229.02951049804688 255 255 255
-2.360811710357666 37.12782669067383 230.0618438720703 255 255 255
-11.351602554321289 38.320579528808594 234.6475067138672 255 255 255
-2.414275884628296 38.060325622558594 224.5926513671875 255 255 255
-6.44301700592041 37.909297943115234 229.15757751464844 255 255 255
-3.077786684036255 42.735469818115234 231.73965454101562 255 255 255
159.0662841796875 -23.875783920288086 245.93609619140625 255 255 255
-15.64278507232666 39.99195098876953 237.75384521484375 255 255 255
-15.171056747436523 37.06014633178711 236.47763061523438 255 255 255
-16.910274505615234 37.73777770996094 235.33438110351562 255 255 255
-10.466573715209961 40.10312271118164 244.40061950683594 255 255 255
-12.338672637939453 38.1268196105957 240.5682830810547 255 255 255
-12.497278213500977 38.128543853759766 240.55032348632812 255 255 255
-9.948598861694336 45.30519104003906 244.53842163085938 255 255 255
12.053722381591797 36.443077087402344 255.3506317138672 255 255 255
13.437338829040527 36.94540023803711 259.0999755859375 255 255 255
-13.596441268920898 37.84047317504883 231.1184844970703 255 255 255
-14.588187217712402 44.7473258972168 238.51239013671875 255 255 255
-18.635589599609375 37.655792236328125 239.8596649169922 255 255 255
50.058956146240234 14.470091819763184 94.07636260986328 255 255 255
58.45779037475586 18.362804412841797 91.72981262207031 255 255 255
57.307804107666016 17.325542449951172 84.34581756591797 255 255 255
49.52723693847656 10.02641773223877 90.2010726928711 255 255 255
25.326921463012695 43.462547302246094 233.63658142089844 255 255 255
4.66662073135376 38.65464401245117 231.87420654296875 255 255 255
6.03611946105957 38.942909240722656 231.74713134765625 255 255 255
-8.02234935760498 43.1520881652832 249.25830078125 255 255 255
-1.919560432434082 31.491485595703125 248.29739379882812 255 255 255
-24.360103607177734 35.7478141784668 234.73544311523438 255 255 255
-20.78699493408203 36.467464447021484 231.51510620117188 255 255 255
-9.96281909942627 45.21007537841797 244.5589141845703 255 255 255
5.6196064949035645 46.690574645996094 251.91156005859375 255 255 255
-23.33562469482422 40.842185974121094 238.78021240234375 255 255 255
-13.409761428833008 33.454776763916016 246.17115783691406 255 255 255
-13.350525856018066 40.20446014404297 236.14952087402344 255 255 255
62.13734436035156 31.489681243896484 151.76808166503906 255 255 255
51.403892517089844 31.10605812072754 156.3800048828125 255 255 255
17.745180130004883 -1.8695801496505737 103.44710540771484 255 255 255
52.51170349121094 -6.578714847564697 -36.40480041503906 255 255 255
41.49589920043945 -11.770509719848633 -21.38881492614746 255 255 255
36.52426528930664 -5.231283664703369 -23.802522659301758 255 255 255
38.24730682373047 -3.080108404159546 -4.318272113800049 255 255 255
49.63414764404297 -9.659674644470215 -29.44736671447754 255 255 255
6.005040168762207 39.74382400512695 231.10617065429688 255 255 255
5.527082920074463 38.64568328857422 229.85043334960938 255 255 255
3.9652345180511475 38.90516662597656 229.78822326660156 255 255 255
11.709213256835938 42.017860412597656 227.39096069335938 255 255 255
15.488213539123535 43.739933013916016 236.51930236816406 255 255 255
93.28406524658203 19.346342086791992 181.19442749023438 255 255 255
71.70658111572266 26.106386184692383 179.4373016357422 255 255 255
69.35537719726562 34.089874267578125 172.8549041748047 255 255 255
-35.57284927368164 40.0831413269043 239.1571044921875 255 255 255
-35.6422004699707 43.96842575073242 238.91624450683594 255 255 255
-12.08281421661377 34.72344970703125 245.4054718017578 255 255 255
22.85922622680664 -5.549306869506836 34.887786865234375 255 255 255
-16.47437286376953 38.94847106933594 238.11538696289062 255 255 255
-5.586879253387451 38.87678909301758 241.6699676513672 255 255 255
4.080338954925537 44.449710845947266 237.7416534423828 255 255 255
8.253687858581543 37.81517028808594 237.0122833251953 255 255 255
58.247459411621094 36.45428466796875 180.79425048828125 255 255 255
81.61345672607422 25.94413948059082 192.35076904296875 255 255 255
55.0874137878418 34.241703033447266 175.8405303955078 255 255 255
60.40068817138672 33.57048797607422 191.76473999023438 255 255 255
70.37335968017578 30.40671157836914 192.89501953125 255 255 255
3.704859733581543 36.967918395996094 240.4794158935547 255 255 255
8.306737899780273 41.53487777709961 226.0660858154297 255 255 255
29.010478973388672 39.618133544921875 218.76190185546875 255 255 255
1.9199130535125732 44.380191802978516 238.3240509033203 255 255 255
-14.167546272277832 36.124412536621094 240.52027893066406 255 255 255
0.7791501879692078 46.94904327392578 243.30162048339844 255 255 255
-10.928140640258789 35.741737365722656 241.52871704101562 255 255 255
71.00328826904297 39.718727111816406 215.4495391845703 255 255 255
-17.2357177734375 36.40736389160156 235.99044799804688 255 255 255
11.72425651550293 39.88634490966797 253.3662567138672 255 255 255
-13.337450981140137 32.0459098815918 233.0326690673828 255 255 255
-16.239843368530273 34.35734176635742 237.74240112304688 255 255 255
-10.119684219360352 33.41462326049805 237.96914672851562 255 255 255
5.125085830688477 36.54609298706055 240.87655639648438 255 255 255
-1.3895248174667358 41.7774543762207 240.749755859375 255 255 255
-0.42393603920936584 44.30609893798828 238.16612243652344 255 255 255
161.3467254638672 -25.708866119384766 205.08444213867188 255 255 255
1.34956955909729 43.25596618652344 232.1534881591797 255 255 255
-9.752821922302246 38.82666015625 234.29537963867188 255 255 255
3.061908721923828 39.58613204956055 238.8638916015625 255 255 255
5.305746078491211 39.868385314941406 241.54629516601562 255 255 255
0.8287621736526489 38.98653793334961 233.99481201171875 255 255 255
3.0927581787109375 38.591251373291016 239.1094512939453 255 255 255
5.654226303100586 44.58789825439453 240.77223205566406 255 255 255
-2.3093814849853516 40.00189208984375 233.96409606933594 255 255 255
55.842681884765625 27.70937728881836 213.548583984375 255 255 255
6.533145427703857 37.72203826904297 240.7599639892578 255 255 255
247.55355834960938 31.041120529174805 152.4556427001953 255 255 255
5.407692909240723 43.06068420410156 238.42529296875 255 255 255
7.661076545715332 39.49613952636719 236.9488525390625 255 255 255
0.3166120946407318 38.43010711669922 242.17532348632812 255 255 255
3.4647040367126465 36.94023895263672 240.50633239746094 255 255 255
15.209113121032715 43.04602813720703 229.87939453125 255 255 255
24.09893035888672 39.95839309692383 219.74203491210938 255 255 255
14.626822471618652 38.83430480957031 223.41140747070312 255 255 255
19.816299438476562 38.05377960205078 235.84030151367188 255 255 255
21.946775436401367 41.67647171020508 223.8218536376953 255 255 255
12.179365158081055 38.63410949707031 228.8043975830078 255 255 255
-11.510903358459473 37.628963470458984 240.40475463867188 255 255 255
12.962247848510742 31.527219772338867 252.5023193359375 255 255 255
-12.149744033813477 37.2681884765625 239.99459838867188 255 255 255
-27.173295974731445 45.54750061035156 243.22222900390625 255 255 255
-16.28182029724121 36.76132583618164 236.3249053955078 255 255 255
-16.054677963256836 37.594356536865234 244.74293518066406 255 255 255
46.75182342529297 18.448421478271484 137.1685028076172 255 255 255
66.55553436279297 4.614896774291992 114.58348083496094 255 255 255
46.28589630126953 20.36655044555664 136.72076416015625 255 255 255
66.71780395507812 24.617372512817383 157.94027709960938 255 255 255
184.46124267578125 16.04230499267578 182.11785888671875 255 255 255
64.00276947021484 41.06153869628906 216.4929656982422 255 255 255
-24.42975425720215 39.989540100097656 237.49847412109375 255 255 255
11.460479736328125 38.8333854675293 228.24598693847656 255 255 255
64.52505493164062 41.54326248168945 219.550537109375 255 255 255
17.27436065673828 37.745243072509766 226.21087646484375 255 255 255
-12.164910316467285 39.106201171875 235.53512573242188 255 255 255
-8.186650276184082 40.169189453125 230.10049438476562 255 255 255
77.88185119628906 31.799095153808594 207.08712768554688 255 255 255
96.22187805175781 38.95426559448242 212.10008239746094 255 255 255
108.63172149658203 38.82513427734375 211.38990783691406 255 255 255
76.7977294921875 40.717140197753906 218.4431915283203 255 255 255
82.97127532958984 29.701929092407227 222.44552612304688 255 255 255
76.5020751953125 36.04784393310547 217.61068725585938 255 255 255
98.23998260498047 31.086061477661133 209.05880737304688 255 255 255
90.13919067382812 28.360300064086914 202.484375 255 255 255
3.346036911010742 39.35422897338867 239.9715118408203 255 255 255
211.3144073486328 -18.320558547973633 248.59507751464844 255 255 255
244.68792724609375 -40.00483322143555 272.37188720703125 255 255 255
64.91172790527344 34.29920959472656 238.77593994140625 255 255 255
58.091896057128906 34.4722900390625 233.6304473876953 255 255 255
30.34685707092285 36.36023712158203 220.72360229492188 255 255 255
41.728233337402344 6.003764629364014 33.013755798339844 255 255 255
35.490535736083984 -8.426788330078125 15.522490501403809 255 255 255
37.51076126098633 -9.612996101379395 17.41941261291504 255 255 255
-16.660491943359375 44.83158874511719 234.83016967773438 255 255 255
-30.188133239746094 40.86132049560547 238.25350952148438 255 255 255
71.23197937011719 35.52801513671875 184.99884033203125 255 255 255
66.36099243164062 38.060829162597656 195.36904907226562 255 255 255
67.7730484008789 32.31494903564453 187.4049530029297 255 255 255
-18.85282325744629 39.56481170654297 236.6195068359375 255 255 255
-5.6471428871154785 36.587493896484375 232.36387634277344 255 255 255
-14.633210182189941 34.42387771606445 238.38043212890625 255 255 255
2.592116355895996 35.437931060791016 231.8317413330078 255 255 255
3.776920795440674 44.28531265258789 240.30479431152344 255 255 255
-2.848073959350586 43.41972732543945 231.9588623046875 255 255 255
-24.325366973876953 43.716121673583984 239.94956970214844 255 255 255
-29.417701721191406 36.821044921875 238.38951110839844 255 255 255
-11.320650100708008 35.86174774169922 241.49539184570312 255 255 255
86.36616516113281 29.295841217041016 220.69602966308594 255 255 255
85.9560317993164 39.92836380004883 210.4069366455078 255 255 255
79.25375366210938 32.452911376953125 207.77203369140625 255 255 255
93.84413146972656 39.811161041259766 208.20803833007812 255 255 255
-16.6209716796875 30.413362503051758 225.15289306640625 255 255 255
-27.9267578125 39.50086975097656 250.2826690673828 255 255 255
-15.667737007141113 37.21757888793945 237.84046936035156 255 255 255
-11.311853408813477 34.86827087402344 241.5647735595703 255 255 255
-26.7684383392334 45.69350051879883 244.74346923828125 255 255 255
-16.602581024169922 38.52517318725586 238.5112762451172 255 255 255
-15.045832633972168 35.56532287597656 236.68966674804688 255 255 255
-13.780501365661621 44.09313201904297 251.5301513671875 255 255 255
-10.753242492675781 46.476173400878906 249.28050231933594 255 255 255
-27.865163803100586 42.23876953125 237.8092803955078 255 255 255
13.47298812866211 43.87377166748047 254.5947723388672 255 255 255
9.546333312988281 43.92790603637695 253.77273559570312 255 255 255
-5.366262912750244 44.86418914794922 239.2373046875 255 255 255
2.4531984329223633 37.52198791503906 238.76809692382812 255 255 255
-1.2271782159805298 39.225982666015625 227.61605834960938 255 255 255
29.045236587524414 43.71954345703125 234.1168212890625 255 255 255
12.496258735656738 42.04458236694336 229.46353149414062 255 255 255
25.351234436035156 42.04332733154297 226.3403778076172 255 255 255
-23.425107955932617 38.528656005859375 226.54908752441406 255 255 255
-19.614870071411133 43.111854553222656 234.67367553710938 255 255 255
-11.675032615661621 41.36943817138672 244.19007873535156 255 255 255
147.79083251953125 27.308204650878906 187.4590606689453 255 255 255
11.12764835357666 37.80441665649414 226.87057495117188 255 255 255
22.363407135009766 43.796226501464844 234.43397521972656 255 255 255
-12.439130783081055 36.79078674316406 244.17604064941406 255 255 255
14.3234224319458 35.3156852722168 258.60491943359375 255 255 255
-11.327032089233398 35.25108337402344 234.3181915283203 255 255 255
-16.32872200012207 38.94869613647461 238.7330780029297 255 255 255
-14.97385025024414 37.13865280151367 234.37774658203125 255 255 255
-17.16411781311035 39.49462127685547 238.7121124267578 255 255 255
-23.693721771240234 39.66108703613281 237.25054931640625 255 255 255
56.819000244140625 7.784605026245117 86.89784240722656 255 255 255
52.19457244873047 10.157830238342285 88.09589385986328 255 255 255
-14.631681442260742 35.497337341308594 245.00794982910156 255 255 255
-14.715802192687988 34.28775405883789 240.2703399658203 255 255 255
71.39299011230469 28.649465560913086 188.09564208984375 255 255 255
59.47032165527344 29.737041473388672 186.74197387695312 255 255 255
62.78557586669922 40.47068786621094 213.70809936523438 255 255 255
-15.800555229187012 37.05110168457031 235.8300018310547 255 255 255
-35.862579345703125 43.874847412109375 237.91864013671875 255 255 255
93.62321472167969 34.7545051574707 201.9524688720703 255 255 255
75.49517822265625 30.464963912963867 208.76535034179688 255 255 255
73.46916198730469 42.235130310058594 216.66537475585938 255 255 255
-69.13736724853516 -23.03400421142578 -120.20423126220703 255 255 255
-67.26396179199219 -21.074987411499023 -120.4687271118164 255 255 255
-74.4290771484375 -18.009639739990234 -105.76091766357422 255 255 255
-71.51107025146484 -27.226938247680664 -115.22047424316406 255 255 255
3.0192062854766846 38.47261047363281 240.40963745117188 255 255 255
7.196058750152588 37.95878219604492 237.03579711914062 255 255 255
2.7786574363708496 37.45391845703125 226.51292419433594 255 255 255
8.856047630310059 38.4001579284668 236.83465576171875 255 255 255
-2.96563720703125 39.49366760253906 231.48422241210938 255 255 255
5.8921895027160645 39.003292083740234 231.8224639892578 255 255 255
6.197760581970215 38.6334342956543 229.64183044433594 255 255 255
39.68122100830078 8.395562171936035 59.545249938964844 255 255 255
55.43812561035156 -0.7845790386199951 48.251678466796875 255 255 255
40.04744338989258 8.414923667907715 45.900672912597656 255 255 255
36.84178924560547 8.047752380371094 49.387290954589844 255 255 255
58.76364517211914 3.1840972900390625 46.80927658081055 255 255 255
74.63253021240234 32.937652587890625 190.5998992919922 255 255 255
73.67941284179688 33.45492935180664 192.22677612304688 255 255 255
85.24823760986328 33.028076171875 190.9180145263672 255 255 255
-27.72673988342285 39.9312858581543 249.31649780273438 255 255 255
-39.480979919433594 45.45284652709961 243.48544311523438 255 255 255
-17.467849731445312 36.043556213378906 243.91015625 255 255 255
-16.727550506591797 35.58869552612305 235.9788818359375 255 255 255
-15.746399879455566 35.25481033325195 235.59950256347656 255 255 255
11.022605895996094 40.31865692138672 235.81199645996094 255 255 255
-30.0218448638916 42.162132263183594 246.0543975830078 255 255 255
-14.489343643188477 35.505245208740234 244.95928955078125 255 255 255
-12.155226707458496 36.64832305908203 240.6707305908203 255 255 255
-26.698440551757812 40.333106994628906 250.52224731445312 255 255 255
-24.304821014404297 34.968048095703125 237.94593811035156 255 255 255
-30.71420669555664 37.084686279296875 239.89535522460938 255 255 255
-15.083513259887695 36.396183013916016 240.65887451171875 255 255 255
-32.66145706176758 41.484535217285156 239.21475219726562 255 255 255
-24.967605590820312 34.16658401489258 245.07920837402344 255 255 255
41.58694076538086 -0.8692392110824585 -12.953054428100586 255 255 255
19.12775993347168 41.74055099487305 233.19976806640625 255 255 255
6.026236534118652 38.89815902709961 229.0506591796875 255 255 255
68.31664276123047 35.767486572265625 171.7401580810547 255 255 255
70.7280044555664 26.670780181884766 179.75384521484375 255 255 255
64.32472229003906 40.97185134887695 219.00057983398438 255 255 255
64.646728515625 35.102108001708984 168.54428100585938 255 255 255
71.18968200683594 2.774449348449707 113.8580551147461 255 255 255
18.903697967529297 42.41111373901367 235.60830688476562 255 255 255
29.258808135986328 44.595191955566406 238.5181884765625 255 255 255
16.557403564453125 42.84688949584961 237.39138793945312 255 255 255
5.537380695343018 38.88079833984375 229.18296813964844 255 255 255
11.757498741149902 39.850337982177734 227.82151794433594 255 255 255
11.452637672424316 38.833126068115234 228.25254821777344 255 255 255
-12.295364379882812 36.93854904174805 230.39996337890625 255 255 255
-4.497030258178711 29.11927604675293 241.1374969482422 255 255 255
64.64584350585938 38.228694915771484 195.53062438964844 255 255 255
-35.274044036865234 43.852699279785156 237.50973510742188 255 255 255
83.96076965332031 18.257062911987305 170.2779998779297 255 255 255
72.03890991210938 32.24706268310547 197.15921020507812 255 255 255
60.431663513183594 31.531475067138672 192.43089294433594 255 255 255
59.007930755615234 36.20338439941406 188.15992736816406 255 255 255
-12.112289428710938 35.7162971496582 224.9884796142578 255 255 255
-21.803422927856445 38.4105224609375 231.0340576171875 255 255 255
2.7041923999786377 29.887161254882812 249.0961456298828 255 255 255
-23.911922454833984 40.63479232788086 236.26036071777344 255 255 255
-13.7109956741333 32.25640106201172 247.13758850097656 255 255 255
-15.566533088684082 36.500980377197266 233.58168029785156 255 255 255
-14.299958229064941 42.728572845458984 242.35382080078125 255 255 255
72.7090072631836 35.49454879760742 211.47348022460938 255 255 255
47.760372161865234 23.232200622558594 141.69744873046875 255 255 255
49.17025375366211 15.535494804382324 132.72457885742188 255 255 255
55.26826858520508 34.45529556274414 166.55349731445312 255 255 255
160.27125549316406 24.96239471435547 182.9117431640625 255 255 255
85.4046401977539 35.581687927246094 204.72535705566406 255 255 255
91.43470001220703 25.893173217773438 220.08651733398438 255 255 255
152.371337890625 26.300090789794922 185.3115997314453 255 255 255
100.22355651855469 27.165283203125 215.57090759277344 255 255 255
56.530921936035156 40.8033561706543 215.45587158203125 255 255 255
57.21227264404297 37.50310516357422 221.50889587402344 255 255 255
74.4645004272461 34.11042022705078 220.33480834960938 255 255 255
57.903350830078125 31.745704650878906 152.66549682617188 255 255 255
37.84104919433594 44.1864128112793 233.99522399902344 255 255 255
-15.528512001037598 44.270484924316406 236.43844604492188 255 255 255
-12.466835021972656 35.43681335449219 244.3071746826172 255 255 255
-18.784589767456055 43.439674377441406 235.1328125 255 255 255
-17.094867706298828 39.14934539794922 238.2313232421875 255 255 255
-11.800365447998047 42.125328063964844 238.13121032714844 255 255 255
-23.690052032470703 39.89935302734375 236.26889038085938 255 255 255
-13.2147216796875 35.59172439575195 236.03773498535156 255 255 255
3.0119969844818115 37.1866340637207 242.3131561279297 255 255 255
-14.791572570800781 43.74090576171875 235.3153076171875 255 255 255
-19.212430953979492 40.76993942260742 237.89739990234375 255 255 255
-10.347323417663574 39.428951263427734 244.00784301757812 255 255 255
688.7089233398438 -170.87051391601562 423.858642578125 255 255 255
-10.738200187683105 34.36127853393555 243.70887756347656 255 255 255
-28.879915237426758 39.86213302612305 238.2180633544922 255 255 255
-19.409687042236328 33.9524040222168 228.6568145751953 255 255 255
-6.6912126541137695 40.89927673339844 244.01768493652344 255 255 255
-15.06130599975586 45.0088005065918 240.4932098388672 255 255 255
-12.817580223083496 36.33926010131836 239.96713256835938 255 255 255
2.884366273880005 43.99253845214844 228.56845092773438 255 255 255
-9.049931526184082 38.98321533203125 235.42919921875 255 255 255
-10.266341209411621 40.0487174987793 236.29461669921875 255 255 255
-3.909177780151367 38.35326385498047 228.322265625 255 255 255
-7.622378826141357 43.19488525390625 231.0580596923828 255 255 255
-10.150237083435059 43.57030487060547 233.1878662109375 255 255 255
0.2850128412246704 42.94824981689453 242.45025634765625 255 255 255
-14.987881660461426 44.59873580932617 238.37765502929688 255 255 255
41.818885803222656 42.2655029296875 218.87294006347656 255 255 255
4.869526386260986 39.913639068603516 225.60723876953125 255 255 255
-5.700786113739014 40.75865936279297 244.1939697265625 255 255 255
-14.729187965393066 45.026729583740234 240.4303741455078 255 255 255
70.17529296875 34.95280456542969 178.4506072998047 255 255 255
50.5051383972168 9.871312141418457 55.327857971191406 255 255 255
13.353351593017578 37.8380126953125 241.69578552246094 255 255 255
13.572317123413086 41.1619987487793 238.83895874023438 255 255 255
6.145902156829834 38.97679138183594 229.2421875 255 255 255
6.943819999694824 39.08674240112305 239.24159240722656 255 255 255
-15.694356918334961 -67.42425537109375 -170.4720916748047 255 255 255
2.9590914249420166 -46.426666259765625 -113.41259002685547 255 255 255
70.45930480957031 -8.47655963897705 -34.358551025390625 255 255 255
60.49423599243164 14.107915878295898 103.8074951171875 255 255 255
59.00428771972656 9.367461204528809 87.40962219238281 255 255 255
58.69034957885742 10.083259582519531 88.93421173095703 255 255 255
55.30352020263672 6.7784833908081055 75.8826675415039 255 255 255
58.955867767333984 9.490218162536621 87.78316497802734 255 255 255
-14.119294166564941 45.94557189941406 245.26365661621094 255 255 255
-12.84212875366211 37.14176940917969 241.21026611328125 255 255 255
-15.594244003295898 45.43661880493164 245.0297088623047 255 255 255
50.36132049560547 21.146211624145508 104.10226440429688 255 255 255
58.584964752197266 17.301176071166992 87.86307525634766 255 255 255
12.537055969238281 46.49061584472656 248.51747131347656 255 255 255
-10.083627700805664 39.901065826416016 236.1189422607422 255 255 255
-3.9830281734466553 37.73206329345703 230.89974975585938 255 255 255
-2.5045182704925537 36.95323944091797 231.76022338867188 255 255 255
1.1292656660079956 38.18403625488281 240.84475708007812 255 255 255
3.867952585220337 39.17270278930664 240.0265350341797 255 255 255
-7.8346757888793945 40.37460708618164 230.5296173095703 255 255 255
71.50074005126953 33.72856521606445 164.07794189453125 255 255 255
15.255714416503906 -1.7333487272262573 11.595414161682129 255 255 255
20.536056518554688 -4.711433410644531 15.762748718261719 255 255 255
64.55418395996094 32.426753997802734 230.034423828125 255 255 255
14.166718482971191 37.617496490478516 234.26026916503906 255 255 255
7.204155921936035 39.040916442871094 230.49301147460938 255 255 255
73.49967193603516 32.9580078125 210.66578674316406 255 255 255
-0.3571595549583435 44.15882873535156 235.72235107421875 255 255 255
6.511931896209717 38.90080642700195 241.3934783935547 255 255 255
6.454843044281006 38.877296447753906 238.42323303222656 255 255 255
6.272132396697998 43.45265197753906 230.49652099609375 255 255 255
8.12675952911377 38.815528869628906 226.5950469970703 255 255 255
12.262152671813965 38.267372131347656 234.96995544433594 255 255 255
399.1031188964844 -110.68020629882812 161.7080078125 255 255 255
108.06743621826172 43.808074951171875 215.7556915283203 255 255 255
-13.658492088317871 37.41617202758789 231.3370361328125 255 255 255
16.448232650756836 39.6085205078125 218.35479736328125 255 255 255
5.857177734375 42.86556625366211 229.86817932128906 255 255 255
7.4640936851501465 38.28995895385742 229.3940887451172 255 255 255
11.252455711364746 38.72157287597656 235.4755401611328 255 255 255
-9.93027114868164 38.51557922363281 234.6959686279297 255 255 255
8.850614547729492 40.888702392578125 238.25384521484375 255 255 255
-10.77097225189209 40.00749588012695 241.6342010498047 255 255 255
-9.668091773986816 38.29444885253906 233.3118133544922 255 255 255
-8.332810401916504 39.800697326660156 231.00135803222656 255 255 255
12.57463264465332 -21.519014358520508 -116.90547180175781 255 255 255
12.874174118041992 -21.661495208740234 -116.15483856201172 255 255 255
26.2169132232666 -23.394981384277344 -124.0078125 255 255 255
-26.597808837890625 -21.220596313476562 -127.11487579345703 255 255 255
38.30658721923828 2.2349116802215576 42.92169189453125 255 255 255
37.46728515625 -0.5146860480308533 37.517799377441406 255 255 255
55.94560623168945 10.334716796875 56.00347137451172 255 255 255
9.757844924926758 38.19379806518555 239.65284729003906 255 255 255
-15.544331550598145 43.53778076171875 234.89952087402344 255 255 255
219.8107147216797 -65.19850158691406 165.90586853027344 255 255 255
241.5026092529297 -72.67440032958984 169.0274658203125 255 255 255
24.313142776489258 42.02132034301758 224.71189880371094 255 255 255
20.773588180541992 42.03742599487305 226.16253662109375 255 255 255
12.68978500366211 38.629791259765625 235.47787475585938 255 255 255
23.7385311126709 43.813758850097656 234.36289978027344 255 255 255
861.87255859375 -400.189453125 -35.759246826171875 255 255 255
36.95517349243164 -6.654063701629639 -22.673749923706055 255 255 255
42.281288146972656 -8.471586227416992 -22.553386688232422 255 255 255
38.41389846801758 -5.577270984649658 -24.846315383911133 255 255 255
36.263404846191406 -3.531125783920288 -23.947284698486328 255 255 255
14.334795951843262 39.76171875 233.92327880859375 255 255 255
12.806206703186035 37.035736083984375 236.8038330078125 255 255 255
32.26293182373047 36.599971771240234 234.82835388183594 255 255 255
9.429045677185059 43.327449798583984 230.9109649658203 255 255 255
-11.546507835388184 43.6412467956543 233.4423065185547 255 255 255
-15.496471405029297 44.984596252441406 240.53375244140625 255 255 255
-10.907003402709961 42.57841873168945 233.55252075195312 255 255 255
-8.7937593460083 33.9691276550293 243.13394165039062 255 255 255
-0.593912661075592 42.24199676513672 241.2377471923828 255 255 255
107.60417938232422 26.01000213623047 218.89376831054688 255 255 255
55.10435104370117 19.691560745239258 112.63493347167969 255 255 255
61.40863800048828 16.59432601928711 100.36497497558594 255 255 255
48.96876907348633 21.31825065612793 104.77185821533203 255 255 255
11.679466247558594 40.58721160888672 236.68939208984375 255 255 255
6.888916015625 38.4714241027832 236.89805603027344 255 255 255
11.483366966247559 39.38615417480469 234.41851806640625 255 255 255
8.993257522583008 38.0937385559082 224.52685546875 255 255 255
-2.510955810546875 43.45652770996094 232.9062042236328 255 255 255
72.89749908447266 32.94526672363281 193.211181640625 255 255 255
69.66929626464844 35.062294006347656 200.92355346679688 255 255 255
74.73361206054688 37.728702545166016 200.6995849609375 255 255 255
48.28208541870117 38.748268127441406 224.79879760742188 255 255 255
54.21199417114258 39.580936431884766 211.7784423828125 255 255 255
74.54629516601562 25.038724899291992 207.20350646972656 255 255 255
1486.920654296875 -548.1363525390625 -19.647979736328125 255 255 255
-17.41654396057129 38.495731353759766 236.6488494873047 255 255 255
-14.726295471191406 44.89054870605469 239.87171936035156 255 255 255
-15.943938255310059 38.035064697265625 238.22897338867188 255 255 255
88.49927520751953 -13.834678649902344 -145.07293701171875 255 255 255
9.20315170288086 37.724021911621094 238.6026153564453 255 255 255
-14.536572456359863 38.74586486816406 238.40025329589844 255 255 255
-16.228490829467773 39.82155990600586 237.6027374267578 255 255 255
58.40998077392578 29.19693946838379 177.4567108154297 255 255 255
62.091156005859375 30.634313583374023 144.44342041015625 255 255 255
-13.705390930175781 44.048397064208984 235.31924438476562 255 255 255
39.970664978027344 42.45209503173828 228.70692443847656 255 255 255
16.08306312561035 39.80134582519531 234.42474365234375 255 255 255
26.40980339050293 41.80797576904297 223.91615295410156 255 255 255
57.94695281982422 35.11498260498047 177.27133178710938 255 255 255
7.927252769470215 41.03346633911133 238.1423797607422 255 255 255
1.6286088228225708 39.04753112792969 232.79620361328125 255 255 255
0.0362468846142292 44.80759048461914 242.32888793945312 255 255 255
4.6104350090026855 38.17413330078125 239.27508544921875 255 255 255
-2.5696637630462646 36.820491790771484 228.84298706054688 255 255 255
29.70772361755371 43.01564025878906 230.23635864257812 255 255 255
-9.836881637573242 38.90306091308594 234.3513641357422 255 255 255
17.867694854736328 38.102760314941406 252.5701446533203 255 255 255
-16.64635467529297 36.04631042480469 228.70301818847656 255 255 255
-17.641077041625977 36.351097106933594 229.41879272460938 255 255 255
-13.95860481262207 33.65658950805664 243.13633728027344 255 255 255
2.6935462951660156 43.31563186645508 231.4053192138672 255 255 255
74.96878051757812 3.1182196140289307 229.62664794921875 255 255 255
7.100506782531738 38.41812515258789 236.97186279296875 255 255 255
12.199747085571289 44.3609619140625 235.3684539794922 255 255 255
9.435234069824219 40.196292877197266 238.1526336669922 255 255 255
62.182640075683594 40.71011734008789 215.25582885742188 255 255 255
66.35922241210938 40.028175354003906 218.40431213378906 255 255 255
-9.799795150756836 44.876976013183594 245.1400604248047 255 255 255
11.924360275268555 37.83789825439453 251.64878845214844 255 255 255
5.446006774902344 37.12419128417969 252.96682739257812 255 255 255
61.750247955322266 37.34236526489258 188.56871032714844 255 255 255
59.613609313964844 36.63764953613281 191.8978729248047 255 255 255
57.99261474609375 27.30571174621582 169.0250244140625 255 255 255
61.8182487487793 40.30873107910156 212.95933532714844 255 255 255
60.164669036865234 39.48219680786133 211.27316284179688 255 255 255
-21.880367279052734 36.08457946777344 232.47581481933594 255 255 255
-29.58202362060547 43.81678009033203 235.8857879638672 255 255 255
-25.218332290649414 37.562583923339844 233.7099151611328 255 255 255
10.390167236328125 39.30820083618164 229.35643005371094 255 255 255
33.81663513183594 44.48361587524414 242.95457458496094 255 255 255
-25.57309341430664 45.780399322509766 244.6452178955078 255 255 255
-17.208173751831055 33.18678283691406 227.3848419189453 255 255 255
-11.21910285949707 35.920501708984375 242.28675842285156 255 255 255
13.131227493286133 35.40717315673828 252.41885375976562 255 255 255
87.60357666015625 25.642162322998047 221.6191864013672 255 255 255
-16.055850982666016 36.61081314086914 239.17300415039062 255 255 255
13.112455368041992 38.74956130981445 233.4491729736328 255 255 255
33.50792694091797 33.64760971069336 230.3173828125 255 255 255
13.553756713867188 38.73945999145508 234.73342895507812 255 255 255
18.134185791015625 39.19541931152344 236.38494873046875 255 255 255
12.843944549560547 41.004066467285156 226.2671356201172 255 255 255
14.565742492675781 44.06013488769531 249.6982421875 255 255 255
-23.85762596130371 40.220123291015625 236.38746643066406 255 255 255
-23.410947799682617 38.63914108276367 236.50601196289062 255 255 255
-20.644039154052734 44.878318786621094 244.09811401367188 255 255 255
-18.48599624633789 39.98017501831055 237.188720703125 255 255 255
11.688654899597168 39.74653244018555 256.6760559082031 255 255 255
-12.700742721557617 36.26054763793945 246.22984313964844 255 255 255
-5.580453395843506 40.833560943603516 244.08465576171875 255 255 255
-9.850143432617188 45.202396392822266 244.5728302001953 255 255 255
-29.443593978881836 45.67255401611328 243.963623046875 255 255 255
-25.277589797973633 35.13720703125 238.37301635742188 255 255 255
-12.168824195861816 33.51017379760742 241.77415466308594 255 255 255
-16.61371612548828 39.083614349365234 235.81411743164062 255 255 255
27.78925895690918 43.40787887573242 237.86898803710938 255 255 255
-21.08740997314453 41.429691314697266 233.7046661376953 255 255 255
16.502958297729492 37.77693176269531 251.15162658691406 255 255 255
-20.348752975463867 34.83262634277344 232.7949981689453 255 255 255
-22.725412368774414 43.254859924316406 235.79568481445312 255 255 255
-29.904184341430664 39.84806442260742 247.21392822265625 255 255 255
-24.657472610473633 42.10573959350586 236.25767517089844 255 255 255
-18.192386627197266 36.68287658691406 230.30189514160156 255 255 255
50.575931549072266 -7.324153900146484 -6.458771228790283 255 255 255
1.7564759254455566 39.09428787231445 228.79786682128906 255 255 255
73.98494720458984 25.570653915405273 207.58628845214844 255 255 255
38.2174072265625 40.73046875 217.60153198242188 255 255 255
42.45308303833008 39.497379302978516 227.74806213378906 255 255 255
46.70037841796875 42.51076889038086 227.0213623046875 255 255 255
38.5792236328125 40.7039680480957 217.41433715820312 255 255 255
11.350269317626953 38.572998046875 228.96998596191406 255 255 255
14.400612831115723 38.91911315917969 233.42413330078125 255 255 255
12.57371997833252 39.17070007324219 234.31277465820312 255 255 255
-14.846611022949219 29.45119857788086 228.1389923095703 255 255 255
-20.19481658935547 37.108280181884766 230.9766845703125 255 255 255
-16.281660079956055 44.77580261230469 235.53135681152344 255 255 255
-0.5833572149276733 33.198265075683594 214.9958038330078 255 255 255
32.19298553466797 44.534297943115234 237.0869140625 255 255 255
15.755602836608887 41.554996490478516 223.58636474609375 255 255 255
-30.864320755004883 41.390472412109375 246.36769104003906 255 255 255
-27.46045684814453 45.53688430786133 243.28257751464844 255 255 255
-28.875520706176758 43.26728820800781 239.68223571777344 255 255 255
78.6904525756836 30.246978759765625 205.7878875732422 255 255 255
77.40396881103516 32.966064453125 203.3350372314453 255 255 255
77.44110107421875 32.46436309814453 207.61473083496094 255 255 255
73.61164855957031 33.92485427856445 207.52903747558594 255 255 255
46.705936431884766 43.26063919067383 228.8135223388672 255 255 255
-14.904507637023926 36.366172790527344 237.5458526611328 255 255 255
69.62078857421875 32.81005096435547 191.81512451171875 255 255 255
69.82511138916016 35.06890106201172 179.78184509277344 255 255 255
72.04285430908203 32.59225845336914 199.3452911376953 255 255 255
-10.437288284301758 40.07054901123047 244.44741821289062 255 255 255
-14.73242473602295 45.701934814453125 246.45777893066406 255 255 255
12.824064254760742 37.339908599853516 260.2941589355469 255 255 255
-14.15700626373291 34.28996276855469 228.40444946289062 255 255 255
-17.79290199279785 40.516109466552734 234.91600036621094 255 255 255
-24.236879348754883 41.2384033203125 237.02903747558594 255 255 255
1.2957669496536255 37.08352279663086 239.5926513671875 255 255 255
-17.468482971191406 36.97477722167969 232.7593231201172 255 255 255
-19.98723602294922 35.45381546020508 231.16307067871094 255 255 255
-16.26416778564453 39.82954025268555 237.6359405517578 255 255 255
-17.618927001953125 39.60165786743164 238.78021240234375 255 255 255
-15.38039779663086 34.64345932006836 238.09584045410156 255 255 255
11.850534439086914 39.0530891418457 227.98526000976562 255 255 255
12.616341590881348 38.23528289794922 235.15533447265625 255 255 255
23.939224243164062 39.19535827636719 231.3687744140625 255 255 255
11.309571266174316 44.24977111816406 235.3272247314453 255 255 255
10.863354682922363 38.74012756347656 236.4774169921875 255 255 255
17.5197811126709 38.6383171081543 227.22923278808594 255 255 255
21.31266212463379 38.79174041748047 223.1774139404297 255 255 255
26.523988723754883 38.21525955200195 234.25619506835938 255 255 255
16.23845863342285 40.188533782958984 226.55181884765625 255 255 255
96.9294204711914 31.825912475585938 217.69189453125 255 255 255
106.42304229736328 28.7409725189209 217.78919982910156 255 255 255
68.582763671875 33.14744186401367 205.01380920410156 255 255 255
99.40020751953125 36.20448684692383 203.3795166015625 255 255 255
121.55328369140625 25.915048599243164 219.7713165283203 255 255 255
58.8730583190918 31.574148178100586 174.75631713867188 255 255 255
0.48283475637435913 41.62541198730469 241.1354522705078 255 255 255
-15.27480411529541 37.11923599243164 233.7547607421875 255 255 255
-14.369702339172363 37.42757034301758 230.85104370117188 255 255 255
6.0038580894470215 39.7646484375 241.72402954101562 255 255 255
52.00255584716797 35.36670684814453 227.1944580078125 255 255 255
-49.08911895751953 -7.1573662757873535 57.299964904785156 255 255 255
392.57879638671875 -280.2068786621094 923.7794799804688 255 255 255
-49.634864807128906 3.690513849258423 15.003552436828613 255 255 255
70.19226837158203 28.809741973876953 187.2222442626953 255 255 255
-15.221043586730957 37.666709899902344 234.83287048339844 255 255 255
-8.924738883972168 39.624427795410156 243.07693481445312 255 255 255
4.261770248413086 39.264076232910156 230.29275512695312 255 255 255
10.856518745422363 39.55818557739258 228.42257690429688 255 255 255
5.299175262451172 39.24278259277344 230.4373779296875 255 255 255
8.34734058380127 39.96868896484375 230.4024658203125 255 255 255
-14.671921730041504 34.24435043334961 229.34596252441406 255 255 255
55.31525421142578 17.37830352783203 109.61383819580078 255 255 255
-0.3898802399635315 39.68144226074219 233.7714385986328 255 255 255
7.78664493560791 38.89888381958008 235.9494171142578 255 255 255
16.169750213623047 41.60882568359375 240.16639709472656 255 255 255
1.823762059211731 38.79899978637695 233.53445434570312 255 255 255
7.867974281311035 40.20873260498047 236.55638122558594 255 255 255
5.515957355499268 34.87350082397461 232.66424560546875 255 255 255
-11.511137962341309 34.91676712036133 243.68344116210938 255 255 255
-12.112922668457031 33.49178695678711 239.51512145996094 255 255 255
-16.62082290649414 36.17354965209961 230.8324737548828 255 255 255
-16.489656448364258 39.42650604248047 236.85707092285156 255 255 255
51.94160842895508 41.94010543823242 224.8825225830078 255 255 255
14.762788772583008 43.80592727661133 237.04014587402344 255 255 255
9.909403800964355 42.5088996887207 227.07142639160156 255 255 255
11.935720443725586 43.0700569152832 230.03793334960938 255 255 255
11.561295509338379 38.74232482910156 229.1616668701172 255 255 255
26.047082901000977 40.68110656738281 232.97665405273438 255 255 255
41.66293716430664 39.40644836425781 227.59890747070312 255 255 255
-1.7401944398880005 40.924774169921875 240.93263244628906 255 255 255
-10.022406578063965 38.86372756958008 236.31800842285156 255 255 255
14.492086410522461 44.357025146484375 250.87644958496094 255 255 255
-10.580933570861816 43.578651428222656 233.45919799804688 255 255 255
-5.949570655822754 38.263912200927734 233.25009155273438 255 255 255
-10.00692081451416 38.977760314941406 234.4470977783203 255 255 255
1.3022853136062622 37.96933364868164 241.7769775390625 255 255 255
4.6605448722839355 38.97748947143555 238.64251708984375 255 255 255
-6.02990198135376 38.71968078613281 229.8049774169922 255 255 255
-57.68098068237305 -3.888066053390503 -19.467111587524414 255 255 255
-50.64241409301758 -2.7394015789031982 -23.98038101196289 255 255 255
27.90342903137207 42.348655700683594 225.2953338623047 255 255 255
22.020801544189453 38.60361099243164 225.3524169921875 255 255 255
123.47811889648438 21.26934814453125 207.175048828125 255 255 255
76.62159729003906 33.73441696166992 207.85235595703125 255 255 255
96.96981811523438 39.21913146972656 206.0941162109375 255 255 255
76.89737701416016 29.195486068725586 209.55259704589844 255 255 255
