-138.24639892578125 6.543105125427246 23.72715950012207 255 255 255
-124.60755157470703 -0.9762954711914062 -2.726773500442505 255 255 255
-136.85792541503906 5.651318550109863 16.044597625732422 255 255 255
-188.17910766601562 -8.899566650390625 -75.50701141357422 255 255 255
-169.19711303710938 -12.542369842529297 -85.19011688232422 255 255 255
-136.41685485839844 2.989198684692383 62.581756591796875 255 255 255
-146.83363342285156 1.998154640197754 52.61103057861328 255 255 255
-134.2593536376953 5.026344299316406 48.00751495361328 255 255 255
-145.03721618652344 5.410762786865234 48.578216552734375 255 255 255
-126.09445190429688 -5.350978374481201 -8.465301513671875 255 255 255
-141.01239013671875 8.418246269226074 40.749290466308594 255 255 255
-141.5093994140625 6.945389747619629 41.49827575683594 255 255 255
-136.19570922851562 0.41126585006713867 34.2259407043457 255 255 255
-140.98583984375 9.299731254577637 44.96976089477539 255 255 255
-142.58851623535156 5.4698166847229 46.41090393066406 255 255 255
-138.4051055908203 1.7598260641098022 38.379737854003906 255 255 255
-143.07647705078125 7.217113018035889 52.14609909057617 255 255 255
-142.45462036132812 9.3959321975708 51.86504364013672 255 255 255
-142.520263671875 7.539255619049072 52.29329299926758 255 255 255
-143.0621337890625 7.247275352478027 52.231666564941406 255 255 255
-142.51849365234375 7.535098075866699 52.24360656738281 255 255 255
-141.12765502929688 7.121819972991943 41.32691955566406 255 255 255
-140.040283203125 2.9445836544036865 36.3840446472168 255 255 255
-138.0851593017578 5.704713344573975 44.5639762878418 255 255 255
-128.46923828125 1.2102816104888916 29.275768280029297 255 255 255
-127.97315979003906 6.549124240875244 20.649127960205078 255 255 255
-125.80009460449219 3.453372001647949 36.181697845458984 255 255 255
-137.31370544433594 -2.1141247749328613 53.295589447021484 255 255 255
-145.18328857421875 7.912855625152588 64.22818756103516 255 255 255
-82.4703140258789 -13.482535362243652 -34.88447570800781 255 255 255
66.01548767089844 2.1776161193847656 40.83001708984375 255 255 255
-16.411819458007812 -7.2557573318481445 -24.892349243164062 255 255 255
2.711599588394165 -4.193177223205566 1.4012765884399414 255 255 255
-8.714934349060059 -3.934300184249878 -36.495826721191406 255 255 255
-12.594334602355957 -2.0810394287109375 -30.858842849731445 255 255 255
-178.25692749023438 -11.07246208190918 -95.42079162597656 255 255 255
-31.451066970825195 -10.184385299682617 -40.69066619873047 255 255 255
-39.496212005615234 -7.217154502868652 -55.994842529296875 255 255 255
-49.20665740966797 -4.603769779205322 -54.814109802246094 255 255 255
-41.86267852783203 -6.173356056213379 -57.72115707397461 255 255 255
-186.92520141601562 -13.289505958557129 -124.37224578857422 255 255 255
-181.27432250976562 -3.819978952407837 -78.67754364013672 255 255 255
-181.1696319580078 -3.7690589427948 -78.18649291992188 255 255 255
-174.21575927734375 -10.370681762695312 -110.51104736328125 255 255 255
-173.3325653076172 -12.108674049377441 -107.718994140625 255 255 255
-14.898117065429688 -7.208548545837402 -26.6121826171875 255 255 255
-7.609143257141113 -6.675142288208008 -35.04650115966797 255 255 255
-16.367067337036133 -1.5778898000717163 -27.564043045043945 255 255 255
-10.762231826782227 -6.8056206703186035 -20.23027801513672 255 255 255
-16.30294418334961 -7.8333611488342285 -20.154827117919922 255 255 255
-128.559814453125 -37.00777816772461 -156.27175903320312 255 255 255
-126.66795349121094 -34.581119537353516 -152.4219512939453 255 255 255
-176.13877868652344 -12.330533027648926 -101.92036437988281 255 255 255
-91.96902465820312 -30.435022354125977 -147.26170349121094 255 255 255
-109.17753601074219 -12.655150413513184 -126.80078887939453 255 255 255
-113.74610137939453 -11.257891654968262 -119.32421112060547 255 255 255
-76.69202423095703 -13.780115127563477 -114.81719207763672 255 255 255
-154.22576904296875 -10.373807907104492 -116.47103118896484 255 255 255
-148.05934143066406 -19.655895233154297 -161.66128540039062 255 255 255
-179.8993682861328 -5.075043201446533 -87.71674346923828 255 255 255
-165.16693115234375 -12.627790451049805 -97.87213134765625 255 255 255
-182.05735778808594 -19.277692794799805 -112.74647521972656 255 255 255
-178.67076110839844 -6.205955505371094 -94.34101867675781 255 255 255
-179.34776306152344 -3.580538749694824 -79.05316162109375 255 255 255
-177.88279724121094 -6.251169681549072 -97.60529327392578 255 255 255
-88.5056381225586 -17.526769638061523 -130.00782775878906 255 255 255
-112.68565368652344 -12.216228485107422 -124.36979675292969 255 255 255
-125.36978149414062 -17.632047653198242 -132.97760009765625 255 255 255
-109.33789825439453 -23.516510009765625 -146.32052612304688 255 255 255
-74.53118896484375 -27.00542640686035 -150.4998016357422 255 255 255
-86.174072265625 -12.94262981414795 -128.52894592285156 255 255 255
-104.22015380859375 -18.140596389770508 -127.0321273803711 255 255 255
-81.24822998046875 -18.598892211914062 -128.85931396484375 255 255 255
-93.90753173828125 -24.3728084564209 -137.1356964111328 255 255 255
-85.17647552490234 -24.578998565673828 -141.4795379638672 255 255 255
-86.25633239746094 -24.57810401916504 -145.9652099609375 255 255 255
4.364459037780762 0.22456595301628113 -3.701756000518799 255 255 255
5.097596168518066 -3.884416341781616 -2.111560821533203 255 255 255
26.485597610473633 -4.338447093963623 2.678712844848633 255 255 255
8.723134994506836 -1.1475762128829956 -18.09609031677246 255 255 255
-189.281982421875 -9.40436840057373 -123.53483581542969 255 255 255
-189.21414184570312 -16.68976402282715 -96.40621948242188 255 255 255
-181.5196075439453 -3.765880584716797 -78.556396484375 255 255 255
-149.15028381347656 -14.756997108459473 -136.3426971435547 255 255 255
-171.15509033203125 -9.809338569641113 -114.34020233154297 255 255 255
-128.5334014892578 -37.03433609008789 -156.37481689453125 255 255 255
-120.08654022216797 -37.34657287597656 -194.69076538085938 255 255 255
-175.19883728027344 -11.875591278076172 -102.85890197753906 255 255 255
-175.80429077148438 -6.3896942138671875 -99.40652465820312 255 255 255
-166.47901916503906 -12.383865356445312 -95.40937805175781 255 255 255
-176.8234405517578 -6.783944606781006 -100.20562744140625 255 255 255
-176.44479370117188 -8.085134506225586 -108.55490112304688 255 255 255
-184.70216369628906 -4.797099590301514 -88.19743347167969 255 255 255
-188.97677612304688 -9.243733406066895 -122.22135162353516 255 255 255
-163.0586700439453 -7.741670608520508 -106.80398559570312 255 255 255
-166.17318725585938 -12.98448371887207 -94.88713836669922 255 255 255
-152.29299926757812 -17.646026611328125 -134.92213439941406 255 255 255
-145.002197265625 -13.262117385864258 -136.9769287109375 255 255 255
-146.59158325195312 -17.652090072631836 -133.7392120361328 255 255 255
-141.5184326171875 -27.948625564575195 -155.69049072265625 255 255 255
-174.71861267089844 -12.430482864379883 -113.36956787109375 255 255 255
-115.66974639892578 -25.784809112548828 -148.31512451171875 255 255 255
-175.27330017089844 -10.95976448059082 -102.9846420288086 255 255 255
-99.74356842041016 -46.90079116821289 -188.8269500732422 255 255 255
-93.28671264648438 -9.15124225616455 -97.16704559326172 255 255 255
-50.99869155883789 -3.919656276702881 -38.18037414550781 255 255 255
-71.06407928466797 -11.75843334197998 -103.27925109863281 255 255 255
-33.50603485107422 -1.88620924949646 -18.494176864624023 255 255 255
-161.0520782470703 -9.958477020263672 -119.94989776611328 255 255 255
-175.09681701660156 -12.490398406982422 -102.03815460205078 255 255 255
-166.03091430664062 -13.060969352722168 -94.66999053955078 255 255 255
-7.7432403564453125 -2.2036612033843994 -30.319538116455078 255 255 255
-6.113924980163574 -6.152681350708008 -16.559396743774414 255 255 255
-4.872220516204834 -6.501079559326172 -21.7468204498291 255 255 255
-2.8285014629364014 -6.233805179595947 -30.59246826171875 255 255 255
-179.3252716064453 -8.527497291564941 -83.65404510498047 255 255 255
-186.07095336914062 -11.948765754699707 -89.13955688476562 255 255 255
-188.8067169189453 -14.360697746276855 -131.33065795898438 255 255 255
-111.95964813232422 -28.17750358581543 -151.45077514648438 255 255 255
-127.09577178955078 -23.854585647583008 -148.07135009765625 255 255 255
-138.20455932617188 -12.767362594604492 -131.6885986328125 255 255 255
-143.69610595703125 -11.885308265686035 -126.2568130493164 255 255 255
-144.80752563476562 -12.43908977508545 -129.4171142578125 255 255 255
-128.51805114746094 -17.45604705810547 -145.87423706054688 255 255 255
-123.61119842529297 -17.584293365478516 -146.17527770996094 255 255 255
-119.74515533447266 -12.634264945983887 -125.46206665039062 255 255 255
-122.74911499023438 -13.350013732910156 -131.3588409423828 255 255 255
-70.06620788574219 -29.627954483032227 -117.3138656616211 255 255 255
-41.23801040649414 -5.009946346282959 -54.46687698364258 255 255 255
-35.6319465637207 -10.418975830078125 -45.24798583984375 255 255 255
-8.183229446411133 -1.0674469470977783 -18.322885513305664 255 255 255
-178.458984375 -5.967434406280518 -94.79133605957031 255 255 255
-181.8675079345703 -4.673200607299805 -86.87886047363281 255 255 255
-135.96730041503906 -45.108009338378906 -218.00302124023438 255 255 255
-174.3075408935547 -11.21060562133789 -115.5893783569336 255 255 255
-177.3992462158203 -3.879032611846924 -80.82608032226562 255 255 255
-178.62088012695312 -5.919168472290039 -94.148193359375 255 255 255
-163.98089599609375 -9.069003105163574 -112.50395965576172 255 255 255
-178.6272430419922 -4.355902671813965 -83.29214477539062 255 255 255
-179.21478271484375 -3.926234483718872 -81.6427993774414 255 255 255
-185.3237762451172 -16.34834861755371 -99.76097106933594 255 255 255
-13.666376113891602 -2.0791263580322266 -31.15070152282715 255 255 255
-119.59857940673828 -15.501270294189453 -143.0057373046875 255 255 255
-110.73384857177734 -17.3541316986084 -136.1261749267578 255 255 255
-125.85517120361328 -13.698488235473633 -133.36895751953125 255 255 255
-116.01576232910156 -19.6149845123291 -139.9519500732422 255 255 255
-131.9685516357422 -11.94808578491211 -128.122802734375 255 255 255
-36.9120979309082 -40.34658432006836 -125.9615249633789 255 255 255
-167.8108367919922 -13.637737274169922 -113.37770080566406 255 255 255
-167.85028076171875 -13.55316162109375 -113.20101165771484 255 255 255
-168.46185302734375 -8.50109577178955 -112.99398040771484 255 255 255
-154.78578186035156 -10.614624977111816 -119.9652328491211 255 255 255
-167.2520751953125 -8.437251091003418 -112.28439331054688 255 255 255
-141.1334686279297 -16.550086975097656 -140.69618225097656 255 255 255
-161.63836669921875 -11.949457168579102 -137.19309997558594 255 255 255
-118.3550796508789 -30.305255889892578 -152.5812530517578 255 255 255
-124.37016296386719 -24.724653244018555 -150.99615478515625 255 255 255
-152.1468963623047 -11.095520973205566 -122.73934173583984 255 255 255
-147.82286071777344 -12.01258373260498 -129.7688751220703 255 255 255
-173.0472869873047 -7.998754024505615 -109.13736724853516 255 255 255
-163.24960327148438 -7.725081443786621 -106.43566131591797 255 255 255
-191.40545654296875 -16.261899948120117 -86.39534759521484 255 255 255
-191.03921508789062 -16.784713745117188 -87.22383880615234 255 255 255
-187.16156005859375 -16.582679748535156 -102.88745880126953 255 255 255
-101.74839782714844 -15.121430397033691 -122.41102600097656 255 255 255
-88.3455581665039 -10.298535346984863 -100.93904876708984 255 255 255
-35.80342102050781 -30.311355590820312 -95.94969940185547 255 255 255
-63.50472640991211 -13.088591575622559 -95.48470306396484 255 255 255
1.4824090003967285 1.6841155290603638 3.037499189376831 255 255 255
4.845513820648193 -9.112211227416992 60.07938003540039 255 255 255
-148.1940155029297 -17.16383934020996 -128.9074249267578 255 255 255
-122.93859100341797 -13.71068000793457 -132.9158477783203 255 255 255
-148.93594360351562 -23.646133422851562 -140.7146759033203 255 255 255
-134.15675354003906 -12.655123710632324 -128.56991577148438 255 255 255
-158.13250732421875 -10.816506385803223 -124.9276123046875 255 255 255
-176.1914825439453 -4.983275890350342 -74.99762725830078 255 255 255
-164.20188903808594 -10.261425971984863 -60.19094467163086 255 255 255
-170.5389862060547 -6.937176704406738 -46.49733352661133 255 255 255
-187.89996337890625 -18.70072364807129 -95.92851257324219 255 255 255
-164.77197265625 -7.934659957885742 -108.01039123535156 255 255 255
-176.73898315429688 -6.046812534332275 -97.21458435058594 255 255 255
-162.0633544921875 -7.756536960601807 -106.3747787475586 255 255 255
-162.95994567871094 -10.327240943908691 -122.68525695800781 255 255 255
-14.98837947845459 -1.5822420120239258 -23.193334579467773 255 255 255
-11.505952835083008 -2.6671643257141113 -29.983600616455078 255 255 255
9.603002548217773 -0.014857086353003979 -2.6559200286865234 255 255 255
-180.19493103027344 -9.097434997558594 -60.3781623840332 255 255 255
-168.55880737304688 -6.928988933563232 -46.019676208496094 255 255 255
-123.01248168945312 -37.67753219604492 -152.05343627929688 255 255 255
-152.15731811523438 -15.40178394317627 -137.3839569091797 255 255 255
-153.56793212890625 -19.602222442626953 -162.89906311035156 255 255 255
10.524524688720703 -1.8371846675872803 2.4621903896331787 255 255 255
9.444092750549316 -6.851507663726807 -1.2643194198608398 255 255 255
4.517797946929932 -5.088578701019287 -17.17369842529297 255 255 255
7.804535865783691 -6.563987731933594 -3.901898145675659 255 255 255
11.015687942504883 -4.352612495422363 -8.15932559967041 255 255 255
12.268956184387207 -5.214194297790527 26.04878807067871 255 255 255
-5.555354595184326 1.0311658382415771 23.838855743408203 255 255 255
-15.641079902648926 -7.516809463500977 -23.82206916809082 255 255 255
-11.271321296691895 -1.596502661705017 -28.29859161376953 255 255 255
-14.00484561920166 -1.7993342876434326 -30.522682189941406 255 255 255
-172.9053955078125 -12.751155853271484 -108.38890075683594 255 255 255
-193.98696899414062 -13.150713920593262 -76.73799133300781 255 255 255
-179.92291259765625 -8.65349006652832 -78.68867492675781 255 255 255
-186.7818145751953 -7.855282783508301 -78.11746215820312 255 255 255
-184.1452178955078 -3.2551445960998535 -76.37905883789062 255 255 255
-166.89202880859375 -3.4893977642059326 -65.66873168945312 255 255 255
-182.0470428466797 -8.260490417480469 -75.06840515136719 255 255 255
-197.10955810546875 -8.983637809753418 -123.56221008300781 255 255 255
-186.26087951660156 -19.304452896118164 -99.08649444580078 255 255 255
-64.85385131835938 -6.865909576416016 -71.30872344970703 255 255 255
10.49489688873291 -4.300301551818848 -24.652267456054688 255 255 255
-59.948917388916016 -13.33397388458252 -54.6199951171875 255 255 255
-59.527278900146484 -8.053509712219238 -59.46571350097656 255 255 255
-58.887943267822266 -12.406790733337402 -58.78167724609375 255 255 255
-147.1903076171875 -22.85824203491211 -139.2238311767578 255 255 255
-160.22618103027344 -11.380436897277832 -134.54388427734375 255 255 255
-155.85411071777344 -12.677350044250488 -130.6065216064453 255 255 255
-125.20655059814453 -35.829654693603516 -178.9401397705078 255 255 255
-162.01385498046875 -34.04179763793945 -166.55819702148438 255 255 255
-150.8555908203125 -17.187387466430664 -147.3888397216797 255 255 255
-187.56285095214844 -1.1140271425247192 -60.94487762451172 255 255 255
-174.87355041503906 -1.6541430950164795 -59.67413330078125 255 255 255
-169.4001007080078 -4.205264568328857 -78.09264373779297 255 255 255
-196.0078125 -9.789974212646484 -111.93331909179688 255 255 255
-170.1953887939453 -2.223776340484619 -64.88691711425781 255 255 255
-168.69021606445312 -2.3246548175811768 -64.667236328125 255 255 255
-169.31243896484375 -11.392596244812012 -78.73771667480469 255 255 255
-168.89117431640625 -5.622729778289795 -47.63970184326172 255 255 255
-184.25393676757812 -3.296785593032837 -76.1206283569336 255 255 255
-168.07310485839844 -1.987392544746399 -61.85990905761719 255 255 255
5.933945178985596 -1.6864665746688843 -22.75125503540039 255 255 255
11.928680419921875 -6.2274346351623535 -18.393774032592773 255 255 255
16.323965072631836 -1.9309360980987549 -18.006139755249023 255 255 255
-150.40818786621094 -11.095203399658203 -126.80677795410156 255 255 255
-57.831268310546875 -39.55476760864258 -147.1331329345703 255 255 255
-187.30198669433594 -14.674813270568848 -153.11119079589844 255 255 255
-189.62197875976562 -15.801054954528809 -88.40210723876953 255 255 255
-183.7481231689453 -17.209794998168945 -98.23595428466797 255 255 255
-144.5364227294922 -12.409987449645996 -129.58193969726562 255 255 255
-156.23675537109375 -10.979500770568848 -124.84109497070312 255 255 255
-139.6842498779297 -10.861194610595703 -122.68193817138672 255 255 255
-74.0416259765625 -13.071290969848633 -59.10383224487305 255 255 255
-63.82522201538086 -20.79607582092285 -78.22650146484375 255 255 255
-69.1629638671875 -18.250452041625977 -91.07530212402344 255 255 255
-189.96054077148438 -10.057088851928711 -122.03561401367188 255 255 255
-177.58706665039062 -1.6078356504440308 -59.790122985839844 255 255 255
-8.925616264343262 -5.395583629608154 -37.06930923461914 255 255 255
-13.534323692321777 -1.7747900485992432 -14.670523643493652 255 255 255
-7.7794036865234375 -7.763735294342041 -37.9073486328125 255 255 255
61.26531982421875 0.8867650628089905 26.218463897705078 255 255 255
-19.469995498657227 -11.034420013427734 -31.174617767333984 255 255 255
-25.21108055114746 -3.3866379261016846 -39.62944030761719 255 255 255
-12.04587459564209 -12.74246883392334 -18.260269165039062 255 255 255
-158.02027893066406 -19.743770599365234 -134.2401885986328 255 255 255
-84.96381378173828 -24.958770751953125 -146.50450134277344 255 255 255
-125.89167022705078 -23.799745559692383 -149.6195526123047 255 255 255
-159.5765380859375 -9.966662406921387 -121.08491516113281 255 255 255
-160.19705200195312 -9.981642723083496 -119.45741271972656 255 255 255
-175.98939514160156 -2.8171074390411377 -39.69291305541992 255 255 255
-175.8516845703125 0.2623513638973236 -39.29048538208008 255 255 255
-158.1389617919922 -0.4061964154243469 -41.4765510559082 255 255 255
-171.7910919189453 -0.7289110422134399 -48.37627029418945 255 255 255
-171.04808044433594 -2.145366907119751 -63.40618896484375 255 255 255
-6.97749137878418 -3.456212043762207 -33.00250244140625 255 255 255
-13.26123332977295 -1.2226020097732544 -24.60056495666504 255 255 255
-81.10234832763672 -13.109833717346191 -87.42593383789062 255 255 255
-81.44217681884766 -14.196013450622559 -91.08940124511719 255 255 255
-169.1159210205078 -7.078729629516602 -46.819393157958984 255 255 255
-195.3274383544922 -19.32233238220215 -102.4771728515625 255 255 255
-181.96124267578125 -8.220348358154297 -74.9715576171875 255 255 255
-180.93692016601562 -7.112607955932617 -77.08805084228516 255 255 255
-177.95799255371094 -8.359038352966309 -81.51817321777344 255 255 255
-148.67904663085938 -23.91986846923828 -141.42086791992188 255 255 255
-191.84420776367188 -17.693458557128906 -97.58121490478516 255 255 255
-195.3582305908203 -9.710455894470215 -110.83244323730469 255 255 255
-188.56753540039062 -14.670833587646484 -94.24308776855469 255 255 255
-178.381591796875 -7.341375827789307 -47.0118522644043 255 255 255
-52.51576614379883 -14.348705291748047 -59.77485275268555 255 255 255
-46.980464935302734 -14.756711959838867 -55.281864166259766 255 255 255
-61.394222259521484 -5.153731822967529 -56.96390914916992 255 255 255
-183.40960693359375 -15.967849731445312 -98.82209777832031 255 255 255
-184.09828186035156 -16.89255714416504 -106.94731140136719 255 255 255
-189.04531860351562 -16.225664138793945 -87.84471893310547 255 255 255
-180.1351318359375 -8.37771987915039 -59.32495880126953 255 255 255
-181.97633361816406 -19.14190101623535 -112.48407745361328 255 255 255
-173.67555236816406 -5.909238338470459 -53.37097930908203 255 255 255
-162.7060089111328 -8.583057403564453 -59.194908142089844 255 255 255
-165.5597686767578 -0.7946924567222595 -42.948524475097656 255 255 255
-185.4669189453125 -9.912666320800781 -81.5592269897461 255 255 255
-177.8317413330078 -2.7189207077026367 -41.16842269897461 255 255 255
-7.619863510131836 -6.647703647613525 -31.009963989257812 255 255 255
-104.72782897949219 -13.893430709838867 -128.76736450195312 255 255 255
-62.88343048095703 -19.721134185791016 -97.58499908447266 255 255 255
-119.16683197021484 -15.518988609313965 -143.2985382080078 255 255 255
-157.89398193359375 -11.110227584838867 -127.01394653320312 255 255 255
-157.75132751464844 -10.767714500427246 -123.9603500366211 255 255 255
-157.5824737548828 -10.846345901489258 -124.339111328125 255 255 255
-93.1812515258789 -14.274701118469238 -50.05391311645508 255 255 255
-158.8605499267578 -11.97769546508789 -132.7884521484375 255 255 255
-118.06436920166016 -40.15327072143555 -188.0491485595703 255 255 255
-168.98233032226562 -7.96273136138916 -109.26394653320312 255 255 255
-176.3712921142578 -8.717109680175781 -114.54585266113281 255 255 255
-175.79025268554688 -7.130528926849365 -102.1963882446289 255 255 255
-171.048828125 -13.444010734558105 -113.58665466308594 255 255 255
-187.1886749267578 -2.473724842071533 -74.24925994873047 255 255 255
-181.08514404296875 -3.6239376068115234 -82.19499969482422 255 255 255
-174.4036407470703 -2.2304980754852295 -66.52880096435547 255 255 255
-178.9649658203125 -4.583549499511719 -86.33412170410156 255 255 255
-179.19105529785156 -4.789388179779053 -88.76355743408203 255 255 255
-166.84246826171875 -9.526725769042969 -119.45433807373047 255 255 255
-146.77651977539062 -24.251962661743164 -146.3750457763672 255 255 255
-192.552001953125 -16.187931060791016 -76.45140075683594 255 255 255
-68.183837890625 -6.092822551727295 -63.89757537841797 255 255 255
-66.68965911865234 -8.657694816589355 -56.423988342285156 255 255 255
-58.81776809692383 -12.521793365478516 -59.691524505615234 255 255 255
-164.45571899414062 -6.325516700744629 -43.11356735229492 255 255 255
-201.13497924804688 -8.76155948638916 -106.95935821533203 255 255 255
-197.77426147460938 -7.141727924346924 -54.71010208129883 255 255 255
-178.03497314453125 -6.471092224121094 -57.71228790283203 255 255 255
-164.6416778564453 -6.962752819061279 -43.105140686035156 255 255 255
-73.13983917236328 -13.922478675842285 -46.972599029541016 255 255 255
-40.563934326171875 6.827581405639648 37.043399810791016 255 255 255
-58.644004821777344 -1.6364500522613525 -23.790307998657227 255 255 255
-80.09590148925781 -13.233095169067383 -86.54329681396484 255 255 255
-79.85701751708984 -13.206926345825195 -54.79421615600586 255 255 255
-183.20596313476562 -4.642117023468018 -55.031436920166016 255 255 255
-168.86529541015625 -6.726250648498535 -46.845672607421875 255 255 255
-168.76583862304688 -6.838142395019531 -47.96420669555664 255 255 255
-8.809825897216797 -2.559735059738159 12.13723087310791 255 255 255
17.909273147583008 5.847712516784668 76.32282257080078 255 255 255
-194.4903106689453 -14.256413459777832 -75.99028778076172 255 255 255
-174.6937255859375 -6.702676296234131 -57.53622055053711 255 255 255
-165.7529754638672 -6.340976715087891 -44.11383056640625 255 255 255
-207.63438415527344 -25.536252975463867 -106.14896392822266 255 255 255
-179.4123992919922 -3.0082037448883057 -74.08627319335938 255 255 255
-168.42156982421875 -10.049819946289062 -115.63792419433594 255 255 255
-162.9022674560547 -16.157968521118164 -149.42762756347656 255 255 255
-171.28465270996094 -34.411678314208984 -167.0972900390625 255 255 255
-176.17254638671875 -12.045576095581055 -102.08277893066406 255 255 255
-142.0682830810547 -16.470754623413086 -133.30722045898438 255 255 255
-176.7687225341797 -11.805886268615723 -112.97850036621094 255 255 255
-164.98780822753906 -14.939873695373535 -121.71479797363281 255 255 255
-158.06875610351562 -12.195392608642578 -135.1557159423828 255 255 255
-144.7217559814453 -11.24766731262207 -125.91618347167969 255 255 255
-153.23028564453125 -21.797687530517578 -139.41818237304688 255 255 255
-169.57012939453125 -1.118234634399414 -45.85735321044922 255 255 255
-185.932861328125 -8.353581428527832 -76.07465362548828 255 255 255
-190.10360717773438 -16.408151626586914 -78.09117126464844 255 255 255
-183.88613891601562 -0.6671369671821594 -51.08942413330078 255 255 255
-198.7870635986328 -15.659087181091309 -72.66712951660156 255 255 255
-168.0134735107422 -5.86642599105835 -47.76279830932617 255 255 255
-167.4451904296875 -0.9954118132591248 -45.715606689453125 255 255 255
-158.28717041015625 -10.80051326751709 -124.5231704711914 255 255 255
-99.90756225585938 -19.669044494628906 -142.95040893554688 255 255 255
-95.90510559082031 -23.151037216186523 -145.73045349121094 255 255 255
-168.41323852539062 -9.928670883178711 -114.92337799072266 255 255 255
-158.72213745117188 -13.320878982543945 -139.80177307128906 255 255 255
-152.45167541503906 -17.606534957885742 -134.685791015625 255 255 255
-202.64926147460938 -21.759462356567383 -112.86039733886719 255 255 255
-196.48487854003906 -13.971219062805176 -72.75640106201172 255 255 255
-195.52432250976562 -13.84357738494873 -76.40819549560547 255 255 255
-187.58213806152344 -2.2908196449279785 -72.36518859863281 255 255 255
-191.8299102783203 -10.078544616699219 -73.23279571533203 255 255 255
-199.7818145751953 -14.521602630615234 -73.41493225097656 255 255 255
-13.282770156860352 -9.66008186340332 -26.12175941467285 255 255 255
-16.1263427734375 -1.122072458267212 -24.40001678466797 255 255 255
-160.54302978515625 0.03937458246946335 -42.041751861572266 255 255 255
-161.123046875 -3.5690977573394775 -51.012603759765625 255 255 255
-158.19613647460938 -0.6841065287590027 -45.51415252685547 255 255 255
-189.75230407714844 -17.415292739868164 -91.01145935058594 255 255 255
-157.9353485107422 -2.2422449588775635 -48.444488525390625 255 255 255
-159.7624053955078 -2.3856184482574463 -50.18509292602539 255 255 255
-156.2874298095703 -0.18448539078235626 -39.466983795166016 255 255 255
-169.1667938232422 -7.101444244384766 -46.21513366699219 255 255 255
-191.00372314453125 -3.8014767169952393 -57.81144714355469 255 255 255
-184.5041961669922 -13.008869171142578 -43.99420166015625 255 255 255
-180.7300262451172 -4.247801303863525 -81.91322326660156 255 255 255
-67.4539566040039 -4.90198278427124 -54.05340576171875 255 255 255
-61.13287353515625 -14.171630859375 -57.66170120239258 255 255 255
-60.4264030456543 -12.376199722290039 -58.9625244140625 255 255 255
-70.17609405517578 -7.583069801330566 -75.83882904052734 255 255 255
-63.936424255371094 -7.632856845855713 -74.55725860595703 255 255 255
-226.83126831054688 -14.969066619873047 -80.75343322753906 255 255 255
-82.16421508789062 -15.201942443847656 -51.94499206542969 255 255 255
-93.71434783935547 -7.46072244644165 -54.94748306274414 255 255 255
-89.2220458984375 -14.198481559753418 -61.98252868652344 255 255 255
-76.47515869140625 -10.816239356994629 -57.815582275390625 255 255 255
-75.83658599853516 -12.286812782287598 -57.87783432006836 255 255 255
-95.5584487915039 -14.004039764404297 -45.563743591308594 255 255 255
-92.40038299560547 -10.701099395751953 -49.08598327636719 255 255 255
-81.915283203125 -5.7797417640686035 -57.598209381103516 255 255 255
-91.73311614990234 -7.96543025970459 -51.6033935546875 255 255 255
-80.53938293457031 -15.012866020202637 -53.57625198364258 255 255 255
-149.2871551513672 -14.587665557861328 -133.33718872070312 255 255 255
-124.752685546875 -25.189720153808594 -150.86607360839844 255 255 255
-55.829769134521484 -42.198455810546875 -155.2058868408203 255 255 255
-72.8995132446289 -18.04861831665039 -126.96415710449219 255 255 255
-121.45398712158203 -16.234527587890625 -142.93148803710938 255 255 255
-115.19393157958984 -23.680171966552734 -144.94955444335938 255 255 255
-122.66535949707031 -13.470562934875488 -126.1830825805664 255 255 255
-66.86947631835938 -23.982624053955078 -113.97310638427734 255 255 255
-55.506248474121094 -16.568483352661133 -140.88265991210938 255 255 255
-180.48348999023438 -18.432430267333984 -114.23741912841797 255 255 255
-154.40817260742188 -35.12016677856445 -180.78402709960938 255 255 255
-169.82757568359375 -12.574362754821777 -134.5856475830078 255 255 255
-187.35403442382812 -6.489037036895752 -99.27025604248047 255 255 255
-152.9454345703125 -9.642579078674316 -118.08831787109375 255 255 255
-153.4678192138672 -12.28951358795166 -126.34590148925781 255 255 255
-160.71755981445312 -18.35517120361328 -162.13267517089844 255 255 255
-172.14877319335938 -5.801662921905518 -47.1767463684082 255 255 255
-259.01898193359375 -27.60123062133789 -107.774658203125 255 255 255
-170.37353515625 -2.311323642730713 -64.79911041259766 255 255 255
-164.83091735839844 -6.514467239379883 -43.669822692871094 255 255 255
-248.186279296875 -33.58949279785156 -115.7752685546875 255 255 255
-232.97239685058594 -4.858924388885498 -91.9423599243164 255 255 255
-175.69949340820312 -6.040939807891846 -56.32945251464844 255 255 255
-188.62351989746094 -5.977870464324951 -50.612693786621094 255 255 255
-162.3150634765625 -0.755585789680481 -41.056026458740234 255 255 255
-58.629974365234375 -8.776453018188477 -53.678375244140625 255 255 255
-69.67396545410156 -7.073444366455078 -73.99687957763672 255 255 255
-156.4645538330078 -20.135324478149414 -135.05072021484375 255 255 255
-164.18173217773438 -10.290842056274414 -123.72296142578125 255 255 255
-170.86831665039062 -5.975891590118408 -45.54889678955078 255 255 255
-173.13600158691406 -1.789198637008667 -34.10417938232422 255 255 255
-168.5326690673828 -8.072381973266602 -43.374473571777344 255 255 255
-184.42140197753906 -12.837678909301758 -43.54365539550781 255 255 255
-195.632568359375 -16.387258529663086 -75.08163452148438 255 255 255
-174.65902709960938 -5.0334343910217285 -55.321075439453125 255 255 255
-186.31857299804688 -8.164000511169434 -75.76042175292969 255 255 255
-184.92845153808594 -7.844425678253174 -74.32901000976562 255 255 255
-162.67808532714844 -3.067840814590454 -55.743499755859375 255 255 255
-184.03903198242188 -13.369686126708984 -97.61377716064453 255 255 255
-169.88287353515625 -6.003798484802246 -49.46409606933594 255 255 255
-155.7427520751953 0.026300404220819473 -36.11865234375 255 255 255
-154.89306640625 -5.433374881744385 -36.68622970581055 255 255 255
-27.04450798034668 -4.395084857940674 -33.6745719909668 255 255 255
-171.35227966308594 -4.850235462188721 -87.48426818847656 255 255 255
-163.07534790039062 -10.186470985412598 -122.9495849609375 255 255 255
-156.2611083984375 -10.978692054748535 -124.80174255371094 255 255 255
-153.18917846679688 -21.745182037353516 -139.20584106445312 255 255 255
-41.672969818115234 -12.206915855407715 -50.76261520385742 255 255 255
-50.654510498046875 -5.380936622619629 -59.936363220214844 255 255 255
-47.518218994140625 -9.171690940856934 -51.85747146606445 255 255 255
-48.85223388671875 -4.821000576019287 -55.177249908447266 255 255 255
18.56623077392578 -3.2197799682617188 -19.30338478088379 255 255 255
13.710794448852539 -8.784878730773926 -18.116775512695312 255 255 255
7.541805744171143 -6.498248100280762 -3.5839879512786865 255 255 255
-194.85757446289062 -15.781516075134277 -74.47587585449219 255 255 255
-183.68435668945312 -3.0267789363861084 -54.417213439941406 255 255 255
-191.0967559814453 -15.721806526184082 -87.07193756103516 255 255 255
-173.6776123046875 -1.878352403640747 -62.985595703125 255 255 255
-171.70791625976562 -2.505505084991455 -66.30731964111328 255 255 255
-168.451904296875 -5.044174671173096 -45.07026290893555 255 255 255
-175.4079132080078 -2.7539937496185303 -43.01292419433594 255 255 255
-182.87278747558594 -3.077011823654175 -57.34208297729492 255 255 255
-161.7555389404297 -3.8894543647766113 -51.58734893798828 255 255 255
-187.455078125 -1.5086321830749512 -64.55953216552734 255 255 255
-99.88694763183594 -22.43489646911621 -143.59786987304688 255 255 255
-149.74288940429688 -23.859935760498047 -141.9297332763672 255 255 255
-170.02420043945312 -4.8751420974731445 -87.42011260986328 255 255 255
-142.12171936035156 -17.582679748535156 -135.8119659423828 255 255 255
-151.59005737304688 -22.782541275024414 -138.89881896972656 255 255 255
-75.60222625732422 -9.728960037231445 10.703712463378906 255 255 255
-80.3319320678711 -9.857891082763672 -94.23934173583984 255 255 255
-93.64338684082031 -7.573301315307617 -54.73263931274414 255 255 255
-177.392333984375 -4.440046787261963 -85.21134948730469 255 255 255
-176.7670135498047 -6.681915283203125 -99.72254943847656 255 255 255
-196.06903076171875 -14.58937931060791 -74.0635757446289 255 255 255
-173.71710205078125 -1.8620948791503906 -63.02045822143555 255 255 255
-206.78460693359375 -5.447257995605469 -74.84310913085938 255 255 255
-115.78803253173828 -23.875722885131836 -143.9581756591797 255 255 255
-134.870361328125 -13.176328659057617 -134.478271484375 255 255 255
-193.93544006347656 -15.016416549682617 -78.25242614746094 255 255 255
-179.89418029785156 -1.4248151779174805 -56.63714599609375 255 255 255
-192.68978881835938 -15.212979316711426 -75.22478485107422 255 255 255
-192.39981079101562 -15.900880813598633 -76.51428985595703 255 255 255
-175.14764404296875 -6.807249069213867 -59.038841247558594 255 255 255
-169.42381286621094 -9.42138671875 -34.807918548583984 255 255 255
-174.8369140625 -11.579254150390625 -31.696043014526367 255 255 255
-9.062312126159668 -8.003119468688965 -22.58850860595703 255 255 255
-160.72581481933594 -4.684086322784424 -40.203277587890625 255 255 255
-161.34104919433594 -9.107979774475098 -56.3861198425293 255 255 255
-154.21316528320312 -7.746201038360596 -48.00950241088867 255 255 255
-160.60739135742188 -9.094698905944824 -57.09076690673828 255 255 255
-157.8685302734375 -0.4901982843875885 -36.72119903564453 255 255 255
-156.33282470703125 -4.645739555358887 -37.20951461791992 255 255 255
-180.21856689453125 -0.8830311298370361 -53.8515739440918 255 255 255
-188.43675231933594 -18.68914222717285 -96.08734130859375 255 255 255
-199.02198791503906 -17.95482063293457 -77.70181274414062 255 255 255
-156.72979736328125 -0.5243470668792725 -43.355140686035156 255 255 255
-182.27215576171875 -8.369118690490723 -75.49853515625 255 255 255
-186.02487182617188 -8.329534530639648 -76.24467468261719 255 255 255
-168.72267150878906 -2.443182945251465 -64.5240478515625 255 255 255
-191.80770874023438 -7.135273456573486 -93.21417999267578 255 255 255
-177.9076385498047 -5.409187316894531 -52.30270004272461 255 255 255
-184.58592224121094 -18.30266761779785 -108.83203887939453 255 255 255
-187.26800537109375 -19.40220832824707 -99.24058532714844 255 255 255
-50.80914306640625 -12.885229110717773 -53.87633514404297 255 255 255
-35.662967681884766 -10.917052268981934 -44.89236068725586 255 255 255
-159.534912109375 -6.215094089508057 -37.2340202331543 255 255 255
-192.3172607421875 -14.85800552368164 -74.465087890625 255 255 255
-169.5631866455078 -2.2941527366638184 -63.62858581542969 255 255 255
-203.06045532226562 -14.866933822631836 -42.027862548828125 255 255 255
-169.8536376953125 -13.398695945739746 -140.68983459472656 255 255 255
-114.78231811523438 -20.760244369506836 -136.64894104003906 255 255 255
-158.53280639648438 -13.474071502685547 -140.8722686767578 255 255 255
-146.73007202148438 -13.921177864074707 -127.87796020507812 255 255 255
-144.3376007080078 -15.69809627532959 -137.51243591308594 255 255 255
-63.47759246826172 -8.964231491088867 -75.20477294921875 255 255 255
-64.13449096679688 -6.860219478607178 -70.50035858154297 255 255 255
-174.3959197998047 -2.0024313926696777 -63.752471923828125 255 255 255
-171.14288330078125 -2.5444178581237793 -67.1261215209961 255 255 255
-174.98648071289062 -27.0041446685791 -155.7275390625 255 255 255
-177.5396270751953 -6.518361568450928 -98.06000518798828 255 255 255
-195.4890899658203 -14.942212104797363 -75.7636947631836 255 255 255
-198.63929748535156 -15.469482421875 -72.33161163330078 255 255 255
-181.36807250976562 -8.53571891784668 -84.6009292602539 255 255 255
-192.9478759765625 -14.645739555358887 -74.0925064086914 255 255 255
-158.8876495361328 -1.060874342918396 -48.686561584472656 255 255 255
-167.73593139648438 -1.1651215553283691 -45.446956634521484 255 255 255
-157.59095764160156 0.046102698892354965 -37.810699462890625 255 255 255
-195.66384887695312 -8.482087135314941 -58.6284294128418 255 255 255
-175.8109588623047 0.9156371355056763 -38.55827713012695 255 255 255
-191.5229949951172 -16.39937973022461 -75.86701965332031 255 255 255
-188.14088439941406 -2.703042507171631 -55.6548957824707 255 255 255
-158.14431762695312 -9.61674976348877 -118.06594848632812 255 255 255
-83.81922912597656 -32.096214294433594 -156.20986938476562 255 255 255
-161.8470916748047 -10.929092407226562 -126.43184661865234 255 255 255
-78.38898468017578 -38.06486511230469 -173.30555725097656 255 255 255
-180.4609832763672 -11.78088092803955 -95.05363464355469 255 255 255
-189.87681579589844 -16.320148468017578 -79.78474426269531 255 255 255
-176.07470703125 -1.7910460233688354 -62.726287841796875 255 255 255
-173.08135986328125 -5.401716709136963 -52.198699951171875 255 255 255
-180.6232452392578 -3.761050224304199 -78.06172180175781 255 255 255
-190.86585998535156 -12.409135818481445 -75.99713897705078 255 255 255
-181.41537475585938 -4.233162879943848 -82.836669921875 255 255 255
-185.37942504882812 -14.685686111450195 -97.43626403808594 255 255 255
-183.50172424316406 -4.397012710571289 -59.403045654296875 255 255 255
-72.37934875488281 -39.498634338378906 -168.08438110351562 255 255 255
-137.18521118164062 -13.01688289642334 -137.87509155273438 255 255 255
-128.81063842773438 -31.453079223632812 -152.3860321044922 255 255 255
-136.1511993408203 -12.946535110473633 -133.21182250976562 255 255 255
-35.26349639892578 -8.57667350769043 -41.00128173828125 255 255 255
-22.563398361206055 -8.61087703704834 -50.92742156982422 255 255 255
-34.480777740478516 -10.264198303222656 -40.84077453613281 255 255 255
-30.28557777404785 -8.73969841003418 -40.2742805480957 255 255 255
-35.33141326904297 -9.737643241882324 -41.91447448730469 255 255 255
-36.682716369628906 -3.074720859527588 -41.14555358886719 255 255 255
-43.446292877197266 -6.112731456756592 -54.29288101196289 255 255 255
-48.48337936401367 -10.704787254333496 -52.79226303100586 255 255 255
-50.927635192871094 -5.410872459411621 -58.28477096557617 255 255 255
-180.84092712402344 -8.7957181930542 -42.29789352416992 255 255 255
-168.70938110351562 -5.7128095626831055 -47.14774703979492 255 255 255
-188.1114044189453 -8.86635684967041 -75.53512573242188 255 255 255
-163.77134704589844 -9.871488571166992 -59.415184020996094 255 255 255
-159.69932556152344 -0.18112222850322723 -41.94103240966797 255 255 255
-89.3559799194336 -24.38309669494629 -136.32765197753906 255 255 255
-174.44895935058594 -1.8088831901550293 -62.827091217041016 255 255 255
-223.19415283203125 -3.692659378051758 -89.07498931884766 255 255 255
-189.27882385253906 -14.925450325012207 -100.6125259399414 255 255 255
-182.43096923828125 -9.899499893188477 -80.98686981201172 255 255 255
-212.63121032714844 -16.913881301879883 -78.65510559082031 255 255 255
-195.36282348632812 -12.700692176818848 -77.82710266113281 255 255 255
-179.83909606933594 -3.479703664779663 -79.08665466308594 255 255 255
-191.53118896484375 -12.514520645141602 -136.56790161132812 255 255 255
-156.28968811035156 -0.21101681888103485 -39.51137161254883 255 255 255
-169.68081665039062 -4.981204509735107 -45.922264099121094 255 255 255
-169.04444885253906 -2.2859418392181396 -61.26327133178711 255 255 255
-151.552490234375 -2.101567029953003 -42.86381912231445 255 255 255
-164.3040313720703 -11.534080505371094 -61.24489974975586 255 255 255
-172.58718872070312 -1.8140764236450195 -34.15815734863281 255 255 255
-166.4881134033203 -0.6981370449066162 -45.1488037109375 255 255 255
-151.91554260253906 -0.022240113466978073 -33.42656326293945 255 255 255
-180.80929565429688 -14.232305526733398 -29.899860382080078 255 255 255
-141.6700897216797 -12.88782024383545 -133.3630828857422 255 255 255
-135.92108154296875 -12.38376522064209 -131.58944702148438 255 255 255
-139.08627319335938 -11.652856826782227 -127.44026947021484 255 255 255
-79.6370620727539 -21.45039939880371 -119.65669250488281 255 255 255
-132.04989624023438 -12.684261322021484 -125.39221954345703 255 255 255
-47.92472839355469 -31.888885498046875 -143.95266723632812 255 255 255
-138.93399047851562 -11.658201217651367 -127.54327392578125 255 255 255
-45.19064712524414 -7.9976067543029785 -31.105010986328125 255 255 255
-57.75590515136719 -9.555599212646484 -59.44432067871094 255 255 255
-191.52374267578125 -17.793832778930664 -88.40573120117188 255 255 255
-170.779541015625 -0.8606984615325928 -52.07937240600586 255 255 255
-195.65187072753906 -15.989304542541504 -74.06102752685547 255 255 255
-164.29067993164062 -0.8482276797294617 -49.433650970458984 255 255 255
-196.66650390625 -14.720001220703125 -78.93639373779297 255 255 255
-113.21302032470703 -13.732460975646973 -131.38648986816406 255 255 255
-66.49276733398438 -34.308868408203125 -120.5061264038086 255 255 255
-120.46973419189453 -17.04543685913086 -135.68736267089844 255 255 255
-124.17574310302734 -13.696438789367676 -132.71429443359375 255 255 255
-86.23133087158203 -27.406984329223633 -135.31748962402344 255 255 255
-94.60674285888672 -22.717893600463867 -142.60964965820312 255 255 255
-167.91879272460938 -4.356904029846191 -61.99566650390625 255 255 255
-33.01506042480469 -8.741547584533691 -36.82919692993164 255 255 255
-29.532730102539062 -2.253763198852539 -33.34843063354492 255 255 255
-20.59576416015625 -3.664870023727417 -36.936981201171875 255 255 255
31.16055679321289 -8.470808029174805 14.339354515075684 255 255 255
-26.556427001953125 -9.038768768310547 -37.219581604003906 255 255 255
-183.349365234375 -16.36224937438965 -98.57171630859375 255 255 255
-189.81320190429688 -12.662553787231445 -129.77059936523438 255 255 255
-189.6399688720703 -13.776283264160156 -80.84366607666016 255 255 255
-187.77685546875 -17.521251678466797 -97.538330078125 255 255 255
-174.7355499267578 -7.945516586303711 -75.78400421142578 255 255 255
-198.02003479003906 -20.903451919555664 -96.81050109863281 255 255 255
-65.58523559570312 -5.922556400299072 -65.3624038696289 255 255 255
-43.84287643432617 -5.737124443054199 -54.75695037841797 255 255 255
-71.73756408691406 -6.070834159851074 -63.70794677734375 255 255 255
-72.48165893554688 -9.802085876464844 -67.15077209472656 255 255 255
-201.78041076660156 -16.248863220214844 -77.18275451660156 255 255 255
360.7626037597656 -180.2733612060547 201.33949279785156 255 255 255
-87.0477523803711 -25.911418914794922 -131.7814483642578 255 255 255
0.9620924592018127 -52.87982940673828 -102.9229965209961 255 255 255
-186.03453063964844 -2.5148940086364746 -73.44879913330078 255 255 255
-170.13778686523438 -3.35223650932312 -74.32225799560547 255 255 255
-169.20144653320312 -12.495647430419922 -85.21397399902344 255 255 255
-189.8976287841797 -9.470540046691895 -124.83258819580078 255 255 255
-169.81101989746094 -2.226835250854492 -64.1511459350586 255 255 255
-168.68821716308594 -2.315364360809326 -64.6154556274414 255 255 255
-175.55615234375 -7.5076470375061035 -103.52691650390625 255 255 255
-193.04066467285156 -13.85402774810791 -77.8621826171875 255 255 255
-188.77099609375 -14.051627159118652 -91.64020538330078 255 255 255
-187.59912109375 -15.174291610717773 -89.0829849243164 255 255 255
-188.38002014160156 -19.394412994384766 -97.29576110839844 255 255 255
-220.09591674804688 -19.13384437561035 -80.79535675048828 255 255 255
-164.163330078125 -6.13862943649292 -43.048858642578125 255 255 255
-154.45542907714844 -0.5909280180931091 -42.48657989501953 255 255 255
-34.145469665527344 -4.124765396118164 -38.317867279052734 255 255 255
-33.8341064453125 -4.043072700500488 -37.883602142333984 255 255 255
-185.5282440185547 -11.654268264770508 -92.64546966552734 255 255 255
-177.2252655029297 -1.4828072786331177 -61.39381790161133 255 255 255
-174.5255889892578 -1.7795408964157104 -62.66701889038086 255 255 255
-169.2049560546875 -2.218449115753174 -64.36759948730469 255 255 255
-175.4693145751953 -1.7113202810287476 -62.14509582519531 255 255 255
-180.81927490234375 -7.94197940826416 -76.46137237548828 255 255 255
-160.24539184570312 -8.676627159118652 -55.28731155395508 255 255 255
-161.25857543945312 -10.075194358825684 -57.538211822509766 255 255 255
-154.08494567871094 -2.1466639041900635 -44.99272918701172 255 255 255
-157.95956420898438 0.08197351545095444 -37.81866455078125 255 255 255
-117.56049346923828 -33.672359466552734 -148.57667541503906 255 255 255
-147.8639678955078 -17.567155838012695 -129.4928436279297 255 255 255
-169.3768310546875 -8.910606384277344 -113.5422592163086 255 255 255
-9.338922500610352 -8.52979564666748 -23.221195220947266 255 255 255
11.210355758666992 -6.326181888580322 -2.217463970184326 255 255 255
17.890243530273438 -3.1078875064849854 6.468572616577148 255 255 255
-32.01805877685547 -9.787201881408691 -39.25209426879883 255 255 255
-37.217018127441406 -4.751588344573975 -51.91324996948242 255 255 255
-34.35348892211914 -3.7509429454803467 -46.016090393066406 255 255 255
-112.58200073242188 -13.666990280151367 -130.5249786376953 255 255 255
-99.18528747558594 -29.956867218017578 -153.27490234375 255 255 255
0.492873877286911 1.7065801620483398 4.41501522064209 255 255 255
-167.58224487304688 -9.82444953918457 -121.63020324707031 255 255 255
-174.0994415283203 -4.888689041137695 -87.77095031738281 255 255 255
-185.52493286132812 -10.807157516479492 -84.24890899658203 255 255 255
-156.42588806152344 -5.320953369140625 -37.0141716003418 255 255 255
-160.14952087402344 -0.1049904003739357 -38.53820037841797 255 255 255
-172.76788330078125 -9.523858070373535 -38.664878845214844 255 255 255
-158.2787628173828 -14.064062118530273 -123.57967376708984 255 255 255
-174.7466278076172 -24.21407127380371 -142.56549072265625 255 255 255
-194.0980682373047 -15.487944602966309 -74.37196350097656 255 255 255
-208.62496948242188 -2.874666213989258 -103.59037780761719 255 255 255
-182.5848388671875 -10.742112159729004 -86.33100128173828 255 255 255
-149.1924591064453 -14.692275047302246 -136.2813262939453 255 255 255
-117.4412841796875 -33.7153434753418 -148.7090606689453 255 255 255
-49.473793029785156 -47.64497375488281 -188.6322021484375 255 255 255
-132.59324645996094 -19.152801513671875 -152.74649047851562 255 255 255
-180.55747985839844 -4.333860874176025 -81.61360931396484 255 255 255
-166.7206573486328 -5.3127264976501465 -44.08470153808594 255 255 255
-162.3197479248047 -3.984708070755005 -52.12822723388672 255 255 255
-192.9090118408203 -14.394685745239258 -78.65828704833984 255 255 255
-188.4228973388672 -16.501310348510742 -100.19454193115234 255 255 255
-186.78994750976562 -39.224056243896484 -197.08554077148438 255 255 255
-177.08555603027344 -6.776037693023682 -100.93685913085938 255 255 255
-178.96405029296875 -5.94398307800293 -95.08525085449219 255 255 255
-187.8821258544922 -14.147278785705566 -79.37183380126953 255 255 255
-46.39120101928711 -3.649735450744629 -46.427337646484375 255 255 255
-44.625606536865234 -3.8024890422821045 -48.71480178833008 255 255 255
-36.90256881713867 -11.278868675231934 -47.616092681884766 255 255 255
-181.2750244140625 -6.840986728668213 -77.88166046142578 255 255 255
-182.39622497558594 -8.467401504516602 -75.82225799560547 255 255 255
-213.21417236328125 -70.91419219970703 -311.2891845703125 255 255 255
-186.76806640625 -6.003683567047119 -94.64208984375 255 255 255
-189.91017150878906 -15.824074745178223 -78.73359680175781 255 255 255
