-25.670658111572266 1.3147953748703003 2.608529567718506 255 255 255
-29.4840030670166 -0.49652019143104553 -9.17599868774414 255 255 255
-35.97711181640625 -3.054004192352295 -2.8376309871673584 255 255 255
-28.74002456665039 -5.073925971984863 -0.2475445568561554 255 255 255
-66.51354217529297 -6.272086143493652 -21.827171325683594 255 255 255
-72.39791107177734 -5.800906658172607 -1.8944474458694458 255 255 255
-57.667274475097656 0.11700786650180817 -5.426663875579834 255 255 255
-78.69652557373047 -6.17422342300415 -6.48372220993042 255 255 255
-351.0318908691406 -8.90413761138916 43.30978775024414 255 255 255
-356.5351867675781 -9.89867877960205 31.22002601623535 255 255 255
-348.15570068359375 -8.177675247192383 40.357845306396484 255 255 255
-372.27618408203125 -29.249242782592773 -124.42323303222656 255 255 255
-348.1863098144531 -8.192097663879395 40.30930709838867 255 255 255
-354.970703125 -4.226256370544434 39.8200569152832 255 255 255
-27.208646774291992 -3.2423081398010254 0.09244776517152786 255 255 255
-45.783138275146484 -2.903388023376465 -8.384163856506348 255 255 255
-26.447786331176758 -0.46359407901763916 -8.679481506347656 255 255 255
-24.19406509399414 1.2718303203582764 -0.5406389832496643 255 255 255
-180.0165557861328 -7.656191825866699 -51.16816329956055 255 255 255
-148.3538055419922 -6.463495254516602 -30.16497039794922 255 255 255
-211.36546325683594 -7.126809120178223 -26.497352600097656 255 255 255
-220.9991455078125 -15.862345695495605 -34.82612609863281 255 255 255
-173.661376953125 -4.624843120574951 -17.741233825683594 255 255 255
-179.4773712158203 -7.374974727630615 -16.062217712402344 255 255 255
-212.33633422851562 -9.424443244934082 51.913177490234375 255 255 255
-226.55557250976562 -16.953702926635742 56.31858444213867 255 255 255
-44.18427658081055 0.7689656615257263 -1.2634859085083008 255 255 255
-51.017860412597656 -5.743167877197266 -7.538046836853027 255 255 255
-46.08485794067383 -1.0292747020721436 -0.11133323609828949 255 255 255
-146.77230834960938 -8.21020221710205 -34.29848098754883 255 255 255
-125.58672332763672 -9.219911575317383 -29.55896759033203 255 255 255
-128.9615936279297 -8.655757904052734 -29.28690528869629 255 255 255
-136.0243377685547 -6.594045162200928 -56.809898376464844 255 255 255
-126.10531616210938 -8.463828086853027 -36.00589370727539 255 255 255
-153.6049346923828 -10.341476440429688 -24.904193878173828 255 255 255
-124.94357299804688 -8.137389183044434 -29.490665435791016 255 255 255
-130.9435577392578 -5.17608118057251 -41.4873046875 255 255 255
-125.79829406738281 -4.228037357330322 -34.964717864990234 255 255 255
-224.46238708496094 -13.586806297302246 55.03399658203125 255 255 255
-230.28094482421875 -3.187551736831665 65.20626068115234 255 255 255
-26.605342864990234 -3.008833885192871 0.6616024971008301 255 255 255
-28.36621856689453 0.3749443292617798 -3.43641996383667 255 255 255
-43.443538665771484 -1.5329288244247437 1.6454263925552368 255 255 255
-66.54686737060547 0.5656107664108276 -13.036301612854004 255 255 255
-72.42842102050781 -1.2986911535263062 -18.146554946899414 255 255 255
-76.95689392089844 -1.5951358079910278 -21.552051544189453 255 255 255
-104.4107437133789 -5.795050144195557 -13.780228614807129 255 255 255
-179.6812286376953 -12.59140396118164 -36.084434509277344 255 255 255
-184.3494110107422 -12.195537567138672 -44.44334030151367 255 255 255
-174.1051025390625 -12.280324935913086 -34.51259231567383 255 255 255
-181.20596313476562 -11.205512046813965 -31.433841705322266 255 255 255
-242.4114227294922 -19.556659698486328 39.106895446777344 255 255 255
-55.424110412597656 0.3633657693862915 -4.566593170166016 255 255 255
-61.76537322998047 -4.5108537673950195 -15.121095657348633 255 255 255
-59.921329498291016 -3.979959487915039 -3.2737014293670654 255 255 255
-150.70318603515625 -8.224658966064453 -28.625642776489258 255 255 255
-153.9108428955078 -4.070030689239502 -29.96415901184082 255 255 255
-180.7843475341797 -7.80124568939209 -10.313426971435547 255 255 255
-179.23715209960938 -8.911368370056152 -4.734685897827148 255 255 255
-183.78167724609375 -8.96155834197998 -9.564908027648926 255 255 255
-178.5711669921875 -9.380878448486328 19.223880767822266 255 255 255
-40.576725006103516 -0.058800891041755676 -11.715995788574219 255 255 255
-41.651092529296875 0.6824414730072021 0.459511935710907 255 255 255
-115.34468078613281 -14.054455757141113 -41.02033996582031 255 255 255
-29.324100494384766 -4.847363471984863 -0.5884376764297485 255 255 255
-39.8768424987793 0.57761150598526 7.192344665527344 255 255 255
-47.46632766723633 -5.853614330291748 0.4200894236564636 255 255 255
-34.160831451416016 -0.2602076530456543 -5.1443023681640625 255 255 255
-27.204198837280273 -3.068362236022949 0.46279093623161316 255 255 255
-214.7291259765625 -6.535702228546143 -63.30733108520508 255 255 255
-174.14471435546875 -11.420062065124512 -27.609392166137695 255 255 255
-151.2270050048828 -6.911917686462402 -29.010128021240234 255 255 255
-208.98533630371094 -18.513526916503906 -67.25686645507812 255 255 255
-30.94366455078125 -5.258299827575684 -0.19855721294879913 255 255 255
-26.555572509765625 -4.394956111907959 -0.3217294216156006 255 255 255
-32.617591857910156 0.9496451616287231 15.873430252075195 255 255 255
-19.011829376220703 -3.5356035232543945 -0.20750471949577332 255 255 255
-22.809926986694336 -3.6175262928009033 -2.102459192276001 255 255 255
-42.91618347167969 -7.29126501083374 0.673738420009613 255 255 255
-22.331024169921875 -5.6350932121276855 0.6766443252563477 255 255 255
-17.26141929626465 1.5140293836593628 1.5992158651351929 255 255 255
-21.761507034301758 -0.4871152341365814 5.957877159118652 255 255 255
-23.958454132080078 -2.869126319885254 9.451263427734375 255 255 255
-71.11553192138672 -5.272628307342529 -11.881077766418457 255 255 255
-24.567100524902344 0.8744562268257141 6.710439205169678 255 255 255
-88.78496551513672 -2.4065895080566406 -25.844982147216797 255 255 255
-90.96414947509766 -4.068439960479736 -29.172624588012695 255 255 255
-99.19902038574219 -7.111142635345459 -13.246853828430176 255 255 255
-161.9646759033203 -17.43632698059082 -4.698084354400635 255 255 255
-116.79957580566406 -8.593424797058105 -44.340396881103516 255 255 255
-155.33932495117188 -9.246983528137207 -10.041326522827148 255 255 255
-96.39973449707031 -2.938816785812378 -28.1201114654541 255 255 255
-30.88815689086914 -4.9543328285217285 2.0228817462921143 255 255 255
-18.04018783569336 0.7578624486923218 8.981053352355957 255 255 255
-24.688072204589844 -5.952903747558594 0.8046069145202637 255 255 255
-40.5855827331543 -2.417896032333374 2.5127739906311035 255 255 255
-36.38751220703125 -0.9580645561218262 9.338918685913086 255 255 255
-140.72105407714844 -7.870734214782715 -38.82756805419922 255 255 255
-29.77458953857422 -0.3068077862262726 6.689342975616455 255 255 255
-29.840694427490234 -3.6154887676239014 0.6139019727706909 255 255 255
-138.43885803222656 -39.86430740356445 -43.396095275878906 255 255 255
-22.500389099121094 1.129431962966919 14.001104354858398 255 255 255
-28.675752639770508 1.1403008699417114 -2.2519195079803467 255 255 255
-28.205278396606445 -3.7432212829589844 3.1204769611358643 255 255 255
-32.548587799072266 -3.5235226154327393 1.497814655303955 255 255 255
-22.23471450805664 -4.6888203620910645 0.41320690512657166 255 255 255
-22.36960220336914 1.4846627712249756 7.154130458831787 255 255 255
-15.92877197265625 -1.5679429769515991 11.603571891784668 255 255 255
-22.038755416870117 -2.250203847885132 -0.6275210976600647 255 255 255
-22.228567123413086 1.1552181243896484 13.850101470947266 255 255 255
-31.655656814575195 -4.988734722137451 13.008667945861816 255 255 255
-22.256128311157227 -4.583061218261719 -0.32659220695495605 255 255 255
-20.732145309448242 -3.9246110916137695 5.63995361328125 255 255 255
-50.49728775024414 -5.289022922515869 5.7517900466918945 255 255 255
-43.71395492553711 -1.8095418214797974 -8.012309074401855 255 255 255
-21.69553565979004 -4.253270149230957 5.432068824768066 255 255 255
-34.34044647216797 -0.5431073307991028 8.484320640563965 255 255 255
-71.6955337524414 -6.088357925415039 -1.6010297536849976 255 255 255
-64.29524230957031 -8.115306854248047 -13.02353572845459 255 255 255
-69.44459533691406 -11.406901359558105 -13.817146301269531 255 255 255
-64.37045288085938 -9.315607070922852 -8.64424991607666 255 255 255
-63.73850631713867 -9.013858795166016 -14.385506629943848 255 255 255
-178.5063934326172 -12.265936851501465 -35.2572135925293 255 255 255
-30.457937240600586 1.3438889980316162 3.3515095710754395 255 255 255
-64.7765121459961 -0.8787111043930054 14.77733325958252 255 255 255
-24.469816207885742 1.4216277599334717 3.482898235321045 255 255 255
-23.99559783935547 1.3396286964416504 5.2383575439453125 255 255 255
-23.137758255004883 0.7091476917266846 -1.3699396848678589 255 255 255
-29.120542526245117 -5.11453914642334 0.7184172868728638 255 255 255
-30.202974319458008 -4.414379119873047 0.5262545347213745 255 255 255
-33.041587829589844 -5.2958502769470215 1.4516186714172363 255 255 255
-48.446842193603516 -0.0699562132358551 4.742630958557129 255 255 255
-26.964778900146484 -5.086669921875 -0.6272856593132019 255 255 255
-29.6732234954834 -4.840479850769043 -2.3962948322296143 255 255 255
-24.010873794555664 1.3939807415008545 2.7650344371795654 255 255 255
-29.95637321472168 -5.506870269775391 1.861325979232788 255 255 255
-99.77088928222656 -9.501626014709473 -23.016611099243164 255 255 255
-9.428934097290039 1.8597829341888428 14.270792961120605 255 255 255
-27.569442749023438 1.2158522605895996 13.09118366241455 255 255 255
-19.42425537109375 -2.0950512886047363 17.98919105529785 255 255 255
-11.563020706176758 -0.2615180015563965 10.274518013000488 255 255 255
-15.21020793914795 -1.9196393489837646 11.961920738220215 255 255 255
-10.98344612121582 -0.5541970729827881 11.008439064025879 255 255 255
-12.214810371398926 0.4849935472011566 11.446476936340332 255 255 255
-14.4672212600708 -0.005868487060070038 12.43190860748291 255 255 255
-70.41974639892578 -0.15352769196033478 -11.930166244506836 255 255 255
-78.58120727539062 -5.726606845855713 -2.4756622314453125 255 255 255
-252.88934326171875 -7.458187103271484 19.790868759155273 255 255 255
-266.1736145019531 -9.490368843078613 -3.320687770843506 255 255 255
-272.0693359375 -15.126688957214355 -18.996234893798828 255 255 255
-238.48114013671875 -2.532184600830078 16.821186065673828 255 255 255
-76.36690521240234 -6.755237102508545 -17.96405792236328 255 255 255
-13.94933795928955 1.9646943807601929 9.390839576721191 255 255 255
-11.642626762390137 -0.0680045336484909 11.702052116394043 255 255 255
-9.88730239868164 -1.2686004638671875 11.103123664855957 255 255 255
-32.806251525878906 -1.325589656829834 9.009371757507324 255 255 255
-46.628265380859375 -10.517651557922363 9.390746116638184 255 255 255
-10.91927719116211 -2.26934814453125 13.90469741821289 255 255 255
-71.82077026367188 -1.1703389883041382 -16.815645217895508 255 255 255
-68.31582641601562 -1.0676897764205933 -17.587974548339844 255 255 255
-83.221923828125 -5.105955600738525 -12.813624382019043 255 255 255
-68.18429565429688 -2.3954453468322754 -19.897991180419922 255 255 255
-112.14453125 -10.391674041748047 -25.869766235351562 255 255 255
-25.27492332458496 1.2210371494293213 6.147191047668457 255 255 255
-50.92387771606445 -2.2587616443634033 -13.719045639038086 255 255 255
-38.08344268798828 -7.68143892288208 -2.834505081176758 255 255 255
-24.171709060668945 0.2801079750061035 -1.9829254150390625 255 255 255
-20.876583099365234 1.369497537612915 0.42128974199295044 255 255 255
-20.480995178222656 0.7363489270210266 12.068193435668945 255 255 255
-35.31663513183594 1.1248962879180908 10.663739204406738 255 255 255
-24.180946350097656 -4.438045501708984 -0.022594142705202103 255 255 255
-46.03708267211914 -0.5449701547622681 13.104028701782227 255 255 255
-18.6857852935791 1.2348498106002808 1.6986579895019531 255 255 255
-34.75590896606445 -1.622532844543457 12.084161758422852 255 255 255
-45.845603942871094 1.5424658060073853 3.256795644760132 255 255 255
-20.728445053100586 1.366191029548645 0.5235851407051086 255 255 255
-11.591419219970703 1.9828808307647705 10.92164421081543 255 255 255
-19.520404815673828 -6.978384494781494 21.607877731323242 255 255 255
-10.299476623535156 -2.0486199855804443 13.187142372131348 255 255 255
-8.34740161895752 -0.10912283509969711 13.706955909729004 255 255 255
-24.116647720336914 1.313873052597046 6.750622272491455 255 255 255
-22.576290130615234 0.828176736831665 8.066082954406738 255 255 255
-17.641643524169922 1.5487489700317383 8.871381759643555 255 255 255
-51.035369873046875 -9.064990997314453 1.8228275775909424 255 255 255
-15.698749542236328 1.9480901956558228 8.853642463684082 255 255 255
-12.792948722839355 -0.05872489884495735 10.973875045776367 255 255 255
-22.158161163330078 0.6936071515083313 7.004668235778809 255 255 255
-17.437986373901367 1.250872254371643 9.210251808166504 255 255 255
-20.776945114135742 1.4412264823913574 6.147294998168945 255 255 255
-19.062856674194336 -2.331200122833252 7.292459487915039 255 255 255
-137.00015258789062 -9.108926773071289 -51.47164535522461 255 255 255
-125.73526000976562 -9.444620132446289 -29.375682830810547 255 255 255
-15.07276725769043 -3.0165488719940186 12.54300308227539 255 255 255
-10.56832504272461 -2.3282501697540283 14.17306137084961 255 255 255
-14.352136611938477 1.4686079025268555 9.87374210357666 255 255 255
-11.072707176208496 -0.3192962408065796 10.793192863464355 255 255 255
-15.162391662597656 -2.3731913566589355 11.278346061706543 255 255 255
-10.056502342224121 -1.2881635427474976 11.166330337524414 255 255 255
-9.763606071472168 -0.11463762819766998 19.499391555786133 255 255 255
-25.261707305908203 -1.1185435056686401 24.740461349487305 255 255 255
-3.8498775959014893 -0.15518005192279816 15.517638206481934 255 255 255
-11.177945137023926 -2.0505075454711914 13.615065574645996 255 255 255
-11.25833511352539 -2.249485731124878 14.278556823730469 255 255 255
-2.7140374183654785 0.21950839459896088 24.53628921508789 255 255 255
-17.07605743408203 -1.3890349864959717 18.134323120117188 255 255 255
-10.941734313964844 -1.802490472793579 13.24841594696045 255 255 255
-4.102416038513184 -1.1639467477798462 12.831466674804688 255 255 255
-10.694437026977539 0.037001993507146835 21.221601486206055 255 255 255
-16.83147621154785 0.09534671157598495 18.632892608642578 255 255 255
-18.174402236938477 1.4715728759765625 18.731491088867188 255 255 255
-9.800515174865723 -2.8085014820098877 13.79928970336914 255 255 255
-2.064008951187134 -1.2189273834228516 15.169099807739258 255 255 255
-7.042055606842041 -1.7260280847549438 16.53152847290039 255 255 255
-6.641518592834473 1.083055019378662 10.468088150024414 255 255 255
-2.1891727447509766 -0.6035947203636169 13.330743789672852 255 255 255
-5.1470866203308105 2.2194550037384033 11.079242706298828 255 255 255
-9.785253524780273 1.9604655504226685 14.704432487487793 255 255 255
-19.85770606994629 -0.7301867604255676 20.6138858795166 255 255 255
-158.86436462402344 -10.940024375915527 -21.665407180786133 255 255 255
-128.09434509277344 -11.514877319335938 -33.74631118774414 255 255 255
-116.64461517333984 -3.6604325771331787 -32.637123107910156 255 255 255
-145.81924438476562 -8.296815872192383 -40.33657455444336 255 255 255
-185.58433532714844 -11.516953468322754 -31.490875244140625 255 255 255
-224.76991271972656 -12.573519706726074 -44.44694900512695 255 255 255
-173.59182739257812 -10.72486400604248 -27.52985191345215 255 255 255
-106.3581314086914 -1.9965578317642212 -21.389184951782227 255 255 255
-188.2245635986328 -6.493715286254883 -57.64055252075195 255 255 255
-31.544143676757812 -0.12761974334716797 9.017404556274414 255 255 255
-13.346293449401855 -1.5003023147583008 18.986310958862305 255 255 255
-11.649141311645508 -1.3005279302597046 10.78632640838623 255 255 255
-21.764633178710938 -1.7052494287490845 10.655753135681152 255 255 255
-41.65482711791992 -3.2833452224731445 12.636059761047363 255 255 255
-17.418603897094727 -0.9588747024536133 9.242294311523438 255 255 255
-22.910520553588867 -2.9692420959472656 4.966947078704834 255 255 255
-43.432865142822266 -3.4368863105773926 -15.806808471679688 255 255 255
-71.09835815429688 -5.214405059814453 -9.058106422424316 255 255 255
-29.88184356689453 -6.961161136627197 2.216902732849121 255 255 255
-53.58169937133789 -0.8872652053833008 -5.906379222869873 255 255 255
-18.984418869018555 1.4349344968795776 0.8483434319496155 255 255 255
-34.385337829589844 -0.17740127444267273 -4.749050617218018 255 255 255
-44.215248107910156 -6.098941326141357 0.6856629252433777 255 255 255
-29.88690185546875 -6.421802043914795 1.9280922412872314 255 255 255
-183.9943084716797 -4.778548240661621 -26.199092864990234 255 255 255
-11.520842552185059 -1.4431533813476562 10.189422607421875 255 255 255
-23.361154556274414 -4.188320636749268 12.270477294921875 255 255 255
-30.820518493652344 -6.023190975189209 12.663216590881348 255 255 255
-8.564453125 -0.16763660311698914 13.914341926574707 255 255 255
-11.68748664855957 -2.0927445888519287 13.58581256866455 255 255 255
-14.83080768585205 -0.8221688866615295 10.646820068359375 255 255 255
-7.947263240814209 -0.6107363104820251 16.387943267822266 255 255 255
-26.026439666748047 -6.740447998046875 23.207956314086914 255 255 255
-19.832944869995117 -1.1713260412216187 10.528039932250977 255 255 255
-15.539332389831543 1.7289098501205444 16.289875030517578 255 255 255
-11.915209770202637 2.277470827102661 16.7709903717041 255 255 255
-4.0956549644470215 0.21152499318122864 13.09929084777832 255 255 255
-4.951220989227295 -0.3279173672199249 15.10666561126709 255 255 255
-17.24126434326172 -0.12306792289018631 19.098682403564453 255 255 255
-8.631300926208496 -2.2448501586914062 15.560274124145508 255 255 255
-8.501253128051758 1.9658068418502808 12.08952808380127 255 255 255
-0.5818912386894226 -1.5923316478729248 15.689701080322266 255 255 255
-8.19198226928711 1.2085447311401367 11.778228759765625 255 255 255
-18.12337303161621 -0.082015261054039 19.728330612182617 255 255 255
-10.548468589782715 -2.327579975128174 13.97948932647705 255 255 255
-40.123111724853516 0.8426711559295654 0.900649905204773 255 255 255
-40.84897232055664 0.0340706966817379 -11.115387916564941 255 255 255
-224.33294677734375 -15.416507720947266 -38.803585052490234 255 255 255
-160.59877014160156 -7.576430320739746 -47.32735061645508 255 255 255
-115.74812316894531 -7.994893550872803 -37.404502868652344 255 255 255
-109.68536376953125 -2.604980230331421 -28.993696212768555 255 255 255
-106.21495056152344 -3.356440544128418 -31.638219833374023 255 255 255
-9.622061729431152 -1.7686396837234497 16.817476272583008 255 255 255
-8.294146537780762 2.0641117095947266 11.777739524841309 255 255 255
-46.354209899902344 -4.157956123352051 -2.100799322128296 255 255 255
-32.21894836425781 -4.209895610809326 -2.0243005752563477 255 255 255
-25.36385154724121 -4.9139227867126465 4.026962757110596 255 255 255
-24.6050968170166 -1.137482762336731 13.310181617736816 255 255 255
-25.818557739257812 -3.9879961013793945 0.26275765895843506 255 255 255
-37.3539924621582 -2.6377971172332764 7.542222499847412 255 255 255
-23.28258514404297 -0.10147993266582489 -1.4946846961975098 255 255 255
-19.884925842285156 1.176701545715332 -0.16734008491039276 255 255 255
-24.017501831054688 1.322019100189209 6.7841291427612305 255 255 255
-106.70333862304688 -3.027099609375 -20.057527542114258 255 255 255
-106.9161148071289 -3.3357656002044678 -30.970134735107422 255 255 255
-119.32530212402344 -7.379443645477295 -20.112136840820312 255 255 255
-127.59266662597656 -8.785125732421875 -45.1160774230957 255 255 255
-333.3943786621094 -4.913730621337891 16.7370662689209 255 255 255
-360.82525634765625 -14.6323823928833 16.55111312866211 255 255 255
-343.8974609375 -9.030206680297852 -5.104907989501953 255 255 255
-7.593491554260254 1.6140028238296509 12.980534553527832 255 255 255
-11.345787048339844 -2.2383055686950684 14.202545166015625 255 255 255
-3.201740026473999 2.239349603652954 13.246498107910156 255 255 255
-8.246264457702637 2.139724016189575 18.494216918945312 255 255 255
-0.4422212541103363 0.8241146802902222 18.226457595825195 255 255 255
-1.6594418287277222 -0.8423233032226562 14.671382904052734 255 255 255
-3.190497398376465 2.2331864833831787 13.220574378967285 255 255 255
-16.04558563232422 -4.281876087188721 19.785728454589844 255 255 255
-2.7169535160064697 0.9299635291099548 29.324085235595703 255 255 255
-10.413225173950195 -2.931852340698242 14.188406944274902 255 255 255
-13.632763862609863 -0.14834924042224884 17.040849685668945 255 255 255
-5.482949256896973 -0.627025306224823 22.46639060974121 255 255 255
-19.11717414855957 -2.2412731647491455 10.099842071533203 255 255 255
-11.827300071716309 -1.799494743347168 12.54319953918457 255 255 255
-10.047983169555664 1.8123466968536377 11.224132537841797 255 255 255
-16.334299087524414 1.414504885673523 19.760269165039062 255 255 255
-11.51001262664795 0.43607422709465027 11.074959754943848 255 255 255
-53.26946258544922 0.5200884938240051 -10.881653785705566 255 255 255
-65.3748550415039 -8.281736373901367 -10.659594535827637 255 255 255
-272.29779052734375 -10.155349731445312 11.543529510498047 255 255 255
-49.9575309753418 -2.57236909866333 -1.293339729309082 255 255 255
-66.05057525634766 -1.2551003694534302 -6.857717514038086 255 255 255
-75.48448181152344 -5.692396640777588 -4.351929187774658 255 255 255
-51.23609924316406 0.47968411445617676 -4.976978302001953 255 255 255
-60.34001159667969 0.2809467017650604 -3.8918802738189697 255 255 255
-46.176143646240234 -2.9631576538085938 -2.3952629566192627 255 255 255
-47.78444290161133 -3.383763313293457 -2.058291435241699 255 255 255
-51.218788146972656 -4.752535343170166 -6.9649786949157715 255 255 255
-222.2506103515625 -13.495412826538086 10.507014274597168 255 255 255
-183.08706665039062 -6.022395133972168 -23.752655029296875 255 255 255
-157.4689483642578 -3.9836411476135254 -25.669408798217773 255 255 255
-59.649471282958984 -4.688874244689941 -16.1187686920166 255 255 255
-66.8797836303711 -1.5263532400131226 -21.61664581298828 255 255 255
-151.32476806640625 -4.476667404174805 -38.119354248046875 255 255 255
-245.5375213623047 -11.268324851989746 -94.49705505371094 255 255 255
-224.20631408691406 -18.52080535888672 -61.57938766479492 255 255 255
-174.25009155273438 -11.47905158996582 -31.462121963500977 255 255 255
-9.82734203338623 -0.33881598711013794 10.16539478302002 255 255 255
-13.087944984436035 -0.9680557250976562 12.913430213928223 255 255 255
-16.672330856323242 -1.0483145713806152 11.42002010345459 255 255 255
-8.374025344848633 2.164757251739502 18.758146286010742 255 255 255
-6.604902744293213 -0.30791744589805603 16.245500564575195 255 255 255
-8.877960205078125 -0.9677308797836304 14.204211235046387 255 255 255
-11.402266502380371 -1.6786317825317383 10.275989532470703 255 255 255
-17.872013092041016 -3.1661674976348877 11.643950462341309 255 255 255
-14.34068489074707 -0.31423458456993103 13.22641372680664 255 255 255
-26.415302276611328 -1.3050273656845093 13.902108192443848 255 255 255
-34.666748046875 -3.6047933101654053 3.1495413780212402 255 255 255
-23.225427627563477 1.2143510580062866 6.817309379577637 255 255 255
-23.437742233276367 0.6642738580703735 -2.157081127166748 255 255 255
-23.532575607299805 -6.033242702484131 0.6889281272888184 255 255 255
-20.144214630126953 1.3835995197296143 7.822220802307129 255 255 255
-29.835790634155273 0.5533592104911804 4.467207908630371 255 255 255
-77.0980453491211 -6.942750453948975 -18.72901725769043 255 255 255
-75.48426055908203 -7.4480109214782715 -6.250897407531738 255 255 255
-175.29270935058594 -11.296422004699707 -31.11669158935547 255 255 255
-180.91055297851562 -4.284996509552002 -7.182498931884766 255 255 255
-188.64524841308594 -15.272050857543945 -42.85938262939453 255 255 255
-205.27748107910156 -16.198654174804688 -61.43905258178711 255 255 255
-122.54119110107422 -10.405142784118652 -32.786224365234375 255 255 255
-138.69520568847656 -9.26384449005127 -38.78408432006836 255 255 255
-33.707481384277344 -0.5454311966896057 3.460045099258423 255 255 255
-38.46089172363281 -3.2318918704986572 -14.633642196655273 255 255 255
-49.799922943115234 -1.5307859182357788 -15.844350814819336 255 255 255
-38.869998931884766 0.3568735718727112 -6.664964199066162 255 255 255
-28.352272033691406 1.6418514251708984 4.414284706115723 255 255 255
-22.624526977539062 -5.84086275100708 -0.8670641183853149 255 255 255
-32.70270919799805 -1.1165478229522705 16.062252044677734 255 255 255
-30.13161849975586 -0.7578911185264587 13.84231948852539 255 255 255
-34.03453826904297 -2.982794761657715 6.519758224487305 255 255 255
-16.83423614501953 -3.2990636825561523 5.239439964294434 255 255 255
-10.776228904724121 0.5857097506523132 10.783734321594238 255 255 255
-12.823962211608887 -2.0445988178253174 11.437790870666504 255 255 255
-19.398860931396484 -1.0256644487380981 15.990857124328613 255 255 255
-7.849676609039307 0.13214561343193054 16.41233253479004 255 255 255
-19.741744995117188 1.6273857355117798 14.09469985961914 255 255 255
-11.422901153564453 -1.9957892894744873 10.77539348602295 255 255 255
-12.614709854125977 -3.6633188724517822 12.5032320022583 255 255 255
-11.332365989685059 0.009514536708593369 15.481630325317383 255 255 255
-4.970491886138916 0.07577480375766754 15.524911880493164 255 255 255
-4.387409210205078 0.9984732270240784 12.787317276000977 255 255 255
-12.116193771362305 -1.894362449645996 12.48302173614502 255 255 255
-52.32109832763672 -0.17979837954044342 37.07941818237305 255 255 255
-19.757043838500977 1.7892324924468994 16.417804718017578 255 255 255
-12.25185775756836 -2.6637167930603027 13.077194213867188 255 255 255
-16.62482261657715 -3.17549729347229 15.330110549926758 255 255 255
-16.611783981323242 1.3985285758972168 17.615367889404297 255 255 255
-3.891709566116333 -0.2491602897644043 17.049551010131836 255 255 255
-10.819716453552246 -1.9536131620407104 13.479191780090332 255 255 255
-3.1324477195739746 1.025595784187317 16.10572052001953 255 255 255
-1.1857266426086426 -2.375749111175537 17.30061149597168 255 255 255
-4.6581034660339355 2.0075619220733643 12.622841835021973 255 255 255
-17.561843872070312 -2.0350711345672607 18.489774703979492 255 255 255
-30.1553955078125 -0.5714439153671265 -8.655391693115234 255 255 255
-45.206993103027344 -6.758510589599609 -6.420530319213867 255 255 255
-38.219966888427734 -2.387263536453247 -6.535522937774658 255 255 255
-199.7165069580078 -8.05817985534668 9.205948829650879 255 255 255
-200.7878875732422 -9.380193710327148 8.286137580871582 255 255 255
-50.03045654296875 -6.2312774658203125 -7.224808692932129 255 255 255
-68.44490051269531 -5.626063346862793 -7.764523983001709 255 255 255
-183.9155731201172 -11.657305717468262 21.421180725097656 255 255 255
-177.540283203125 -3.6542301177978516 -7.809611797332764 255 255 255
-87.3721694946289 -5.140601634979248 -6.089533805847168 255 255 255
-47.034912109375 0.031871676445007324 -1.1201103925704956 255 255 255
-58.959476470947266 -8.863543510437012 -7.276462078094482 255 255 255
-62.67584228515625 -0.7246260046958923 -17.429229736328125 255 255 255
-15.890944480895996 -3.721796989440918 10.70639419555664 255 255 255
-13.476243019104004 -1.2508845329284668 10.112408638000488 255 255 255
-29.505176544189453 -2.2077176570892334 12.15894603729248 255 255 255
-39.81060028076172 -3.7401106357574463 12.282208442687988 255 255 255
-12.512707710266113 -3.1918675899505615 13.053813934326172 255 255 255
-10.05491828918457 1.8579870462417603 14.692612648010254 255 255 255
-9.932961463928223 -1.5442934036254883 15.077973365783691 255 255 255
-19.325857162475586 0.13224638998508453 12.107084274291992 255 255 255
-13.183189392089844 -0.227584570646286 11.055055618286133 255 255 255
-27.542896270751953 -5.416791915893555 0.35787755250930786 255 255 255
-20.973926544189453 1.1579519510269165 -0.8598716855049133 255 255 255
-50.9577751159668 -5.507736682891846 -9.418879508972168 255 255 255
-32.3499870300293 -0.41353172063827515 8.343076705932617 255 255 255
-286.2699279785156 -16.161176681518555 -6.420535087585449 255 255 255
-312.92840576171875 -23.008956909179688 32.397483825683594 255 255 255
-253.20399475097656 -6.759418964385986 -59.66060256958008 255 255 255
-227.08096313476562 -9.643802642822266 -81.04533386230469 255 255 255
-173.29940795898438 -11.462736129760742 -28.951017379760742 255 255 255
-257.6941833496094 -21.276029586791992 -80.32266998291016 255 255 255
-114.6102523803711 -3.93731427192688 -16.277603149414062 255 255 255
-37.726226806640625 0.9420559406280518 1.8076393604278564 255 255 255
-39.281803131103516 0.7209565043449402 -3.6114139556884766 255 255 255
-60.07169723510742 -9.349087715148926 -7.408518314361572 255 255 255
-35.104148864746094 0.9945003986358643 13.314332962036133 255 255 255
-207.77420043945312 -6.408021926879883 22.10640525817871 255 255 255
-202.27024841308594 -1.7642924785614014 16.400814056396484 255 255 255
-44.312705993652344 0.08539734035730362 -12.568612098693848 255 255 255
-56.424530029296875 -5.032382011413574 -6.165733814239502 255 255 255
-122.85693359375 -9.089227676391602 -24.861982345581055 255 255 255
-176.70301818847656 -7.929977893829346 -31.869258880615234 255 255 255
-179.33865356445312 -7.866230487823486 -31.873197555541992 255 255 255
-176.31790161132812 -12.182194709777832 -30.21660041809082 255 255 255
-405.62530517578125 -26.13124656677246 -89.26697540283203 255 255 255
-351.4479675292969 -19.510089874267578 -83.63174438476562 255 255 255
-198.81967163085938 -14.158114433288574 -54.32944869995117 255 255 255
-280.7221984863281 -7.119969367980957 15.045352935791016 255 255 255
-277.4625549316406 -3.4648075103759766 12.606103897094727 255 255 255
-66.23554992675781 -9.256209373474121 -22.274736404418945 255 255 255
-69.9042739868164 -6.828380584716797 -25.717378616333008 255 255 255
-67.12004089355469 -8.251777648925781 -24.797380447387695 255 255 255
-77.75359344482422 -7.194146633148193 -13.490340232849121 255 255 255
-94.01966857910156 -5.492437362670898 -41.507694244384766 255 255 255
-9.299626350402832 -1.0200275182724 14.515131950378418 255 255 255
-9.204659461975098 -1.337268590927124 14.283319473266602 255 255 255
-15.6814546585083 -4.130641460418701 19.403730392456055 255 255 255
-11.853436470031738 -3.231905221939087 13.736615180969238 255 255 255
-16.687740325927734 1.3022890090942383 16.89483642578125 255 255 255
-11.25208568572998 -3.015535593032837 13.32677173614502 255 255 255
-6.209706783294678 0.045103661715984344 21.411821365356445 255 255 255
-2.4662222862243652 0.2094234675168991 21.275766372680664 255 255 255
-22.448549270629883 -4.279743194580078 0.1384950876235962 255 255 255
-21.1041259765625 -2.9827821254730225 5.618497848510742 255 255 255
-46.266639709472656 0.716398298740387 0.5176061391830444 255 255 255
-26.764551162719727 -3.0689399242401123 0.45626935362815857 255 255 255
-76.15242004394531 -6.255082607269287 -18.76129913330078 255 255 255
-79.96826934814453 -5.197304725646973 -32.22800827026367 255 255 255
-84.48777770996094 -6.964919090270996 -34.94364547729492 255 255 255
-72.47359466552734 -5.451200008392334 -6.189507961273193 255 255 255
-70.29556274414062 -2.5876970291137695 -28.136201858520508 255 255 255
-338.4844665527344 -5.086490631103516 72.78267669677734 255 255 255
-28.100561141967773 1.2237262725830078 -2.1498026847839355 255 255 255
-24.576692581176758 -5.293128490447998 0.9455414414405823 255 255 255
-31.99387550354004 -3.395695209503174 13.827963829040527 255 255 255
-23.335168838500977 -0.6188231706619263 5.687346458435059 255 255 255
-26.90876579284668 -3.165330171585083 0.18341442942619324 255 255 255
-21.64614486694336 -4.782639026641846 1.4441109895706177 255 255 255
-17.480955123901367 1.5185937881469727 1.4282073974609375 255 255 255
-34.05554962158203 0.8700004816055298 8.463692665100098 255 255 255
-24.49630355834961 -3.6933536529541016 -1.8942101001739502 255 255 255
-38.686466217041016 0.2848489284515381 8.571221351623535 255 255 255
-23.095735549926758 0.6483089923858643 -1.3947362899780273 255 255 255
-19.973373413085938 1.7974728345870972 -0.5352499485015869 255 255 255
-24.786968231201172 -0.3390497863292694 12.457743644714355 255 255 255
-52.53126525878906 -5.050172328948975 7.434083461761475 255 255 255
-63.697181701660156 -0.08213239163160324 -2.245820999145508 255 255 255
-67.45728302001953 -2.466881275177002 -37.57292175292969 255 255 255
-385.6622314453125 -8.467897415161133 -8.46479606628418 255 255 255
-272.2343444824219 -5.948102951049805 11.108810424804688 255 255 255
-271.5799255371094 -8.501890182495117 9.979304313659668 255 255 255
-274.73638916015625 -2.792832612991333 22.3697452545166 255 255 255
-73.49693298339844 -2.345968008041382 -19.899381637573242 255 255 255
-67.20781707763672 -10.06590461730957 -16.363121032714844 255 255 255
-72.98120880126953 -4.685140609741211 -9.666057586669922 255 255 255
-59.01268768310547 0.42921629548072815 -3.3193554878234863 255 255 255
-64.49503326416016 -6.776447772979736 -13.04507827758789 255 255 255
-55.55976867675781 0.4382145404815674 -4.486394882202148 255 255 255
-59.76850509643555 0.38177764415740967 -2.8338522911071777 255 255 255
-20.669221878051758 1.3497471809387207 0.497377872467041 255 255 255
-24.157913208007812 -4.354848384857178 -0.01520107313990593 255 255 255
-17.007680892944336 0.6020222306251526 21.81201934814453 255 255 255
-115.07172393798828 -8.145601272583008 -37.16543960571289 255 255 255
-124.5047378540039 -10.185406684875488 -33.40105056762695 255 255 255
-114.46556854248047 -2.474914789199829 -27.291088104248047 255 255 255
-112.24771881103516 -3.4941673278808594 -21.763275146484375 255 255 255
-197.15786743164062 -6.8973894119262695 -51.308189392089844 255 255 255
-328.4775085449219 -1.2676109075546265 64.33613586425781 255 255 255
-12.357677459716797 -1.872532606124878 10.706552505493164 255 255 255
-10.096567153930664 -1.2884937524795532 11.16286563873291 255 255 255
-12.399643898010254 -1.8130570650100708 11.774933815002441 255 255 255
-15.52882194519043 -1.6644361019134521 9.52616024017334 255 255 255
-19.755578994750977 -2.4351930618286133 11.539228439331055 255 255 255
-45.163551330566406 -4.715583324432373 -1.968115210533142 255 255 255
-45.021854400634766 0.7884194850921631 -2.02816104888916 255 255 255
-9.769747734069824 -2.4374680519104004 12.562515258789062 255 255 255
-5.853919982910156 -0.46370047330856323 15.176918983459473 255 255 255
-117.97418975830078 -3.7272891998291016 -35.09159469604492 255 255 255
-199.51878356933594 -15.402753829956055 -83.16709899902344 255 255 255
-123.45746612548828 -9.404535293579102 -44.1147346496582 255 255 255
-324.9559326171875 -23.96232795715332 37.12452697753906 255 255 255
-64.69036865234375 -7.387876033782959 -22.96045684814453 255 255 255
-65.23456573486328 -5.768689155578613 -26.457048416137695 255 255 255
-11.19225025177002 -0.9041590690612793 15.033738136291504 255 255 255
-13.785249710083008 -2.9691059589385986 11.367155075073242 255 255 255
-11.775010108947754 -0.8093495965003967 11.046998023986816 255 255 255
-13.366347312927246 0.0814618170261383 10.722765922546387 255 255 255
-8.314291000366211 0.212556853890419 12.780393600463867 255 255 255
-13.196813583374023 -0.31428542733192444 10.654629707336426 255 255 255
-41.50014877319336 -7.367929458618164 20.93616485595703 255 255 255
-9.960962295532227 -1.3007211685180664 11.158188819885254 255 255 255
-12.681353569030762 1.3741304874420166 11.994714736938477 255 255 255
-20.58679962158203 -1.931994915008545 13.556808471679688 255 255 255
-12.787846565246582 -0.6514182686805725 10.90489673614502 255 255 255
-13.803823471069336 -1.5869718790054321 19.510005950927734 255 255 255
-8.8512544631958 -0.869836688041687 16.53875732421875 255 255 255
-12.73359203338623 0.12571467459201813 10.596864700317383 255 255 255
-15.803160667419434 -0.2013663798570633 14.414536476135254 255 255 255
-62.134315490722656 -6.810760498046875 -10.909080505371094 255 255 255
-342.0847473144531 -9.896561622619629 30.896854400634766 255 255 255
-351.4344177246094 -8.8533296585083 40.57733154296875 255 255 255
-67.16822814941406 -0.29395243525505066 -10.548532485961914 255 255 255
-75.8409423828125 -5.823550701141357 -21.470539093017578 255 255 255
-64.5926284790039 -4.969964027404785 -7.45165491104126 255 255 255
-68.31932830810547 -5.775147438049316 -34.735782623291016 255 255 255
-70.07252502441406 -6.721179008483887 -23.570680618286133 255 255 255
-60.4433479309082 -5.749310493469238 -6.787402153015137 255 255 255
-72.40220642089844 -5.495331764221191 -1.9565242528915405 255 255 255
-70.02901458740234 -3.105635404586792 -36.53571701049805 255 255 255
-49.3048095703125 0.015619558282196522 -10.188260078430176 255 255 255
-83.51271057128906 -6.102431297302246 -20.56138038635254 255 255 255
-67.35231018066406 -4.898104667663574 -7.645255088806152 255 255 255
-75.8142318725586 -2.346468925476074 -17.081289291381836 255 255 255
-102.96443939208984 -2.839378833770752 -28.147655487060547 255 255 255
-11.384967803955078 -2.76910400390625 13.635130882263184 255 255 255
-8.568277359008789 -1.8787617683410645 10.778635025024414 255 255 255
-3.122847080230713 -0.619394063949585 13.821860313415527 255 255 255
-1.8743152618408203 0.18138942122459412 18.271854400634766 255 255 255
-5.962965965270996 1.6129261255264282 12.27472972869873 255 255 255
-8.749137878417969 -0.5313721299171448 17.681900024414062 255 255 255
-69.27362060546875 -4.626577377319336 -40.120174407958984 255 255 255
-71.14610290527344 -5.945556163787842 -2.1368017196655273 255 255 255
-52.133750915527344 0.8211745023727417 -4.039277076721191 255 255 255
-76.64060974121094 -9.152947425842285 -16.385461807250977 255 255 255
-171.70005798339844 -9.921770095825195 -22.374372482299805 255 255 255
-80.27415466308594 -10.529844284057617 -17.87466049194336 255 255 255
-204.8304443359375 -11.40418815612793 -56.36707305908203 255 255 255
-63.010520935058594 -0.8008050322532654 -5.798091888427734 255 255 255
-87.19949340820312 -6.036454200744629 -20.815473556518555 255 255 255
-64.85514831542969 -0.03063722886145115 -8.013190269470215 255 255 255
-69.90846252441406 -7.655703067779541 -11.383621215820312 255 255 255
-126.4231185913086 -10.265286445617676 -33.598060607910156 255 255 255
-128.96484375 -7.38228178024292 -27.84518814086914 255 255 255
-125.00016784667969 -8.956750869750977 -29.329145431518555 255 255 255
-124.56462860107422 -11.408472061157227 -30.89314079284668 255 255 255
-48.308284759521484 0.7705531120300293 -2.080453634262085 255 255 255
-62.20962142944336 -0.4239640235900879 -6.002536296844482 255 255 255
-50.51527404785156 -2.5377635955810547 -2.2368218898773193 255 255 255
-32.239017486572266 -0.956009030342102 20.948862075805664 255 255 255
-31.364065170288086 0.9078087210655212 15.490015983581543 255 255 255
-20.73308753967285 -4.146754264831543 5.57225227355957 255 255 255
-31.063735961914062 -3.0213329792022705 3.594237804412842 255 255 255
-18.089645385742188 -2.5730104446411133 11.882905006408691 255 255 255
-76.81893157958984 -1.1967287063598633 -10.549034118652344 255 255 255
-33.20330047607422 0.9393319487571716 12.95174503326416 255 255 255
-34.61143493652344 -8.81256103515625 2.826112747192383 255 255 255
-63.14380645751953 -0.8294868469238281 -5.816167831420898 255 255 255
-76.62999725341797 -6.71530818939209 -18.54511833190918 255 255 255
-124.22773742675781 -3.96975040435791 -34.26691818237305 255 255 255
-106.0572509765625 -2.3168370723724365 -27.710948944091797 255 255 255
-121.67757415771484 -9.341448783874512 -33.93844985961914 255 255 255
-110.86100006103516 -3.0625267028808594 -32.635841369628906 255 255 255
-138.79177856445312 -8.497368812561035 -37.63042068481445 255 255 255
-139.77157592773438 -3.8397135734558105 -30.788175582885742 255 255 255
-138.17576599121094 -3.9353299140930176 -32.447635650634766 255 255 255
-173.65357971191406 -11.400314331054688 -34.8128776550293 255 255 255
-2.162123918533325 -1.5401854515075684 16.54998779296875 255 255 255
-3.097330093383789 -0.5916932225227356 13.497403144836426 255 255 255
-18.32268524169922 -1.3746726512908936 17.6484432220459 255 255 255
-17.301332473754883 -2.012964963912964 18.942829132080078 255 255 255
-9.859622955322266 1.839019775390625 19.776350021362305 255 255 255
-11.837777137756348 -3.2024781703948975 14.031354904174805 255 255 255
-4.160168647766113 -0.9484805464744568 15.578245162963867 255 255 255
-4.778920650482178 -0.42390382289886475 15.338936805725098 255 255 255
-11.60920524597168 -1.8131715059280396 12.927948951721191 255 255 255
-12.900439262390137 -4.041870594024658 14.590559959411621 255 255 255
-4.427048683166504 1.9111007452011108 16.19736099243164 255 255 255
-9.21316909790039 -1.7507431507110596 11.422955513000488 255 255 255
-5.30531644821167 -1.9830377101898193 22.557884216308594 255 255 255
-17.18854522705078 -1.5100650787353516 18.49845314025879 255 255 255
-18.432600021362305 -1.3586875200271606 17.77792739868164 255 255 255
-16.330881118774414 -2.1990067958831787 15.408793449401855 255 255 255
-68.30884552001953 -9.619117736816406 -26.006250381469727 255 255 255
-61.308570861816406 -0.7106797099113464 -15.513314247131348 255 255 255
-74.8104248046875 -9.926854133605957 -2.125854253768921 255 255 255
-63.54591369628906 -5.207281589508057 -21.94801902770996 255 255 255
-115.44694519042969 -2.6265108585357666 -26.02031135559082 255 255 255
-114.71610260009766 -3.6165995597839355 -34.170753479003906 255 255 255
-115.97173309326172 -8.89008617401123 -38.96660232543945 255 255 255
-139.4041290283203 -9.06950569152832 -38.21582794189453 255 255 255
-113.92485046386719 -2.8460631370544434 -30.40976333618164 255 255 255
-159.61146545410156 -5.282504081726074 -30.663593292236328 255 255 255
-182.0697479248047 -11.00753116607666 -29.23552703857422 255 255 255
-196.22750854492188 -13.869775772094727 -29.81524085998535 255 255 255
-179.49374389648438 -14.643438339233398 -37.350341796875 255 255 255
-171.73851013183594 -6.350160598754883 -21.598291397094727 255 255 255
-179.89056396484375 -11.2430419921875 -29.61271858215332 255 255 255
-62.617252349853516 0.18438376486301422 -6.703164100646973 255 255 255
-39.97794723510742 0.5918575525283813 -6.361952304840088 255 255 255
-29.36058235168457 0.368677020072937 5.313181400299072 255 255 255
-37.86729049682617 -3.8543832302093506 1.8141636848449707 255 255 255
-39.397945404052734 0.6214149594306946 -5.997947692871094 255 255 255
-38.00723648071289 0.7989160418510437 -1.286574125289917 255 255 255
-275.1581726074219 -8.980712890625 11.317503929138184 255 255 255
-290.0752258300781 -12.7979736328125 6.253559112548828 255 255 255
-276.9850158691406 -8.45405101776123 10.45698356628418 255 255 255
-273.31207275390625 -9.41578483581543 5.248124599456787 255 255 255
-14.476842880249023 -3.905911922454834 14.960556030273438 255 255 255
-6.573058605194092 1.241018533706665 13.05457592010498 255 255 255
-7.772858619689941 -0.6050939559936523 13.97336483001709 255 255 255
-50.62821960449219 -0.11567825824022293 -10.34895133972168 255 255 255
-62.110145568847656 -6.088656425476074 -6.4805121421813965 255 255 255
-61.242103576660156 -6.313597202301025 -3.6685192584991455 255 255 255
-67.39186096191406 -6.169037342071533 -12.6274995803833 255 255 255
-77.10227966308594 -5.711308479309082 -4.241938591003418 255 255 255
-58.67951965332031 -5.636758327484131 -7.278022766113281 255 255 255
-60.637264251708984 0.2816388010978699 -3.6964993476867676 255 255 255
-52.38114547729492 0.6270622611045837 -3.3366916179656982 255 255 255
-11.604580879211426 -2.935314655303955 13.119142532348633 255 255 255
-10.864701271057129 -1.8431843519210815 13.09640121459961 255 255 255
-20.53097915649414 -2.2481443881988525 7.509181976318359 255 255 255
-19.774559020996094 -2.7713077068328857 6.855461597442627 255 255 255
-20.469207763671875 1.5357810258865356 7.785127639770508 255 255 255
-31.091699600219727 -0.5362310409545898 8.329968452453613 255 255 255
-14.034322738647461 1.2033342123031616 9.796274185180664 255 255 255
-17.82387924194336 -1.6021728515625 8.978096961975098 255 255 255
-27.60993194580078 -2.016514778137207 9.59146785736084 255 255 255
-17.542924880981445 -2.6499998569488525 10.787755966186523 255 255 255
-228.36717224121094 -2.138944625854492 20.949522018432617 255 255 255
-235.95867919921875 -7.825572490692139 19.076841354370117 255 255 255
-26.0194091796875 -2.542994737625122 0.03590201959013939 255 255 255
-21.622699737548828 1.3471773862838745 0.27043625712394714 255 255 255
-24.414295196533203 0.04589313641190529 -2.5465192794799805 255 255 255
-40.804813385009766 -4.84648323059082 -3.717256546020508 255 255 255
-36.23827362060547 -2.8685290813446045 10.423949241638184 255 255 255
-290.7856140136719 -3.347785472869873 15.8739652633667 255 255 255
-18.826900482177734 1.3261059522628784 8.702397346496582 255 255 255
-31.52140235900879 -2.3193986415863037 5.488400936126709 255 255 255
-12.862332344055176 -1.5782424211502075 10.399801254272461 255 255 255
-33.47113037109375 -0.7545860409736633 4.753138542175293 255 255 255
-15.469452857971191 1.1179256439208984 18.60243034362793 255 255 255
-115.2566909790039 -8.410067558288574 -1.2052034139633179 255 255 255
-12.964205741882324 1.3731874227523804 10.54201602935791 255 255 255
-17.431468963623047 -0.17754027247428894 19.283845901489258 255 255 255
-28.086673736572266 -3.3586947917938232 3.444683790206909 255 255 255
-17.630996704101562 0.4897783100605011 20.80301856994629 255 255 255
-17.819726943969727 -2.0930933952331543 8.505404472351074 255 255 255
-14.331559181213379 -1.4778703451156616 10.949342727661133 255 255 255
-25.285436630249023 0.45146122574806213 5.377525806427002 255 255 255
-11.26032543182373 -3.6186208724975586 14.52996826171875 255 255 255
-8.50327205657959 2.249394655227661 16.380578994750977 255 255 255
-6.367249488830566 -0.5767046213150024 21.25748634338379 255 255 255
-9.160141944885254 1.3404473066329956 13.95165729522705 255 255 255
-5.019955158233643 -0.1867590695619583 15.061437606811523 255 255 255
-16.477222442626953 -0.6201703548431396 14.266817092895508 255 255 255
-10.678117752075195 1.2851078510284424 20.962007522583008 255 255 255
-12.258864402770996 -1.8974021673202515 11.90246295928955 255 255 255
-12.52595043182373 -3.489223003387451 13.06059741973877 255 255 255
-49.04096984863281 -3.7047157287597656 -2.249807834625244 255 255 255
-64.61528015136719 -1.029526710510254 -14.095040321350098 255 255 255
-62.85481643676758 -0.7848581671714783 -5.844412326812744 255 255 255
-43.96086120605469 0.5488477945327759 -7.483827590942383 255 255 255
-214.9951934814453 -2.051581621170044 40.30820083618164 255 255 255
-344.8316955566406 -10.210068702697754 19.886919021606445 255 255 255
-347.5262451171875 -8.445387840270996 4.990583896636963 255 255 255
-358.94183349609375 -14.528614044189453 6.57167387008667 255 255 255
-126.27657318115234 -3.4213898181915283 -30.722007751464844 255 255 255
-130.2791290283203 -8.502054214477539 -29.005224227905273 255 255 255
-125.62580871582031 -3.6707537174224854 -34.318626403808594 255 255 255
-121.83747100830078 -3.9197304248809814 -33.5167236328125 255 255 255
-122.49874114990234 -3.2690012454986572 -32.45085144042969 255 255 255
-130.95240783691406 -7.794275283813477 -28.63216781616211 255 255 255
-122.05929565429688 -9.601341247558594 -33.53059005737305 255 255 255
-122.3333740234375 -2.722352981567383 -27.882829666137695 255 255 255
-124.22537994384766 -10.130685806274414 -33.40349197387695 255 255 255
-215.14622497558594 -9.632895469665527 -67.45442962646484 255 255 255
