82.90628051757812 11.919393539428711 154.062255859375 255 255 255
85.31057739257812 7.98097562789917 160.6865234375 255 255 255
80.49352264404297 12.375748634338379 155.09750366210938 255 255 255
90.55435180664062 4.4073967933654785 142.4760284423828 255 255 255
89.64286041259766 2.67494797706604 146.04164123535156 255 255 255
82.1900863647461 11.984888076782227 152.9364013671875 255 255 255
79.88233184814453 10.822136878967285 137.47998046875 255 255 255
80.3403091430664 8.458758354187012 139.6471710205078 255 255 255
77.97991943359375 -13.754913330078125 40.66694259643555 255 255 255
80.21389770507812 -9.634299278259277 39.26072692871094 255 255 255
85.04927825927734 2.648001194000244 107.34033203125 255 255 255
77.83436584472656 4.770292282104492 109.8840103149414 255 255 255
77.29389190673828 9.386587142944336 112.47342681884766 255 255 255
84.60188293457031 6.472081661224365 95.46603393554688 255 255 255
81.08374786376953 2.3568222522735596 97.00309753417969 255 255 255
76.1521224975586 2.792246103286743 101.9597396850586 255 255 255
81.19056701660156 2.772430181503296 96.97633361816406 255 255 255
77.66061401367188 9.552644729614258 126.207275390625 255 255 255
81.89005279541016 11.461328506469727 142.84800720214844 255 255 255
84.3437271118164 11.195067405700684 139.44532775878906 255 255 255
89.17662048339844 11.176765441894531 139.0937042236328 255 255 255
81.59452056884766 11.373102188110352 141.41477966308594 255 255 255
88.97284698486328 10.36353874206543 131.23838806152344 255 255 255
73.9613037109375 6.285441875457764 115.4011001586914 255 255 255
79.51821899414062 6.486926555633545 126.59699249267578 255 255 255
71.00637817382812 -4.279818058013916 105.11168670654297 255 255 255
84.15628814697266 9.453814506530762 158.31846618652344 255 255 255
56.35334396362305 -4.296346187591553 -31.271974563598633 255 255 255
42.9271354675293 -9.616083145141602 -48.98835372924805 255 255 255
52.33255386352539 -6.462130546569824 -15.127696990966797 255 255 255
80.99276733398438 -4.8567280769348145 -21.02376937866211 255 255 255
70.5674057006836 -1.8516991138458252 -2.518296003341675 255 255 255
76.51286315917969 -5.971157073974609 -20.01283073425293 255 255 255
75.49829864501953 1.2249984741210938 27.10094451904297 255 255 255
55.49834442138672 -5.181596279144287 -40.53407287597656 255 255 255
33.6711540222168 -16.6560001373291 -84.36817169189453 255 255 255
79.63220977783203 7.579108238220215 133.40225219726562 255 255 255
106.53959655761719 5.604780673980713 126.63822937011719 255 255 255
75.7455825805664 8.18871784210205 100.96601104736328 255 255 255
73.8252182006836 2.363140344619751 78.68297576904297 255 255 255
78.1539306640625 7.994846343994141 98.09756469726562 255 255 255
86.08816528320312 7.543147087097168 96.07524108886719 255 255 255
56.02297592163086 -0.06878631561994553 74.43907928466797 255 255 255
95.14524841308594 12.004371643066406 156.9251251220703 255 255 255
92.8500747680664 5.469261169433594 155.095703125 255 255 255
95.13185119628906 11.980570793151855 157.05758666992188 255 255 255
80.2504653930664 11.10455322265625 152.0919647216797 255 255 255
83.50955963134766 11.499144554138184 142.50192260742188 255 255 255
75.57209777832031 5.460916042327881 115.17687225341797 255 255 255
84.16986846923828 11.197064399719238 145.36849975585938 255 255 255
78.90876770019531 6.76312255859375 125.97771453857422 255 255 255
88.87030792236328 10.371950149536133 131.7552947998047 255 255 255
80.0083999633789 9.450160026550293 115.7586441040039 255 255 255
85.72640228271484 3.04209041595459 70.59603881835938 255 255 255
82.92385864257812 0.574308454990387 101.88890838623047 255 255 255
76.5865249633789 3.7864902019500732 111.4225845336914 255 255 255
84.94918823242188 11.862578392028809 145.46636962890625 255 255 255
70.51956176757812 -7.751162528991699 114.1822280883789 255 255 255
80.72219848632812 11.511775016784668 140.4138946533203 255 255 255
87.30570220947266 1.2944600582122803 106.4669418334961 255 255 255
79.50334167480469 10.72301197052002 130.403564453125 255 255 255
66.52676391601562 0.6373175978660583 18.865264892578125 255 255 255
81.56723022460938 11.465553283691406 142.10678100585938 255 255 255
85.59602355957031 12.248502731323242 154.06394958496094 255 255 255
86.26690673828125 12.971863746643066 164.9947967529297 255 255 255
86.37711334228516 8.143012046813965 163.02951049804688 255 255 255
106.83203125 4.56689977645874 124.77825927734375 255 255 255
73.91327667236328 2.525970458984375 37.6871223449707 255 255 255
79.94027709960938 11.7343111038208 147.6334228515625 255 255 255
82.57025146484375 8.353678703308105 143.0894012451172 255 255 255
76.62957000732422 3.840245008468628 101.85478210449219 255 255 255
75.40473175048828 8.204634666442871 100.353759765625 255 255 255
79.62886810302734 8.124899864196777 133.70614624023438 255 255 255
85.40445709228516 4.587477207183838 139.40333557128906 255 255 255
104.68863677978516 3.198690176010132 110.24497985839844 255 255 255
80.8025894165039 10.8637113571167 136.7681884765625 255 255 255
83.18885040283203 3.8931236267089844 133.74740600585938 255 255 255
84.34510040283203 7.753473281860352 154.51988220214844 255 255 255
87.59037780761719 12.63021183013916 160.38185119628906 255 255 255
79.09013366699219 -9.547417640686035 112.1423568725586 255 255 255
87.85980987548828 12.617761611938477 160.19801330566406 255 255 255
90.21550750732422 2.1772544384002686 145.22219848632812 255 255 255
91.59355163574219 4.4160614013671875 154.14002990722656 255 255 255
79.5823974609375 6.928339958190918 131.04519653320312 255 255 255
79.4308090209961 5.695565223693848 125.72270202636719 255 255 255
84.01237487792969 11.926905632019043 149.64498901367188 255 255 255
85.84265899658203 0.10347512364387512 116.67879486083984 255 255 255
83.72752380371094 11.335277557373047 137.83245849609375 255 255 255
87.37025451660156 -15.657271385192871 21.72611427307129 255 255 255
95.14640045166016 -18.400712966918945 24.17224884033203 255 255 255
97.20813751220703 -20.2373046875 26.08534812927246 255 255 255
73.32588958740234 0.40537121891975403 76.96017456054688 255 255 255
67.79219055175781 1.488855242729187 23.636600494384766 255 255 255
64.68403625488281 -0.29050466418266296 24.65400505065918 255 255 255
64.95221710205078 -6.050410270690918 5.067605018615723 255 255 255
68.91654968261719 -7.268465518951416 -30.451297760009766 255 255 255
79.6584243774414 10.023615837097168 147.2869110107422 255 255 255
81.13159942626953 11.03612232208252 134.59326171875 255 255 255
80.12542724609375 10.837077140808105 147.26466369628906 255 255 255
82.01634979248047 11.208989143371582 145.33497619628906 255 255 255
82.66162872314453 10.86185073852539 150.07579040527344 255 255 255
80.97771453857422 6.648476600646973 141.31649780273438 255 255 255
70.9723129272461 4.249705791473389 43.61058807373047 255 255 255
85.95683288574219 3.5802597999572754 130.27931213378906 255 255 255
79.9571533203125 10.558300971984863 129.66944885253906 255 255 255
81.16411590576172 11.126154899597168 141.51730346679688 255 255 255
82.87892150878906 8.00610637664795 125.56023406982422 255 255 255
90.6532974243164 13.239487648010254 172.41714477539062 255 255 255
91.75069427490234 3.0162320137023926 159.0455322265625 255 255 255
77.46693420410156 3.8554961681365967 124.50821685791016 255 255 255
83.83910369873047 8.928997993469238 109.10102081298828 255 255 255
80.16352844238281 10.219388961791992 125.96247100830078 255 255 255
98.66310119628906 4.126004219055176 157.8294219970703 255 255 255
82.35991668701172 4.905143737792969 115.35311126708984 255 255 255
80.42101287841797 2.2111427783966064 97.80145263671875 255 255 255
76.77328491210938 3.1530544757843018 109.35408020019531 255 255 255
82.27277374267578 9.960604667663574 120.57704162597656 255 255 255
81.04595184326172 12.778572082519531 160.5965576171875 255 255 255
84.11116790771484 2.3593497276306152 141.2233123779297 255 255 255
68.04450225830078 -10.166502952575684 108.33402252197266 255 255 255
90.31558990478516 10.161238670349121 131.5083465576172 255 255 255
97.8066635131836 8.10810661315918 133.69314575195312 255 255 255
90.5748519897461 4.426951885223389 142.5625762939453 255 255 255
83.33792877197266 3.7769880294799805 132.8262481689453 255 255 255
84.88167572021484 0.7074408531188965 48.97066116333008 255 255 255
94.48900604248047 12.614409446716309 154.16635131835938 255 255 255
83.8646011352539 9.3337984085083 155.06402587890625 255 255 255
81.94031524658203 11.993212699890137 153.31797790527344 255 255 255
85.05358123779297 -1.4478182792663574 137.65728759765625 255 255 255
83.61872100830078 12.16748332977295 152.47410583496094 255 255 255
69.40457153320312 -10.038437843322754 -28.881446838378906 255 255 255
65.3377456665039 -8.880444526672363 -36.786170959472656 255 255 255
85.81835174560547 8.548362731933594 160.17996215820312 255 255 255
88.15692138671875 13.186775207519531 168.6665496826172 255 255 255
94.86015319824219 6.955660820007324 160.24850463867188 255 255 255
67.01514434814453 2.035841703414917 31.674362182617188 255 255 255
52.41899108886719 -4.997590065002441 -18.06776237487793 255 255 255
83.5121841430664 12.156465530395508 152.25318908691406 255 255 255
94.0488052368164 8.533830642700195 139.0513458251953 255 255 255
84.954345703125 12.281532287597656 161.51133728027344 255 255 255
86.27255249023438 9.028801918029785 163.60385131835938 255 255 255
87.00289916992188 9.048492431640625 164.89462280273438 255 255 255
85.8910903930664 13.944902420043945 157.499755859375 255 255 255
89.41584777832031 7.937423229217529 109.64491271972656 255 255 255
82.10234832763672 5.603019714355469 119.14424896240234 255 255 255
61.313655853271484 -5.312287330627441 -36.89289474487305 255 255 255
51.13478088378906 -12.521421432495117 -56.45637893676758 255 255 255
60.997650146484375 -7.1935906410217285 -36.39393997192383 255 255 255
55.80618667602539 -4.059757709503174 -28.958078384399414 255 255 255
84.81366729736328 7.024202823638916 99.22347259521484 255 255 255
83.02430725097656 8.357879638671875 151.68841552734375 255 255 255
80.47049713134766 11.182411193847656 152.5530242919922 255 255 255
83.70014953613281 8.8477144241333 150.65785217285156 255 255 255
81.74840545654297 11.470559120178223 142.5934600830078 255 255 255
83.03338623046875 3.631542444229126 135.43560791015625 255 255 255
84.35185241699219 0.8297581672668457 112.71238708496094 255 255 255
55.53413391113281 -18.5000057220459 79.45906066894531 255 255 255
95.10791778564453 12.030187606811523 157.1485137939453 255 255 255
89.8169174194336 1.6902521848678589 144.5498504638672 255 255 255
74.16983032226562 0.3974217474460602 70.17141723632812 255 255 255
84.99617767333984 12.61669635772705 165.6159210205078 255 255 255
92.23078155517578 4.937465667724609 159.22503662109375 255 255 255
84.2470703125 12.701622009277344 159.49923706054688 255 255 255
92.17522430419922 4.201519966125488 146.78761291503906 255 255 255
87.31478118896484 0.5029377937316895 122.66487121582031 255 255 255
86.24728393554688 8.408994674682617 110.66045379638672 255 255 255
92.10094451904297 4.858560562133789 96.01901245117188 255 255 255
81.52416229248047 12.0491304397583 153.252685546875 255 255 255
90.59144592285156 4.615203857421875 143.1829071044922 255 255 255
85.51432800292969 5.318909645080566 101.04537963867188 255 255 255
78.59549713134766 5.562363147735596 117.98086547851562 255 255 255
72.82548522949219 7.167383193969727 100.72766876220703 255 255 255
83.04109191894531 7.2050395011901855 126.55091094970703 255 255 255
88.53641510009766 1.9470988512039185 144.91799926757812 255 255 255
87.95769500732422 8.757411003112793 171.03257751464844 255 255 255
82.74850463867188 2.5750091075897217 83.1670913696289 255 255 255
72.91050720214844 1.9518237113952637 77.28465270996094 255 255 255
98.7718734741211 1.0139477252960205 127.597900390625 255 255 255
86.3288345336914 12.599289894104004 159.1831817626953 255 255 255
90.57646942138672 4.442115306854248 142.61090087890625 255 255 255
106.20268249511719 1.5960006713867188 105.64651489257812 255 255 255
99.6197509765625 -2.3711655139923096 123.05661010742188 255 255 255
84.45561981201172 3.5693233013153076 137.56710815429688 255 255 255
69.38558197021484 -12.510457992553711 18.43967628479004 255 255 255
76.43512725830078 -3.6092255115509033 -11.708175659179688 255 255 255
85.71233367919922 8.893513679504395 162.9369659423828 255 255 255
86.03372955322266 8.055355072021484 166.8034210205078 255 255 255
79.22592163085938 10.5543794631958 131.4401397705078 255 255 255
95.55144500732422 10.441043853759766 159.36572265625 255 255 255
93.7225341796875 4.653485298156738 158.38035583496094 255 255 255
63.772056579589844 -9.14615535736084 -27.46339988708496 255 255 255
53.762535095214844 -4.52604341506958 -29.49248695373535 255 255 255
51.02117156982422 -4.9942216873168945 -36.89751434326172 255 255 255
87.85206604003906 3.875308036804199 145.28311157226562 255 255 255
83.2828140258789 8.867565155029297 153.90948486328125 255 255 255
70.4030990600586 -8.044927597045898 114.34307861328125 255 255 255
93.67735290527344 4.669947624206543 158.2718048095703 255 255 255
94.15315246582031 4.389005184173584 157.88702392578125 255 255 255
83.1021957397461 4.946437358856201 71.24931335449219 255 255 255
97.81511688232422 -2.8724582195281982 170.18275451660156 255 255 255
92.01286315917969 6.645392894744873 180.1783905029297 255 255 255
94.1216812133789 7.077101230621338 187.1728973388672 255 255 255
103.45375061035156 13.648362159729004 189.02186584472656 255 255 255
73.992431640625 3.78004789352417 82.62109375 255 255 255
76.87896728515625 7.379360675811768 89.8110122680664 255 255 255
101.75508117675781 -21.170669555664062 20.6153621673584 255 255 255
84.69597625732422 5.751042366027832 80.3351821899414 255 255 255
97.25013732910156 -20.558364868164062 25.62897491455078 255 255 255
120.07483673095703 4.1519293785095215 150.5236053466797 255 255 255
97.21023559570312 8.533960342407227 142.40972900390625 255 255 255
72.56423950195312 2.6532888412475586 77.9648666381836 255 255 255
69.61866760253906 8.21668815612793 116.83615112304688 255 255 255
83.83959197998047 10.468202590942383 128.64938354492188 255 255 255
78.01764678955078 9.773904800415039 128.86146545410156 255 255 255
80.78962707519531 10.416243553161621 128.77610778808594 255 255 255
83.08207702636719 11.245304107666016 134.8004913330078 255 255 255
84.91670989990234 8.61156940460205 151.68385314941406 255 255 255
92.85191345214844 5.54766845703125 155.22268676757812 255 255 255
60.512298583984375 -8.065176963806152 -21.46000099182129 255 255 255
72.40966033935547 -8.795830726623535 -37.18183517456055 255 255 255
56.81182098388672 -14.514145851135254 -60.1407585144043 255 255 255
56.3314094543457 -7.408195495605469 -46.60681915283203 255 255 255
60.686588287353516 -3.9742846488952637 -26.149028778076172 255 255 255
65.79401397705078 -4.537048816680908 -29.116899490356445 255 255 255
87.7822494506836 -13.109545707702637 33.08721923828125 255 255 255
88.28480529785156 13.068024635314941 167.780517578125 255 255 255
89.9670181274414 -16.637271881103516 31.24097442626953 255 255 255
80.29032897949219 -13.000134468078613 40.69472122192383 255 255 255
80.11187744140625 -9.61069107055664 41.80622100830078 255 255 255
81.5305404663086 -12.154255867004395 40.94270324707031 255 255 255
82.77781677246094 -2.3653666973114014 55.91321563720703 255 255 255
93.00514221191406 1.2378848791122437 159.14889526367188 255 255 255
94.92719268798828 6.610121250152588 159.1991729736328 255 255 255
91.5726318359375 2.2831733226776123 152.67779541015625 255 255 255
100.76017761230469 -0.8560431003570557 141.3618621826172 255 255 255
85.42279052734375 -0.49565964937210083 142.5821990966797 255 255 255
92.22053527832031 13.092019081115723 166.93316650390625 255 255 255
96.88539123535156 0.8825560808181763 179.15924072265625 255 255 255
101.7013931274414 11.279693603515625 176.5206756591797 255 255 255
101.145751953125 8.541577339172363 170.36891174316406 255 255 255
87.84603881835938 4.935588359832764 178.2920379638672 255 255 255
45.347312927246094 -22.295944213867188 16.719423294067383 255 255 255
83.78324890136719 2.650254964828491 95.0138168334961 255 255 255
117.82060241699219 0.07693234831094742 145.35960388183594 255 255 255
98.96194458007812 2.7041029930114746 184.0387725830078 255 255 255
92.7617416381836 9.996298789978027 179.2787322998047 255 255 255
92.09506225585938 10.691953659057617 184.95986938476562 255 255 255
99.88775634765625 8.092874526977539 163.1790771484375 255 255 255
85.93984985351562 8.326820373535156 160.0234832763672 255 255 255
97.92800903320312 5.713488578796387 161.2847137451172 255 255 255
98.4659423828125 12.749772071838379 172.96658325195312 255 255 255
95.10265350341797 6.811969757080078 171.80657958984375 255 255 255
95.1576156616211 8.214871406555176 175.025634765625 255 255 255
96.62283325195312 13.123564720153809 203.23907470703125 255 255 255
94.25313568115234 9.030623435974121 194.68667602539062 255 255 255
89.8543930053711 10.140358924865723 170.64654541015625 255 255 255
97.09074401855469 8.645556449890137 197.82041931152344 255 255 255
102.59293365478516 -2.9932806491851807 180.77943420410156 255 255 255
98.99793243408203 11.853495597839355 149.93702697753906 255 255 255
102.30533599853516 -2.0325124263763428 172.4711456298828 255 255 255
91.65364074707031 10.575163841247559 180.02890014648438 255 255 255
99.3309097290039 -0.6326817870140076 137.63912963867188 255 255 255
82.14537048339844 -2.803462505340576 52.141998291015625 255 255 255
80.70294189453125 5.821156024932861 75.62721252441406 255 255 255
89.37288665771484 13.330163955688477 172.07125854492188 255 255 255
95.78299713134766 8.136176109313965 163.93130493164062 255 255 255
96.04730224609375 5.267996788024902 162.04318237304688 255 255 255
97.01288604736328 6.578910827636719 160.31021118164062 255 255 255
99.6164779663086 7.2622857093811035 164.6511993408203 255 255 255
94.61100769042969 1.8286774158477783 175.4661407470703 255 255 255
114.32434844970703 3.6615209579467773 141.37213134765625 255 255 255
111.34102630615234 7.996884822845459 169.28884887695312 255 255 255
96.01402282714844 1.4306129217147827 175.4411163330078 255 255 255
94.77496337890625 8.801128387451172 193.7064208984375 255 255 255
106.95925903320312 2.209839344024658 175.40625 255 255 255
75.44258880615234 5.118929862976074 64.2573013305664 255 255 255
78.69061279296875 -0.05001109838485718 54.66992950439453 255 255 255
97.3154067993164 12.585999488830566 165.29669189453125 255 255 255
97.20693969726562 12.59005069732666 164.75816345214844 255 255 255
81.8519287109375 11.38194465637207 141.02696228027344 255 255 255
82.67316436767578 11.193309783935547 138.9009246826172 255 255 255
77.93058013916016 5.18442440032959 115.98417663574219 255 255 255
81.64701080322266 9.933572769165039 122.8504409790039 255 255 255
78.58189392089844 5.9801459312438965 117.91800689697266 255 255 255
80.11603546142578 10.21214771270752 125.8322525024414 255 255 255
80.32759857177734 10.216431617736816 126.25743865966797 255 255 255
93.00128936767578 3.6971826553344727 157.02671813964844 255 255 255
-1046.7164306640625 -693.0935668945312 -3757.005615234375 255 255 255
85.3630599975586 8.472213745117188 161.04505920410156 255 255 255
86.01170349121094 12.899205207824707 163.71221923828125 255 255 255
79.43978881835938 10.313114166259766 119.00621032714844 255 255 255
84.04886627197266 5.438591480255127 123.77283477783203 255 255 255
78.57249450683594 0.4014478921890259 55.944454193115234 255 255 255
69.78404998779297 -15.867233276367188 100.03858184814453 255 255 255
84.30196380615234 5.917166709899902 136.19557189941406 255 255 255
72.98057556152344 -0.847697913646698 66.43241882324219 255 255 255
84.3038330078125 11.820440292358398 144.63800048828125 255 255 255
82.81292724609375 4.734534740447998 135.07041931152344 255 255 255
87.21399688720703 11.23186206817627 141.06295776367188 255 255 255
65.9664077758789 13.922995567321777 82.57539367675781 255 255 255
84.98204040527344 2.448915719985962 143.2467803955078 255 255 255
69.03981018066406 2.2422659397125244 59.87233352661133 255 255 255
70.04219818115234 3.875351905822754 60.949554443359375 255 255 255
83.08972930908203 2.363934278488159 55.4363899230957 255 255 255
87.96450805664062 13.214455604553223 168.4307098388672 255 255 255
86.09142303466797 12.877933502197266 163.80645751953125 255 255 255
77.28998565673828 8.499282836914062 97.51911163330078 255 255 255
83.59998321533203 2.5178613662719727 120.51899719238281 255 255 255
80.07719421386719 6.744599342346191 125.60193634033203 255 255 255
85.78244018554688 5.067599773406982 90.11872100830078 255 255 255
84.19664764404297 9.450759887695312 158.262451171875 255 255 255
47.52680969238281 -20.581157684326172 24.455543518066406 255 255 255
100.9708480834961 10.658360481262207 164.81210327148438 255 255 255
98.82357025146484 11.596824645996094 167.3754119873047 255 255 255
84.34588623046875 9.044705390930176 152.75198364257812 255 255 255
92.93816375732422 13.567387580871582 180.44940185546875 255 255 255
98.72970581054688 12.246627807617188 168.47872924804688 255 255 255
98.77025604248047 5.174373626708984 163.70542907714844 255 255 255
95.28864288330078 8.581254005432129 174.55609130859375 255 255 255
88.7005615234375 1.0758514404296875 143.14730834960938 255 255 255
79.5630111694336 11.406753540039062 155.24850463867188 255 255 255
90.74688720703125 6.814082145690918 144.51791381835938 255 255 255
92.52850341796875 3.5566563606262207 145.2315216064453 255 255 255
85.02478790283203 8.586982727050781 159.1668243408203 255 255 255
79.25982666015625 9.896941184997559 131.99349975585938 255 255 255
82.86904907226562 4.291557788848877 109.80524444580078 255 255 255
68.13502502441406 -0.32180100679397583 48.77220916748047 255 255 255
68.96820068359375 4.169159889221191 51.950416564941406 255 255 255
71.19585418701172 4.395771026611328 54.98985290527344 255 255 255
80.28883361816406 0.5116656422615051 24.23389434814453 255 255 255
83.00320434570312 3.571648120880127 126.44292449951172 255 255 255
78.7519760131836 7.335055351257324 127.81810760498047 255 255 255
87.45085906982422 1.636565089225769 117.54222106933594 255 255 255
93.28758239746094 2.4451329708099365 91.68594360351562 255 255 255
86.28765869140625 8.499828338623047 111.50911712646484 255 255 255
80.45162200927734 9.24449348449707 114.03954315185547 255 255 255
76.14103698730469 3.085437536239624 108.79695129394531 255 255 255
96.56383514404297 12.521551132202148 162.59718322753906 255 255 255
94.8268051147461 12.672723770141602 163.2091522216797 255 255 255
71.53221130371094 6.546045780181885 101.12338256835938 255 255 255
75.01817321777344 4.837940216064453 103.50617980957031 255 255 255
95.37836456298828 12.662449836730957 163.74945068359375 255 255 255
88.7112808227539 13.342578887939453 171.28904724121094 255 255 255
85.21874237060547 12.458976745605469 158.05165100097656 255 255 255
88.5989761352539 12.922149658203125 165.52374267578125 255 255 255
94.8615493774414 7.150073528289795 160.7823486328125 255 255 255
84.58734130859375 7.8600640296936035 154.1818084716797 255 255 255
78.13887023925781 6.799049377441406 159.49241638183594 255 255 255
71.94613647460938 7.345356464385986 99.87716674804688 255 255 255
79.340087890625 5.132124423980713 127.97582244873047 255 255 255
72.7530288696289 3.2323920726776123 43.60685729980469 255 255 255
67.64039611816406 -8.494668006896973 -25.075515747070312 255 255 255
66.16376495361328 -1.2755056619644165 47.46364212036133 255 255 255
87.96450805664062 4.95206356048584 90.9795150756836 255 255 255
84.93077087402344 6.3404011726379395 84.06245422363281 255 255 255
88.05007934570312 4.9189229011535645 90.7243423461914 255 255 255
80.41354370117188 2.754347562789917 97.07544708251953 255 255 255
82.01313781738281 0.8860815167427063 97.45967102050781 255 255 255
83.4168930053711 12.164950370788574 151.95150756835938 255 255 255
79.70001220703125 6.585036277770996 121.31683349609375 255 255 255
88.25662994384766 0.6723031997680664 141.7302703857422 255 255 255
97.81045532226562 8.155925750732422 133.76756286621094 255 255 255
87.45478057861328 12.639357566833496 156.93112182617188 255 255 255
88.39476776123047 12.155171394348145 151.4904327392578 255 255 255
85.86238098144531 12.223180770874023 154.6098175048828 255 255 255
80.29244232177734 10.602420806884766 148.4112091064453 255 255 255
70.13282012939453 -2.2768936157226562 -4.145539283752441 255 255 255
68.66386413574219 2.9161899089813232 40.1944465637207 255 255 255
85.66543579101562 -4.812146186828613 14.624534606933594 255 255 255
74.49715423583984 -1.8304401636123657 28.156957626342773 255 255 255
73.6448745727539 2.1995136737823486 32.17093276977539 255 255 255
77.20076751708984 8.009821891784668 98.4942398071289 255 255 255
91.65618896484375 13.669054985046387 176.4364013671875 255 255 255
88.32779693603516 12.89899730682373 165.1288299560547 255 255 255
91.9103012084961 3.54136323928833 160.22012329101562 255 255 255
79.92646789550781 11.599279403686523 146.0321807861328 255 255 255
92.8420181274414 5.351856231689453 154.75509643554688 255 255 255
93.038330078125 5.461295127868652 154.19818115234375 255 255 255
85.50816345214844 7.8507232666015625 105.86544036865234 255 255 255
94.05833435058594 9.975751876831055 178.21652221679688 255 255 255
98.49195098876953 5.254057884216309 162.7945556640625 255 255 255
80.05542755126953 8.4764986038208 138.0126495361328 255 255 255
73.3319091796875 6.799676418304443 82.51123046875 255 255 255
107.96244049072266 0.6643615365028381 183.45538330078125 255 255 255
120.31092071533203 -4.316451549530029 168.5315399169922 255 255 255
91.74815368652344 11.22602367401123 180.8704376220703 255 255 255
94.77226257324219 2.1216089725494385 176.3980712890625 255 255 255
92.21033477783203 10.410321235656738 185.3846893310547 255 255 255
92.25489044189453 10.32160758972168 179.37704467773438 255 255 255
52.69548797607422 -18.651702880859375 35.46411895751953 255 255 255
97.45337677001953 3.081495761871338 146.07687377929688 255 255 255
87.08575439453125 8.060235977172852 163.83287048339844 255 255 255
91.91571044921875 13.201974868774414 180.52931213378906 255 255 255
94.80455017089844 7.195102691650391 160.92869567871094 255 255 255
96.09658813476562 5.998610019683838 174.62644958496094 255 255 255
93.25993347167969 9.633721351623535 193.73031616210938 255 255 255
118.63631439208984 3.0489470958709717 158.58058166503906 255 255 255
101.83271789550781 11.887626647949219 184.07516479492188 255 255 255
106.04800415039062 7.259219169616699 163.60426330566406 255 255 255
93.24549102783203 14.193177223205566 192.7920684814453 255 255 255
102.55623626708984 10.3627347946167 182.03558349609375 255 255 255
88.3202896118164 3.210627317428589 178.78915405273438 255 255 255
93.19477844238281 14.121261596679688 190.41778564453125 255 255 255
95.19278717041016 7.389525890350342 169.8487091064453 255 255 255
100.61707305908203 4.723702907562256 182.0508270263672 255 255 255
105.41203308105469 4.100401401519775 180.12408447265625 255 255 255
117.51547241210938 2.8737711906433105 174.6568603515625 255 255 255
119.20804595947266 -3.2112536430358887 170.98146057128906 255 255 255
96.47054290771484 13.467245101928711 188.0795135498047 255 255 255
100.94706726074219 4.592155933380127 105.49299621582031 255 255 255
120.5525894165039 0.23735520243644714 167.8862762451172 255 255 255
118.04693603515625 -3.622800350189209 167.04913330078125 255 255 255
74.97760772705078 4.355034351348877 83.71719360351562 255 255 255
88.0115966796875 5.86695671081543 73.37506103515625 255 255 255
82.48764038085938 3.1334035396575928 84.33832550048828 255 255 255
73.45344543457031 1.9036129713058472 78.62786102294922 255 255 255
92.22059631347656 6.328489780426025 111.68888092041016 255 255 255
86.83216857910156 8.316449165344238 166.75845336914062 255 255 255
86.9384536743164 8.02419662475586 163.57687377929688 255 255 255
86.43283081054688 8.071290016174316 166.55853271484375 255 255 255
75.08125305175781 6.952389717102051 84.8455581665039 255 255 255
105.4299087524414 -19.400524139404297 9.134574890136719 255 255 255
84.41300201416016 4.822603702545166 64.07261657714844 255 255 255
73.03044128417969 -7.870018005371094 39.96329116821289 255 255 255
100.4964828491211 8.450510025024414 128.39907836914062 255 255 255
85.75859832763672 3.9145572185516357 138.033203125 255 255 255
84.99437713623047 9.313016891479492 158.14886474609375 255 255 255
94.35022735595703 12.548990249633789 160.3909454345703 255 255 255
84.76446533203125 -5.331821918487549 135.64889526367188 255 255 255
87.21924591064453 12.714544296264648 161.8477020263672 255 255 255
88.81703186035156 -0.13767637312412262 141.057373046875 255 255 255
82.88199615478516 14.625470161437988 179.3780975341797 255 255 255
80.94249725341797 15.000734329223633 177.01632690429688 255 255 255
99.939453125 -3.136517286300659 144.0619354248047 255 255 255
91.93071746826172 3.4329605102539062 159.96841430664062 255 255 255
121.37374114990234 -3.519252061843872 168.44757080078125 255 255 255
120.25580596923828 7.517229080200195 163.6060028076172 255 255 255
55.8487548828125 3.2709603309631348 64.9649429321289 255 255 255
87.27540588378906 -22.341156005859375 20.07048797607422 255 255 255
110.23886108398438 5.406493663787842 169.52212524414062 255 255 255
96.8270034790039 6.807939529418945 190.48660278320312 255 255 255
92.68050384521484 13.395550727844238 181.78646850585938 255 255 255
94.52764129638672 7.10232400894165 173.45755004882812 255 255 255
100.3709945678711 3.96122407913208 181.59402465820312 255 255 255
98.8216552734375 13.14902400970459 171.51634216308594 255 255 255
97.21296691894531 11.800649642944336 164.40663146972656 255 255 255
115.77474212646484 2.964219331741333 153.9033966064453 255 255 255
91.8104476928711 11.032658576965332 156.97471618652344 255 255 255
114.86991882324219 5.1941986083984375 157.73680114746094 255 255 255
120.53170776367188 7.455715179443359 167.58790588378906 255 255 255
108.27477264404297 2.640575885772705 184.6245880126953 255 255 255
90.1421127319336 -13.275421142578125 37.19038009643555 255 255 255
74.34030151367188 7.242151737213135 73.05799865722656 255 255 255
95.95838928222656 12.666770935058594 202.88340759277344 255 255 255
96.19355773925781 12.837565422058105 203.467529296875 255 255 255
85.78719329833984 8.368587493896484 166.4562225341797 255 255 255
79.4776382446289 9.718907356262207 116.56285095214844 255 255 255
84.23823547363281 6.284877300262451 115.23290252685547 255 255 255
72.41178131103516 2.97322678565979 72.5951919555664 255 255 255
101.70555877685547 10.076391220092773 173.1348114013672 255 255 255
101.29346466064453 13.45351791381836 182.93211364746094 255 255 255
71.88834381103516 0.7830007672309875 77.55067443847656 255 255 255
72.81006622314453 6.240811347961426 75.16741943359375 255 255 255
83.97386169433594 5.068313121795654 73.81388854980469 255 255 255
93.73493194580078 5.062246799468994 159.40370178222656 255 255 255
98.07708740234375 -1.2821823358535767 152.5367889404297 255 255 255
120.96406555175781 10.01630687713623 167.3474884033203 255 255 255
103.1824722290039 -0.29885828495025635 182.9033660888672 255 255 255
100.63282012939453 0.18556247651576996 182.84619140625 255 255 255
81.39690399169922 3.6273653507232666 110.84567260742188 255 255 255
75.80811309814453 4.259832859039307 102.65511322021484 255 255 255
66.59465026855469 2.489384889602661 44.62847900390625 255 255 255
71.69315338134766 -2.436741590499878 47.221534729003906 255 255 255
70.36902618408203 -1.770447850227356 31.2799015045166 255 255 255
66.37940979003906 2.608492374420166 45.671775817871094 255 255 255
71.89891815185547 -3.2921242713928223 45.65092468261719 255 255 255
66.47261810302734 2.624654531478882 45.81989288330078 255 255 255
72.06270599365234 -5.097625255584717 42.13984680175781 255 255 255
70.1881332397461 -5.696248531341553 -3.6159956455230713 255 255 255
71.92849731445312 -7.816432952880859 -5.019876003265381 255 255 255
71.95838928222656 -10.256049156188965 -20.1115665435791 255 255 255
97.52645111083984 10.567869186401367 200.57443237304688 255 255 255
96.71778106689453 4.887746334075928 180.75399780273438 255 255 255
77.52861022949219 3.799161911010742 51.879730224609375 255 255 255
75.24610900878906 4.286523818969727 103.34306335449219 255 255 255
84.50835418701172 2.4611332416534424 138.21807861328125 255 255 255
83.41860961914062 8.968964576721191 151.1403350830078 255 255 255
85.8608169555664 3.725719451904297 130.8691864013672 255 255 255
115.57070922851562 4.587369441986084 154.56069946289062 255 255 255
101.13420867919922 -0.5715155601501465 181.633056640625 255 255 255
109.30632781982422 2.772562026977539 182.72254943847656 255 255 255
74.46367645263672 -4.495947360992432 132.94595336914062 255 255 255
88.94188690185547 12.971420288085938 166.34750366210938 255 255 255
78.43295288085938 9.822893142700195 130.51036071777344 255 255 255
98.1358413696289 6.8326029777526855 169.1048126220703 255 255 255
94.24794006347656 8.63309097290039 140.4565887451172 255 255 255
71.22352600097656 8.034843444824219 114.35617065429688 255 255 255
70.95011138916016 3.2464702129364014 108.62908172607422 255 255 255
69.6689453125 14.860612869262695 98.97174072265625 255 255 255
86.58464813232422 9.096887588500977 165.64028930664062 255 255 255
88.25276184082031 13.075217247009277 167.71315002441406 255 255 255
97.35089111328125 13.2940092086792 175.69813537597656 255 255 255
97.5654525756836 12.639267921447754 165.98367309570312 255 255 255
68.75263214111328 -16.366233825683594 98.16608428955078 255 255 255
97.60868072509766 12.643696784973145 166.00685119628906 255 255 255
98.70207214355469 12.246757507324219 168.7941436767578 255 255 255
92.1148452758789 5.109138011932373 98.90486907958984 255 255 255
82.50822448730469 12.657955169677734 161.2574005126953 255 255 255
93.73268127441406 5.411431312561035 160.26959228515625 255 255 255
84.90096282958984 8.168880462646484 102.28944396972656 255 255 255
73.25110626220703 4.568221569061279 102.17699432373047 255 255 255
81.52828979492188 1.555963397026062 97.14766693115234 255 255 255
119.86837768554688 0.5302127003669739 151.1383056640625 255 255 255
82.50346374511719 -7.356323719024658 146.8604736328125 255 255 255
95.82331848144531 8.410163879394531 194.43849182128906 255 255 255
93.21630859375 13.178688049316406 170.59193420410156 255 255 255
84.39155578613281 13.21286678314209 169.92214965820312 255 255 255
93.37333679199219 5.927123069763184 166.22113037109375 255 255 255
85.73409271240234 10.151180267333984 174.7010955810547 255 255 255
100.62649536132812 12.586091995239258 173.70570373535156 255 255 255
80.41775512695312 10.741265296936035 135.141357421875 255 255 255
105.71586608886719 4.705995082855225 182.0991973876953 255 255 255
91.50843811035156 13.44730281829834 177.66676330566406 255 255 255
119.28272247314453 -3.82069730758667 150.89085388183594 255 255 255
95.98304748535156 0.36180105805397034 177.64781188964844 255 255 255
95.84300231933594 14.391714096069336 197.92034912109375 255 255 255
115.48551940917969 6.80915641784668 154.74612426757812 255 255 255
121.0256118774414 6.402231216430664 161.2677764892578 255 255 255
76.52368927001953 -11.194403648376465 38.425537109375 255 255 255
71.96849060058594 -0.11854875087738037 102.52656555175781 255 255 255
76.35433959960938 3.9073500633239746 100.89815521240234 255 255 255
80.22699737548828 9.45705509185791 116.8423080444336 255 255 255
78.9273681640625 4.238611221313477 117.00277709960938 255 255 255
78.2602767944336 6.170202255249023 125.75692749023438 255 255 255
119.13489532470703 -4.596887111663818 164.4691925048828 255 255 255
118.89527130126953 -4.2741169929504395 165.1206817626953 255 255 255
106.75946807861328 12.460183143615723 184.19361877441406 255 255 255
97.78975677490234 5.933217525482178 188.37767028808594 255 255 255
99.85155487060547 0.5934082865715027 180.7438201904297 255 255 255
119.16675567626953 -2.6545207500457764 164.8710479736328 255 255 255
104.33148193359375 11.154205322265625 180.75286865234375 255 255 255
81.79342651367188 7.666954040527344 141.100830078125 255 255 255
78.20332336425781 4.196899890899658 110.16852569580078 255 255 255
90.55838012695312 1.9202970266342163 94.53421020507812 255 255 255
83.35812377929688 -0.10142258554697037 97.19861602783203 255 255 255
88.16427612304688 6.7308125495910645 101.61605072021484 255 255 255
77.60514831542969 5.610420227050781 115.57384490966797 255 255 255
77.51781463623047 8.35954475402832 101.53765106201172 255 255 255
86.50801086425781 4.635693550109863 86.19586944580078 255 255 255
82.09007263183594 4.219018936157227 110.57194519042969 255 255 255
76.6386947631836 9.340005874633789 110.3776626586914 255 255 255
99.78302764892578 13.16419792175293 175.2900848388672 255 255 255
92.28648376464844 13.54076099395752 181.01190185546875 255 255 255
100.04347229003906 13.22809886932373 174.3451690673828 255 255 255
80.42896270751953 -54.86589050292969 25.213777542114258 255 255 255
91.63802337646484 11.177072525024414 183.17990112304688 255 255 255
93.90045166015625 13.614635467529297 178.9154052734375 255 255 255
93.35118103027344 -2.038433313369751 155.4076690673828 255 255 255
91.72897338867188 8.77729606628418 181.1135711669922 255 255 255
92.35363006591797 10.843622207641602 185.8456573486328 255 255 255
120.4224624633789 -4.066674709320068 163.9161834716797 255 255 255
104.54405212402344 -0.6940041184425354 182.0748291015625 255 255 255
93.20387268066406 13.5770845413208 183.5934600830078 255 255 255
94.5244369506836 13.762439727783203 188.77182006835938 255 255 255
90.31945037841797 3.391202926635742 167.0594482421875 255 255 255
87.56824493408203 13.31126880645752 171.0502471923828 255 255 255
85.03970336914062 10.400276184082031 163.7933807373047 255 255 255
73.2657470703125 6.705235481262207 87.10282897949219 255 255 255
92.98292541503906 -18.134841918945312 26.083599090576172 255 255 255
70.24613952636719 5.924426078796387 73.9157943725586 255 255 255
93.98519897460938 9.058795928955078 195.83261108398438 255 255 255
121.9256820678711 3.242114782333374 163.6966552734375 255 255 255
86.97351837158203 13.121243476867676 173.7259979248047 255 255 255
85.66323852539062 9.394941329956055 165.7699737548828 255 255 255
99.398193359375 5.111207485198975 196.3842010498047 255 255 255
105.66472625732422 0.3162015676498413 183.9706573486328 255 255 255
124.1844482421875 5.867040634155273 172.32827758789062 255 255 255
92.32108306884766 8.175297737121582 181.0520782470703 255 255 255
80.16651916503906 -11.817986488342285 41.08181381225586 255 255 255
70.62632751464844 -6.5995941162109375 40.98891830444336 255 255 255
105.26388549804688 -3.768258810043335 183.8693389892578 255 255 255
94.56610870361328 9.991461753845215 197.10165405273438 255 255 255
95.5541763305664 10.324078559875488 204.6899871826172 255 255 255
107.52739715576172 1.0891042947769165 184.990234375 255 255 255
115.63192749023438 0.09617731720209122 118.2423324584961 255 255 255
48.31987380981445 -13.958847045898438 44.885231018066406 255 255 255
47.8712272644043 -14.26689624786377 44.038917541503906 255 255 255
97.1456069946289 4.517343044281006 175.96983337402344 255 255 255
92.9505386352539 8.495166778564453 178.61102294921875 255 255 255
66.33456420898438 -5.014227867126465 55.637367248535156 255 255 255
88.42955017089844 8.52489948272705 117.56130981445312 255 255 255
93.42866516113281 10.461430549621582 178.7309112548828 255 255 255
97.0588607788086 2.221088409423828 161.29058837890625 255 255 255
91.49945831298828 -18.252103805541992 26.08791732788086 255 255 255
71.6120376586914 7.067303657531738 99.17335510253906 255 255 255
93.01569366455078 10.993083953857422 187.10891723632812 255 255 255
93.33850860595703 5.610882759094238 165.3798370361328 255 255 255
92.7315902709961 10.922883987426758 185.9432373046875 255 255 255
98.07954406738281 2.5799286365509033 183.96287536621094 255 255 255
118.16825103759766 7.078545093536377 159.57810974121094 255 255 255
120.69728088378906 9.673726081848145 167.89389038085938 255 255 255
95.85755157470703 7.283972263336182 177.46902465820312 255 255 255
96.34908294677734 8.259455680847168 164.42947387695312 255 255 255
97.07765197753906 1.9878664016723633 160.72760009765625 255 255 255
98.14070892333984 4.8253302574157715 168.6350555419922 255 255 255
85.78834533691406 8.296487808227539 159.753662109375 255 255 255
98.67333221435547 12.726725578308105 168.5136260986328 255 255 255
99.87862396240234 7.21418571472168 156.73001098632812 255 255 255
101.92745971679688 7.373218059539795 167.39501953125 255 255 255
91.57994079589844 10.548606872558594 179.92440795898438 255 255 255
94.71334838867188 4.7007598876953125 168.50167846679688 255 255 255
98.99694061279297 7.310942649841309 200.01626586914062 255 255 255
96.4689712524414 13.026984214782715 204.0291290283203 255 255 255
117.57530975341797 2.43526291847229 146.53868103027344 255 255 255
73.42633056640625 6.216414451599121 76.6479263305664 255 255 255
72.56945037841797 4.620911598205566 56.09327697753906 255 255 255
73.22004699707031 2.842806816101074 49.743099212646484 255 255 255
85.09810638427734 -1.2346552610397339 140.6761932373047 255 255 255
95.73143768310547 12.788086891174316 173.51382446289062 255 255 255
99.58702087402344 4.240179061889648 159.63548278808594 255 255 255
94.65015411376953 1.995147943496704 175.76385498046875 255 255 255
96.60553741455078 -2.2260236740112305 172.29708862304688 255 255 255
97.42267608642578 10.88390827178955 160.37619018554688 255 255 255
97.57777404785156 4.257419109344482 195.97213745117188 255 255 255
103.13824462890625 14.53462028503418 201.65643310546875 255 255 255
118.60320281982422 5.540328502655029 153.362060546875 255 255 255
107.47225952148438 3.3778650760650635 180.94046020507812 255 255 255
103.93404388427734 3.80877947807312 188.1614532470703 255 255 255
110.43560028076172 10.261330604553223 161.34877014160156 255 255 255
97.8685302734375 15.691239356994629 209.40565490722656 255 255 255
67.88804626464844 -8.091211318969727 -31.366350173950195 255 255 255
99.68310546875 2.080674409866333 187.70973205566406 255 255 255
101.1023941040039 -0.3654162287712097 183.1679229736328 255 255 255
83.7930679321289 9.366241455078125 115.33837890625 255 255 255
82.76535034179688 9.203981399536133 111.1619873046875 255 255 255
79.39761352539062 9.093344688415527 110.64527893066406 255 255 255
101.38883972167969 11.05456256866455 166.10597229003906 255 255 255
91.52496337890625 13.274663925170898 181.1920928955078 255 255 255
98.06947326660156 5.555974960327148 166.7473907470703 255 255 255
97.57268524169922 4.984739303588867 162.16256713867188 255 255 255
85.96609497070312 9.807229995727539 161.20693969726562 255 255 255
96.63651275634766 2.7942943572998047 197.69564819335938 255 255 255
107.10943603515625 -0.5920178890228271 184.94647216796875 255 255 255
92.93253326416016 8.37530517578125 190.98284912109375 255 255 255
96.2125015258789 13.144964218139648 202.4397735595703 255 255 255
99.5079345703125 3.4193127155303955 199.16429138183594 255 255 255
99.74141693115234 4.958704948425293 197.78067016601562 255 255 255
95.27141571044922 0.9747329354286194 168.81805419921875 255 255 255
109.73991394042969 6.597513198852539 179.7357635498047 255 255 255
117.93270111083984 3.8928511142730713 159.365966796875 255 255 255
93.64987182617188 5.629978656768799 168.21343994140625 255 255 255
105.9691162109375 2.717747211456299 186.5115966796875 255 255 255
83.53565979003906 2.001067638397217 88.1690902709961 255 255 255
76.39777374267578 3.9384994506835938 101.00200653076172 255 255 255
99.71302795410156 1.5999078750610352 181.159423828125 255 255 255
95.05797576904297 11.79346752166748 156.56903076171875 255 255 255
120.06111907958984 1.715301275253296 161.24392700195312 255 255 255
106.58394622802734 12.455305099487305 184.37991333007812 255 255 255
119.18455505371094 7.7314772605896 160.4692840576172 255 255 255
119.13685607910156 -3.718695878982544 155.4612274169922 255 255 255
97.67353820800781 4.908940315246582 197.3091278076172 255 255 255
96.7004165649414 6.123625755310059 199.25350952148438 255 255 255
118.52909088134766 -3.4196391105651855 166.7930908203125 255 255 255
90.2999496459961 10.775321006774902 197.970947265625 255 255 255
117.72554016113281 -1.4957314729690552 159.6793670654297 255 255 255
90.15972900390625 -21.027708053588867 27.80556869506836 255 255 255
73.95655822753906 7.277918338775635 92.50798034667969 255 255 255
85.97857666015625 4.153846740722656 81.7897720336914 255 255 255
83.76054382324219 1.876540184020996 51.83375930786133 255 255 255
69.07461547851562 -2.990054130554199 63.44573974609375 255 255 255
80.09661102294922 4.474117755889893 61.833003997802734 255 255 255
72.37895965576172 2.3606948852539062 71.85784912109375 255 255 255
80.65570831298828 2.3460140228271484 96.95027923583984 255 255 255
77.0029067993164 3.8248960971832275 97.5738754272461 255 255 255
84.33621215820312 4.054287910461426 75.39265441894531 255 255 255
104.97093200683594 11.658084869384766 181.19679260253906 255 255 255
95.78732299804688 -0.583480179309845 175.56072998046875 255 255 255
76.64437866210938 3.6987359523773193 51.265445709228516 255 255 255
103.70550537109375 10.229180335998535 173.51344299316406 255 255 255
103.53211212158203 5.344605445861816 187.4251708984375 255 255 255
120.3614501953125 9.7689847946167 168.77955627441406 255 255 255
108.92440032958984 0.1482498049736023 180.16307067871094 255 255 255
96.72859954833984 15.274327278137207 206.06973266601562 255 255 255
104.38199615478516 -1.5207910537719727 183.3865509033203 255 255 255
118.15730285644531 6.583837509155273 170.51312255859375 255 255 255
102.3458023071289 3.2849862575531006 179.7610321044922 255 255 255
113.96846771240234 1.4250080585479736 171.29747009277344 255 255 255
101.82745361328125 11.795713424682617 186.04812622070312 255 255 255
113.15385437011719 1.1220612525939941 148.15426635742188 255 255 255
103.06571197509766 0.3390008807182312 184.1908416748047 255 255 255
119.68570709228516 -4.105788230895996 153.20669555664062 255 255 255
99.91744995117188 -2.199908494949341 180.04568481445312 255 255 255
82.4449462890625 6.899024963378906 88.0048599243164 255 255 255
99.11978149414062 3.028365135192871 160.69732666015625 255 255 255
86.91124725341797 4.983708381652832 92.06456756591797 255 255 255
119.98007202148438 0.7609105706214905 169.08175659179688 255 255 255
97.32864379882812 8.739198684692383 199.3785400390625 255 255 255
108.92432403564453 8.233471870422363 180.43807983398438 255 255 255
71.77185821533203 2.490617513656616 72.6907730102539 255 255 255
87.24481964111328 -17.87205696105957 27.637060165405273 255 255 255
90.57256317138672 -19.695697784423828 27.584047317504883 255 255 255
100.22721862792969 -3.035219669342041 120.44227600097656 255 255 255
83.68536376953125 11.275009155273438 147.78321838378906 255 255 255
84.25017547607422 -6.948594570159912 132.9315643310547 255 255 255
85.68714141845703 7.935756206512451 158.62423706054688 255 255 255
88.51222229003906 1.93439781665802 144.87127685546875 255 255 255
88.38810729980469 13.063974380493164 167.9225616455078 255 255 255
94.84553527832031 7.551403999328613 162.15663146972656 255 255 255
96.50482177734375 6.025849342346191 164.37936401367188 255 255 255
88.41642761230469 12.816198348999023 159.9344482421875 255 255 255
95.63848114013672 11.5634765625 158.42933654785156 255 255 255
90.24478912353516 10.176108360290527 131.53424072265625 255 255 255
79.09766387939453 6.690258026123047 131.04534912109375 255 255 255
84.9991455078125 6.3786187171936035 83.2860107421875 255 255 255
91.80823516845703 -22.977807998657227 16.86287498474121 255 255 255
80.94749450683594 8.646893501281738 140.5758819580078 255 255 255
