-57.6751708984375 7.996474742889404 67.63311767578125 255 255 255
-57.617610931396484 8.507219314575195 67.3149642944336 255 255 255
-57.95054244995117 8.590500831604004 67.53606414794922 255 255 255
-53.062782287597656 8.423501968383789 67.60127258300781 255 255 255
-56.83197021484375 8.039576530456543 67.3649673461914 255 255 255
-58.45598220825195 7.988925933837891 67.87073516845703 255 255 255
-58.05708312988281 7.7785139083862305 67.35404205322266 255 255 255
-57.71614456176758 8.246856689453125 67.98551177978516 255 255 255
-58.79026794433594 8.522759437561035 69.034912109375 255 255 255
-57.5760612487793 8.526083946228027 64.26555633544922 255 255 255
-57.826568603515625 8.583908081054688 64.3104476928711 255 255 255
-53.07036590576172 8.430118560791016 67.6113510131836 255 255 255
-51.76339340209961 5.424069881439209 68.12358856201172 255 255 255
-51.76789855957031 5.146762847900391 69.13692474365234 255 255 255
-51.11503982543945 7.791828155517578 70.57386779785156 255 255 255
-52.43756866455078 8.325716018676758 67.79312896728516 255 255 255
-56.2951545715332 4.377743721008301 72.89378356933594 255 255 255
-52.3343391418457 6.167412281036377 68.01924896240234 255 255 255
-52.44828796386719 8.483084678649902 68.73719787597656 255 255 255
-54.170684814453125 5.654383659362793 69.65084075927734 255 255 255
-58.778560638427734 8.594523429870605 64.69176483154297 255 255 255
-62.673397064208984 8.843216896057129 62.503414154052734 255 255 255
-58.44110107421875 7.699338436126709 67.95771026611328 255 255 255
-59.80435562133789 8.727229118347168 67.2782211303711 255 255 255
-58.56019973754883 7.64212703704834 66.94318389892578 255 255 255
-59.25228500366211 7.698309421539307 67.33707427978516 255 255 255
-59.792720794677734 7.9706268310546875 67.11132049560547 255 255 255
-60.033607482910156 8.401369094848633 67.20722961425781 255 255 255
-60.05421829223633 8.39522647857666 67.20338439941406 255 255 255
-60.590938568115234 8.380178451538086 67.34710693359375 255 255 255
-64.70489501953125 9.089910507202148 62.81922149658203 255 255 255
-57.45425033569336 8.615202903747559 67.55404663085938 255 255 255
-58.03064727783203 8.238780975341797 66.03901672363281 255 255 255
-62.42673873901367 8.322990417480469 67.40715026855469 255 255 255
-62.50926971435547 7.723896503448486 67.56893157958984 255 255 255
-62.23958969116211 7.695983409881592 67.46351623535156 255 255 255
-63.886253356933594 8.569772720336914 67.01799774169922 255 255 255
-63.89289855957031 8.308805465698242 66.92127990722656 255 255 255
-65.15817260742188 9.154777526855469 67.11414337158203 255 255 255
-57.87326431274414 7.9217023849487305 68.07240295410156 255 255 255
-58.27367401123047 7.824051856994629 67.59356689453125 255 255 255
-58.39993667602539 7.813409805297852 68.3769302368164 255 255 255
-59.795711517333984 7.717532634735107 67.94111633300781 255 255 255
-61.487789154052734 8.684739112854004 64.43863677978516 255 255 255
-58.30141830444336 8.119006156921387 67.47221374511719 255 255 255
-58.14936828613281 8.64107608795166 67.68915557861328 255 255 255
-57.903987884521484 8.039302825927734 67.79255676269531 255 255 255
-59.028221130371094 7.5762224197387695 67.8161392211914 255 255 255
-59.62915802001953 7.817041397094727 67.21820068359375 255 255 255
-58.49015808105469 7.871567726135254 67.43251037597656 255 255 255
-58.021366119384766 8.357831954956055 67.70877838134766 255 255 255
-58.398048400878906 7.8501505851745605 67.37432861328125 255 255 255
-58.43806076049805 7.855830669403076 67.39389038085938 255 255 255
-59.19053268432617 8.000409126281738 67.21341705322266 255 255 255
-58.390743255615234 8.15799617767334 66.73974609375 255 255 255
-57.65001678466797 7.951344966888428 69.18338012695312 255 255 255
-57.596893310546875 8.003495216369629 69.3723373413086 255 255 255
-57.771453857421875 7.604066371917725 67.92402648925781 255 255 255
-60.36797332763672 7.7940592765808105 67.27571105957031 255 255 255
-59.15004348754883 7.754322528839111 67.35601043701172 255 255 255
-59.32490921020508 8.024923324584961 67.33256530761719 255 255 255
-60.08740997314453 7.7662529945373535 67.16004180908203 255 255 255
-60.495140075683594 7.9186692237854 67.13048553466797 255 255 255
-61.55070114135742 8.913924217224121 67.32439422607422 255 255 255
-63.21028518676758 8.819334030151367 62.974525451660156 255 255 255
-61.190155029296875 8.742198944091797 67.04302215576172 255 255 255
-64.15679168701172 8.358549118041992 67.00891876220703 255 255 255
-62.87356185913086 8.668990135192871 66.6948471069336 255 255 255
-59.37722396850586 8.348846435546875 67.19224548339844 255 255 255
-59.62617111206055 8.16944408416748 67.25132751464844 255 255 255
-59.58189010620117 8.572226524353027 64.00899505615234 255 255 255
-60.106353759765625 8.4015531539917 67.20854187011719 255 255 255
-61.169437408447266 8.80730152130127 67.256591796875 255 255 255
-61.037994384765625 8.467802047729492 67.11539459228516 255 255 255
-61.57769775390625 8.228766441345215 67.11228942871094 255 255 255
-62.2572021484375 8.787014961242676 67.09550476074219 255 255 255
-61.86549377441406 8.687481880187988 66.87740325927734 255 255 255
-63.725276947021484 8.91586685180664 67.08427429199219 255 255 255
-67.62153625488281 8.922431945800781 68.31135559082031 255 255 255
-62.372867584228516 8.432421684265137 67.1395492553711 255 255 255
-62.93923568725586 8.531074523925781 67.1148910522461 255 255 255
-63.168575286865234 8.515225410461426 67.09127044677734 255 255 255
-65.01667785644531 8.66579532623291 63.31888961791992 255 255 255
-67.85262298583984 9.124785423278809 64.42750549316406 255 255 255
-68.0090103149414 8.325956344604492 66.79291534423828 255 255 255
-68.25312805175781 8.346451759338379 66.83838653564453 255 255 255
-68.39990997314453 8.808159828186035 59.82083511352539 255 255 255
-68.0997314453125 8.47890567779541 66.70889282226562 255 255 255
-69.52359771728516 8.949210166931152 60.3708610534668 255 255 255
-69.00984191894531 8.90009880065918 59.94522476196289 255 255 255
-69.40631103515625 8.96779727935791 59.746742248535156 255 255 255
-69.28549194335938 8.680323600769043 66.69306945800781 255 255 255
-70.181640625 5.883194446563721 60.53340530395508 255 255 255
-71.23299407958984 9.133691787719727 61.2169189453125 255 255 255
-75.50269317626953 9.825727462768555 60.166378021240234 255 255 255
-69.97432708740234 4.297595024108887 59.419891357421875 255 255 255
-61.05385208129883 7.761984825134277 67.74897003173828 255 255 255
-70.32428741455078 5.8610310554504395 60.412410736083984 255 255 255
-70.28994750976562 5.845313549041748 60.46368408203125 255 255 255
-71.78595733642578 4.902781963348389 60.08926010131836 255 255 255
-81.67436981201172 3.4051930904388428 57.4546012878418 255 255 255
-74.4034652709961 0.5047168731689453 60.4559211730957 255 255 255
-61.460243225097656 8.323600769042969 67.13896179199219 255 255 255
-60.795658111572266 7.679599761962891 67.82418823242188 255 255 255
-61.44894790649414 8.669172286987305 64.42206573486328 255 255 255
-61.382347106933594 8.294471740722656 67.11144256591797 255 255 255
-61.491432189941406 7.770167827606201 67.41191864013672 255 255 255
-66.83084106445312 9.123614311218262 62.774234771728516 255 255 255
-75.27780151367188 10.55687427520752 61.54027557373047 255 255 255
-67.22575378417969 8.828415870666504 60.25770950317383 255 255 255
-65.03862762451172 8.058558464050293 66.8615951538086 255 255 255
-67.3946762084961 8.977636337280273 62.85337448120117 255 255 255
-66.76670837402344 8.758133888244629 60.39840316772461 255 255 255
-80.15228271484375 0.1062411516904831 56.462738037109375 255 255 255
-82.2666015625 -0.878542423248291 55.27569580078125 255 255 255
-77.77288055419922 0.6524983644485474 62.81155014038086 255 255 255
-93.77405548095703 -2.3108670711517334 62.09119415283203 255 255 255
-74.88589477539062 9.346010208129883 61.34914779663086 255 255 255
-67.13966369628906 7.775317668914795 67.73356628417969 255 255 255
-65.85716247558594 8.741983413696289 63.12913131713867 255 255 255
-73.85848999023438 8.232518196105957 69.73817443847656 255 255 255
-64.70896911621094 8.569786071777344 63.149925231933594 255 255 255
-61.77420425415039 8.016179084777832 67.30931091308594 255 255 255
-61.69209671020508 8.001457214355469 67.26797485351562 255 255 255
-62.705230712890625 8.948782920837402 67.31600952148438 255 255 255
-62.3184928894043 8.815353393554688 67.1395034790039 255 255 255
-62.55586242675781 7.859655380249023 67.40325164794922 255 255 255
-65.36325073242188 9.34935474395752 67.83116149902344 255 255 255
-62.678279876708984 8.419316291809082 66.92391967773438 255 255 255
-62.59168243408203 7.738351821899414 67.6166763305664 255 255 255
-61.82136917114258 8.514517784118652 66.41776275634766 255 255 255
-64.07540130615234 8.23323917388916 67.11909484863281 255 255 255
-71.01710510253906 10.014992713928223 62.42973709106445 255 255 255
-66.86782836914062 8.781143188476562 60.43600845336914 255 255 255
-66.82608032226562 7.842886924743652 67.6138687133789 255 255 255
-59.48777389526367 8.143482208251953 67.17662048339844 255 255 255
-60.033016204833984 8.7211275100708 67.25694274902344 255 255 255
-59.82805252075195 7.646009922027588 67.57867431640625 255 255 255
-61.49810791015625 8.608263969421387 62.70363998413086 255 255 255
-60.3915901184082 8.071615219116211 67.12470245361328 255 255 255
-60.473506927490234 8.19567584991455 67.14433288574219 255 255 255
-60.685096740722656 7.713470935821533 67.53362274169922 255 255 255
-60.43999481201172 7.68843412399292 67.40719604492188 255 255 255
-60.14405059814453 8.163909912109375 66.87171936035156 255 255 255
-61.54850769042969 8.702999114990234 64.46480560302734 255 255 255
-62.567359924316406 8.867100715637207 63.95941925048828 255 255 255
-61.216304779052734 8.820871353149414 67.2777328491211 255 255 255
-63.12234878540039 8.790772438049316 62.994361877441406 255 255 255
-61.73029327392578 8.005120277404785 67.27547454833984 255 255 255
-62.249359130859375 8.79349422454834 67.09290313720703 255 255 255
-74.14663696289062 0.9585380554199219 61.220191955566406 255 255 255
-69.35350799560547 8.927098274230957 60.4437370300293 255 255 255
-71.96000671386719 9.150155067443848 61.504905700683594 255 255 255
-61.10309600830078 8.47206974029541 67.1430892944336 255 255 255
-65.16187286376953 8.212175369262695 66.93936920166016 255 255 255
-66.7983627319336 8.925655364990234 61.571678161621094 255 255 255
-68.66409301757812 9.315357208251953 66.81465911865234 255 255 255
-70.03153228759766 8.941399574279785 58.84001922607422 255 255 255
-70.18538665771484 5.3928608894348145 58.556251525878906 255 255 255
-70.84667205810547 8.54808521270752 67.58550262451172 255 255 255
-67.30547332763672 7.864654064178467 67.57394409179688 255 255 255
-70.39412689208984 5.142745018005371 59.097007751464844 255 255 255
-66.46279907226562 8.534063339233398 66.82575988769531 255 255 255
-67.7899398803711 8.265091896057129 66.91704559326172 255 255 255
-70.05391693115234 5.312239646911621 59.24685287475586 255 255 255
-69.40763854980469 5.297948837280273 59.463077545166016 255 255 255
-69.16403198242188 8.909430503845215 60.51541519165039 255 255 255
-69.46953582763672 8.932196617126465 60.42530059814453 255 255 255
-74.1228256225586 10.015891075134277 67.48091125488281 255 255 255
-70.21467590332031 5.857332229614258 60.48896408081055 255 255 255
-64.14952087402344 8.762714385986328 61.34037399291992 255 255 255
-63.82603073120117 8.2112455368042 67.03679656982422 255 255 255
-70.39155578613281 9.230436325073242 66.7593002319336 255 255 255
-72.44995880126953 9.332231521606445 62.674232482910156 255 255 255
-64.87349700927734 8.436311721801758 66.88102722167969 255 255 255
-66.80230712890625 9.085780143737793 63.97196960449219 255 255 255
-67.32328033447266 9.082301139831543 64.44662475585938 255 255 255
-75.78096008300781 10.588963508605957 61.436851501464844 255 255 255
-68.44651794433594 8.747830390930176 66.60672760009766 255 255 255
-68.66752624511719 8.847199440002441 60.13962173461914 255 255 255
-69.2422103881836 8.980653762817383 59.87327194213867 255 255 255
-68.90528106689453 8.61560344696045 66.5771713256836 255 255 255
-70.49331665039062 5.139644145965576 58.904205322265625 255 255 255
-76.84857940673828 1.1405458450317383 58.88814163208008 255 255 255
-65.88235473632812 8.865568161010742 62.949398040771484 255 255 255
-70.76344299316406 5.498882293701172 59.87668228149414 255 255 255
-70.96391296386719 4.092357635498047 58.6014518737793 255 255 255
-66.02999114990234 4.245839595794678 62.38666534423828 255 255 255
-78.72393035888672 10.322820663452148 67.30809783935547 255 255 255
-74.15007781982422 9.316122055053711 60.9769401550293 255 255 255
-67.71873474121094 9.106136322021484 64.42770385742188 255 255 255
-69.78783416748047 5.966555595397949 60.72408676147461 255 255 255
-71.11459350585938 9.133722305297852 61.28427505493164 255 255 255
-69.34821319580078 8.801033973693848 62.78706359863281 255 255 255
-74.93029022216797 9.271037101745605 58.65420150756836 255 255 255
-74.08648681640625 9.172829627990723 59.536705017089844 255 255 255
-73.94702911376953 9.23678207397461 60.92597198486328 255 255 255
-90.52362823486328 11.854162216186523 56.827796936035156 255 255 255
-74.18267059326172 9.145757675170898 61.615966796875 255 255 255
-75.9911117553711 9.29326343536377 59.748931884765625 255 255 255
-74.8288803100586 9.12857723236084 60.219825744628906 255 255 255
-75.80746459960938 9.263453483581543 59.83489227294922 255 255 255
-71.62397766113281 9.223451614379883 62.21353530883789 255 255 255
-71.9090805053711 9.291818618774414 62.1219367980957 255 255 255
-71.5545654296875 9.217904090881348 62.18986892700195 255 255 255
-76.9613037109375 9.047618865966797 67.22001647949219 255 255 255
-78.4108657836914 3.133814573287964 61.942832946777344 255 255 255
-78.78267669677734 3.0804271697998047 57.748497009277344 255 255 255
-79.53731536865234 2.8436501026153564 57.386634826660156 255 255 255
-80.501953125 2.611171007156372 56.96599578857422 255 255 255
-71.71621704101562 9.388632774353027 64.35659790039062 255 255 255
-72.40280151367188 9.517074584960938 64.33734130859375 255 255 255
-71.3635482788086 9.153867721557617 61.43773651123047 255 255 255
-71.3831787109375 9.179409980773926 62.234222412109375 255 255 255
-71.4046630859375 9.18203353881836 62.183048248291016 255 255 255
-73.0405502319336 9.299363136291504 62.80799102783203 255 255 255
-73.97746276855469 9.161202430725098 59.5767822265625 255 255 255
-74.27486419677734 9.344159126281738 61.3377799987793 255 255 255
-70.40838623046875 5.859432697296143 60.39752960205078 255 255 255
-72.0375747680664 4.375002861022949 58.9210090637207 255 255 255
-69.87920379638672 5.95493745803833 60.63226318359375 255 255 255
-70.61864471435547 5.395623683929443 60.201473236083984 255 255 255
-72.46464538574219 8.741751670837402 66.59040069580078 255 255 255
-72.5107192993164 8.754993438720703 66.60325622558594 255 255 255
-73.26818084716797 5.912993431091309 59.69182205200195 255 255 255
-69.31562805175781 9.137184143066406 64.40312957763672 255 255 255
-70.7651596069336 4.706258296966553 59.476253509521484 255 255 255
-72.89460754394531 9.409150123596191 62.655879974365234 255 255 255
-71.21095275878906 8.829421997070312 66.60456848144531 255 255 255
-72.50534057617188 8.757376670837402 66.60111236572266 255 255 255
-72.73207092285156 5.967421531677246 59.88369369506836 255 255 255
-69.9635009765625 8.786652565002441 66.84330749511719 255 255 255
-70.5113296508789 9.10371208190918 60.49271011352539 255 255 255
-72.2034683227539 8.6842679977417 67.28569793701172 255 255 255
-74.26655578613281 4.710027694702148 58.35213088989258 255 255 255
-68.07564544677734 9.060700416564941 62.80410385131836 255 255 255
-68.53802490234375 9.132213592529297 62.79644775390625 255 255 255
-79.58365631103516 11.27987289428711 60.796138763427734 255 255 255
-68.4876480102539 8.823025703430176 59.77324295043945 255 255 255
-68.04267883300781 8.698141098022461 66.7673568725586 255 255 255
-70.05663299560547 9.033354759216309 60.624515533447266 255 255 255
-72.57846069335938 5.756182670593262 59.83591842651367 255 255 255
-72.9355697631836 8.805379867553711 66.70567321777344 255 255 255
-73.9502182006836 9.157829284667969 59.60377883911133 255 255 255
-74.26061248779297 8.787349700927734 66.5654067993164 255 255 255
-77.86160278320312 9.051251411437988 55.92302703857422 255 255 255
-65.55110168457031 8.932788848876953 64.65853881835938 255 255 255
-65.80860137939453 8.856536865234375 62.97565460205078 255 255 255
-68.56500244140625 9.199772834777832 66.81260681152344 255 255 255
-73.07225036621094 9.510583877563477 58.33116912841797 255 255 255
-68.11689758300781 9.035447120666504 62.90839767456055 255 255 255
-71.83418273925781 9.170695304870605 58.83534622192383 255 255 255
-71.54342651367188 4.528176307678223 59.23604202270508 255 255 255
-71.44930267333984 5.227849006652832 60.23038101196289 255 255 255
-71.40863800048828 4.465613842010498 59.575286865234375 255 255 255
-71.31248474121094 9.138694763183594 61.45760726928711 255 255 255
-71.01701354980469 8.756494522094727 66.52957153320312 255 255 255
-73.92469024658203 9.749970436096191 60.82706069946289 255 255 255
-73.14213562011719 9.314360618591309 59.545448303222656 255 255 255
-72.33806610107422 5.822465896606445 60.001686096191406 255 255 255
-72.76140594482422 9.256468772888184 62.843814849853516 255 255 255
-72.16739654541016 6.2727179527282715 60.506832122802734 255 255 255
-72.26799774169922 9.15248966217041 62.93210983276367 255 255 255
-74.21324157714844 9.195813179016113 59.45753860473633 255 255 255
-74.09517669677734 9.260496139526367 60.865665435791016 255 255 255
-73.93110656738281 9.276657104492188 61.39751434326172 255 255 255
-70.89530944824219 8.858753204345703 66.7551040649414 255 255 255
-75.51725769042969 9.436813354492188 62.85173034667969 255 255 255
-77.7413101196289 9.242920875549316 66.94074249267578 255 255 255
-77.53192138671875 3.4264416694641113 63.04400634765625 255 255 255
-114.51517486572266 10.673656463623047 70.33729553222656 255 255 255
-70.58275604248047 9.162866592407227 62.875823974609375 255 255 255
-75.7762222290039 9.005339622497559 66.56194305419922 255 255 255
-76.32674407958984 9.408947944641113 61.59209442138672 255 255 255
-75.82707977294922 8.743806838989258 66.35540771484375 255 255 255
-80.22017669677734 3.097438097000122 62.04316711425781 255 255 255
-80.89335632324219 3.4127073287963867 62.43535614013672 255 255 255
-85.91661071777344 2.0999505519866943 56.395633697509766 255 255 255
-79.6524887084961 3.4987850189208984 62.8564567565918 255 255 255
-81.79071807861328 2.776160955429077 58.57655334472656 255 255 255
-74.31094360351562 9.515128135681152 61.059017181396484 255 255 255
-81.37703704833984 4.976796627044678 62.10393524169922 255 255 255
-92.09291076660156 12.15527057647705 68.35415649414062 255 255 255
-79.96162414550781 9.67184066772461 64.74930572509766 255 255 255
-83.09722137451172 3.9560611248016357 58.32878494262695 255 255 255
-82.4196548461914 9.594176292419434 58.98477554321289 255 255 255
-74.62345123291016 9.642403602600098 62.48528289794922 255 255 255
-73.27168273925781 9.346479415893555 62.76934051513672 255 255 255
-73.58979034423828 9.484919548034668 64.2439193725586 255 255 255
-73.26879119873047 9.29056453704834 61.46744155883789 255 255 255
-73.66020202636719 9.21874713897705 61.53433609008789 255 255 255
-75.83628845214844 9.67458438873291 60.73764419555664 255 255 255
-69.78815460205078 8.756475448608398 66.58489227294922 255 255 255
-84.05387878417969 11.268702507019043 68.2796630859375 255 255 255
-83.6380386352539 5.250156879425049 55.44346618652344 255 255 255
-80.38032531738281 9.969189643859863 66.79470825195312 255 255 255
-82.85050201416016 2.4182000160217285 56.79768371582031 255 255 255
-71.66033172607422 9.365055084228516 64.35011291503906 255 255 255
-71.08155059814453 5.798708915710449 60.19557189941406 255 255 255
-103.11791229248047 14.090475082397461 70.74153900146484 255 255 255
-81.5871810913086 3.3121488094329834 58.08760070800781 255 255 255
-73.06942749023438 9.39404296875 64.30179595947266 255 255 255
-69.76827239990234 8.542342185974121 66.56050109863281 255 255 255
-71.35926055908203 9.311284065246582 64.35553741455078 255 255 255
-69.960205078125 8.691984176635742 66.5816421508789 255 255 255
-74.98394775390625 9.298883438110352 62.993194580078125 255 255 255
-76.27227783203125 9.515600204467773 63.49067306518555 255 255 255
-77.33984375 9.612750053405762 61.21687316894531 255 255 255
-79.48456573486328 9.347810745239258 66.5274658203125 255 255 255
-83.01201629638672 2.799898386001587 57.7068977355957 255 255 255
-80.04276275634766 4.008660316467285 62.15975570678711 255 255 255
-82.3720703125 2.540086030960083 59.01835632324219 255 255 255
-75.74930572509766 9.382184982299805 61.15170669555664 255 255 255
-75.81159973144531 9.26551628112793 59.80807113647461 255 255 255
-82.45674133300781 10.508777618408203 59.63724899291992 255 255 255
-76.84052276611328 9.316354751586914 60.21356964111328 255 255 255
-88.26432037353516 1.3046822547912598 60.65420913696289 255 255 255
-81.1683349609375 5.835911750793457 61.84059524536133 255 255 255
-83.13663482666016 5.507065773010254 61.4263916015625 255 255 255
-92.50413513183594 4.677567481994629 57.20077133178711 255 255 255
-96.53324127197266 2.607820510864258 60.37678146362305 255 255 255
-84.7342758178711 2.390104293823242 58.25630187988281 255 255 255
-82.02474212646484 3.575551986694336 60.376564025878906 255 255 255
-94.53536224365234 -0.6646614670753479 54.52330017089844 255 255 255
-84.30435943603516 9.623542785644531 66.80332946777344 255 255 255
-70.78950500488281 9.280987739562988 64.91239166259766 255 255 255
-93.59867858886719 -0.9138661623001099 53.7235221862793 255 255 255
-83.42284393310547 2.51833438873291 57.916358947753906 255 255 255
-80.13496398925781 3.5791471004486084 62.55643081665039 255 255 255
-74.35877227783203 9.22762393951416 59.34172439575195 255 255 255
-75.55168914794922 9.21549129486084 59.93770217895508 255 255 255
-75.4905776977539 9.335502624511719 61.25326919555664 255 255 255
-76.30763244628906 9.074869155883789 66.72065734863281 255 255 255
-77.88741302490234 9.615598678588867 64.17300415039062 255 255 255
-75.5914077758789 9.359030723571777 61.204612731933594 255 255 255
-75.58297729492188 9.359113693237305 61.20987319946289 255 255 255
-82.52433013916016 9.944685935974121 64.29911041259766 255 255 255
-90.67443084716797 11.38022518157959 67.4020004272461 255 255 255
-87.20989227294922 10.605570793151855 67.07781982421875 255 255 255
-88.12213897705078 10.07272720336914 66.43441009521484 255 255 255
-85.0802001953125 7.076595783233643 57.871726989746094 255 255 255
-78.63533020019531 9.79063606262207 64.0936050415039 255 255 255
-78.4958724975586 9.773364067077637 63.43172836303711 255 255 255
-78.4205322265625 9.755189895629883 63.438758850097656 255 255 255
-76.9168930053711 9.439146995544434 59.23058319091797 255 255 255
-77.12901306152344 9.433859825134277 60.429954528808594 255 255 255
-76.51087188720703 5.009282112121582 59.14362335205078 255 255 255
-77.39867401123047 9.502788543701172 62.790382385253906 255 255 255
-79.35737609863281 9.47278881072998 60.1232795715332 255 255 255
-80.36109924316406 9.73946762084961 62.706443786621094 255 255 255
-82.34432983398438 9.772260665893555 58.80557632446289 255 255 255
-77.54535675048828 9.55282211303711 61.62025451660156 255 255 255
-78.1516342163086 9.445338249206543 60.28883743286133 255 255 255
-79.35990905761719 9.732831001281738 63.975162506103516 255 255 255
-78.65101623535156 9.701035499572754 65.20306396484375 255 255 255
-77.25055694580078 9.457816123962402 62.830509185791016 255 255 255
-74.69314575195312 9.468658447265625 64.02205657958984 255 255 255
-75.74368286132812 9.397317886352539 61.13528823852539 255 255 255
-75.3389663696289 9.237004280090332 62.24460983276367 255 255 255
-76.71148681640625 9.604822158813477 63.44869613647461 255 255 255
-76.84626007080078 9.32175350189209 60.189125061035156 255 255 255
-77.87136840820312 9.386604309082031 60.390384674072266 255 255 255
-76.07451629638672 9.336080551147461 61.669437408447266 255 255 255
-78.02088928222656 9.65113353729248 62.61864471435547 255 255 255
-81.57778930664062 9.738574028015137 65.88383483886719 255 255 255
-84.31356048583984 9.615520477294922 57.4806022644043 255 255 255
-78.0344009399414 9.673130989074707 62.881587982177734 255 255 255
-78.15283966064453 9.437409400939941 60.27428436279297 255 255 255
-80.85478973388672 4.09945821762085 59.52133560180664 255 255 255
-79.67349243164062 9.588839530944824 64.66838073730469 255 255 255
-82.06681823730469 10.059041976928711 64.78206634521484 255 255 255
-81.7429428100586 9.967812538146973 64.79898834228516 255 255 255
-83.1003189086914 4.076815128326416 58.58837890625 255 255 255
-81.99456024169922 9.854964256286621 64.29208374023438 255 255 255
-81.53899383544922 9.927300453186035 64.78242492675781 255 255 255
-81.50204467773438 9.8989839553833 63.651798248291016 255 255 255
-81.6562271118164 9.929916381835938 63.64353942871094 255 255 255
-80.99758911132812 9.716073036193848 63.030303955078125 255 255 255
-81.94661712646484 9.623035430908203 66.42655181884766 255 255 255
-82.9613037109375 9.963449478149414 60.44369125366211 255 255 255
-77.81085968017578 9.59245777130127 63.52373504638672 255 255 255
-77.97679138183594 9.625687599182129 64.10857391357422 255 255 255
-86.89877319335938 10.33006477355957 66.30610656738281 255 255 255
-86.53034210205078 10.235520362854004 66.22862243652344 255 255 255
-85.9480209350586 10.036946296691895 66.2177963256836 255 255 255
-89.83521270751953 10.149292945861816 61.36503219604492 255 255 255
-98.07036590576172 11.041509628295898 64.72315216064453 255 255 255
-88.50963592529297 10.261165618896484 62.33061218261719 255 255 255
-91.2569808959961 5.547666549682617 59.03123474121094 255 255 255
-93.28519439697266 5.101885795593262 58.209327697753906 255 255 255
-96.37349700927734 4.6233229637146 57.39017105102539 255 255 255
-90.7466049194336 5.981873512268066 58.725685119628906 255 255 255
-91.14169311523438 9.410566329956055 60.45627212524414 255 255 255
-82.02290344238281 9.87417221069336 64.31088256835938 255 255 255
-79.75961303710938 9.82369613647461 63.364871978759766 255 255 255
-79.95568084716797 9.811448097229004 65.0173110961914 255 255 255
-80.46904754638672 9.935735702514648 65.07111358642578 255 255 255
-90.56079864501953 9.001829147338867 60.12281799316406 255 255 255
-88.62718200683594 10.246307373046875 59.36018753051758 255 255 255
-91.39485931396484 9.699751853942871 62.66741943359375 255 255 255
-90.86055755615234 5.949799060821533 58.65132522583008 255 255 255
-90.5829086303711 5.838474750518799 59.54679870605469 255 255 255
-85.06668853759766 10.219213485717773 63.37356948852539 255 255 255
-89.11106872558594 10.867609977722168 61.49815368652344 255 255 255
-85.95343017578125 10.125600814819336 66.40028381347656 255 255 255
-85.99382019042969 9.856988906860352 59.552093505859375 255 255 255
-88.0249252319336 7.297132968902588 58.88534164428711 255 255 255
-87.74906921386719 6.751256465911865 59.189796447753906 255 255 255
-90.70964813232422 10.356078147888184 63.122257232666016 255 255 255
-90.96358489990234 10.401712417602539 63.07680892944336 255 255 255
-105.26142120361328 11.274964332580566 60.36258316040039 255 255 255
-91.34008026123047 10.235838890075684 62.27323532104492 255 255 255
-91.3416519165039 8.902214050292969 61.13237380981445 255 255 255
-90.5311508178711 9.337215423583984 59.886844635009766 255 255 255
-92.49236297607422 10.667379379272461 62.642337799072266 255 255 255
-92.2292251586914 10.493321418762207 61.89595031738281 255 255 255
-86.77465057373047 10.101615905761719 66.68449401855469 255 255 255
-85.83130645751953 5.955260276794434 58.17977523803711 255 255 255
-79.68534088134766 9.869261741638184 64.32477569580078 255 255 255
-80.75544738769531 10.027737617492676 62.87691879272461 255 255 255
-82.7762451171875 10.183329582214355 64.6808853149414 255 255 255
-84.52271270751953 9.952875137329102 62.573448181152344 255 255 255
-84.58336639404297 9.15709114074707 66.38994598388672 255 255 255
-86.45944213867188 9.925914764404297 59.30915451049805 255 255 255
-92.50350952148438 10.943549156188965 56.382423400878906 255 255 255
-82.66780090332031 9.685348510742188 62.63492202758789 255 255 255
-82.95386505126953 9.603989601135254 62.91117858886719 255 255 255
-86.60208892822266 10.258810997009277 66.19580078125 255 255 255
-92.72929382324219 6.430537223815918 56.9735107421875 255 255 255
-87.834228515625 6.833395957946777 59.258026123046875 255 255 255
-81.39257049560547 9.822558403015137 64.61991119384766 255 255 255
-120.68628692626953 9.193671226501465 57.22111892700195 255 255 255
-120.87735748291016 7.973440647125244 57.70414352416992 255 255 255
-119.74493408203125 9.284502029418945 57.681575775146484 255 255 255
-150.76556396484375 -1.458337426185608 50.2178955078125 255 255 255
-113.66770935058594 11.65211009979248 59.81306838989258 255 255 255
-121.11075592041016 12.339681625366211 60.532169342041016 255 255 255
-118.02982330322266 12.13868522644043 59.11246871948242 255 255 255
-139.92404174804688 16.9619140625 58.635128021240234 255 255 255
-120.14824676513672 12.079352378845215 58.893924713134766 255 255 255
-124.71723175048828 12.137248039245605 56.61924362182617 255 255 255
-121.08771514892578 11.454704284667969 58.74838638305664 255 255 255
-124.34100341796875 11.7517671585083 57.14622497558594 255 255 255
-121.49980163574219 8.46888256072998 58.1809196472168 255 255 255
-115.16199493408203 12.1538667678833 61.858089447021484 255 255 255
-114.97289276123047 12.114566802978516 63.32269287109375 255 255 255
-116.56553649902344 11.978860855102539 60.50709915161133 255 255 255
-133.9466094970703 15.310565948486328 55.22463607788086 255 255 255
-120.00611877441406 8.961065292358398 57.871429443359375 255 255 255
-120.07089233398438 8.747391700744629 57.1624641418457 255 255 255
-119.9435806274414 8.771491050720215 57.24228286743164 255 255 255
-124.09587097167969 12.19246768951416 57.9600944519043 255 255 255
-121.49669647216797 8.342376708984375 57.5103874206543 255 255 255
-122.93901062011719 12.064806938171387 58.725196838378906 255 255 255
-121.4806900024414 8.32075023651123 58.274314880371094 255 255 255
-117.41514587402344 12.245813369750977 59.69498825073242 255 255 255
-117.09932708740234 12.109087944030762 60.588653564453125 255 255 255
-118.41554260253906 12.319266319274902 60.800811767578125 255 255 255
-117.27667236328125 11.463085174560547 59.001060485839844 255 255 255
-114.78059387207031 12.061644554138184 61.609798431396484 255 255 255
-119.650390625 8.618756294250488 59.07181930541992 255 255 255
-121.16545104980469 7.8987274169921875 57.66486358642578 255 255 255
-121.77967834472656 12.476739883422852 67.07718658447266 255 255 255
-123.239013671875 12.62051773071289 66.55524444580078 255 255 255
-125.44231414794922 12.193806648254395 65.92754364013672 255 255 255
-127.93030548095703 4.25771951675415 59.293121337890625 255 255 255
-125.47346496582031 11.786264419555664 66.51693725585938 255 255 255
-127.9286117553711 4.215027332305908 59.073673248291016 255 255 255
-126.52763366699219 12.802854537963867 65.88691711425781 255 255 255
-109.76900482177734 10.752357482910156 61.924217224121094 255 255 255
-111.86415100097656 10.997466087341309 60.790855407714844 255 255 255
-113.56748962402344 11.1989107131958 53.3221321105957 255 255 255
-114.53608703613281 12.664542198181152 67.96320343017578 255 255 255
-106.60150146484375 11.326268196105957 62.27882385253906 255 255 255
-105.83578491210938 8.86774730682373 58.05681610107422 255 255 255
-104.88578033447266 8.887956619262695 58.46084976196289 255 255 255
-107.72776794433594 8.820540428161621 57.31077194213867 255 255 255
-103.14912414550781 11.088109016418457 66.47177124023438 255 255 255
-119.23572540283203 8.613761901855469 52.80429458618164 255 255 255
-102.81754302978516 10.48715591430664 62.117679595947266 255 255 255
-100.5047378540039 11.076434135437012 63.35942459106445 255 255 255
-88.4875717163086 9.968558311462402 61.93941879272461 255 255 255
-90.3330307006836 9.327312469482422 60.59737777709961 255 255 255
-95.72761535644531 10.22372055053711 62.24201202392578 255 255 255
-86.30540466308594 10.301874160766602 65.44705963134766 255 255 255
-89.38859558105469 9.358861923217773 62.3555793762207 255 255 255
-89.7137451171875 9.399858474731445 62.271236419677734 255 255 255
-92.17009735107422 10.052075386047363 59.018428802490234 255 255 255
-89.54461669921875 8.948928833007812 61.42942810058594 255 255 255
-90.69922637939453 9.173048973083496 59.362159729003906 255 255 255
-92.12584686279297 6.04855489730835 59.96078109741211 255 255 255
-103.1047592163086 10.6383695602417 62.21211624145508 255 255 255
-89.49504852294922 9.365787506103516 62.333892822265625 255 255 255
-90.72848510742188 9.544915199279785 62.87886047363281 255 255 255
-90.65367889404297 9.52365779876709 62.91682052612305 255 255 255
-89.42852020263672 9.803309440612793 62.25569534301758 255 255 255
-89.49028015136719 9.366008758544922 62.332061767578125 255 255 255
-92.30699157714844 10.117615699768066 61.088134765625 255 255 255
-90.14682006835938 9.805855751037598 62.653987884521484 255 255 255
-91.2320327758789 9.999960899353027 62.73619079589844 255 255 255
-90.65393829345703 10.041216850280762 62.4936408996582 255 255 255
-90.80243682861328 9.76225471496582 62.89286422729492 255 255 255
-90.88774871826172 9.75809097290039 62.875511169433594 255 255 255
-90.63809967041016 9.735042572021484 62.93014144897461 255 255 255
-90.49593353271484 9.849639892578125 59.901954650878906 255 255 255
-91.33088684082031 9.046896934509277 61.3963737487793 255 255 255
-90.10126495361328 9.916695594787598 62.696510314941406 255 255 255
-89.41828155517578 9.809041976928711 62.342220306396484 255 255 255
-90.17725372314453 9.46291732788086 62.03105163574219 255 255 255
-89.73551940917969 9.942503929138184 61.505619049072266 255 255 255
-88.30380249023438 9.718157768249512 62.05952072143555 255 255 255
-90.19998931884766 10.269333839416504 61.445499420166016 255 255 255
-92.40019226074219 10.554902076721191 60.25706100463867 255 255 255
-91.07147216796875 10.424447059631348 63.03701400756836 255 255 255
-89.72533416748047 10.154173851013184 59.95254898071289 255 255 255
-89.71884155273438 10.056450843811035 61.19184112548828 255 255 255
-91.37767028808594 9.960962295532227 59.20237731933594 255 255 255
-89.96724700927734 10.407317161560059 62.34423828125 255 255 255
-103.996337890625 10.142516136169434 61.156864166259766 255 255 255
-105.42230987548828 11.441020965576172 66.79007720947266 255 255 255
-105.47571563720703 11.42824935913086 66.81622314453125 255 255 255
-125.70314025878906 13.995482444763184 71.70549774169922 255 255 255
-105.57888793945312 8.893552780151367 58.16639709472656 255 255 255
-104.89262390136719 8.907018661499023 58.457706451416016 255 255 255
-99.3379135131836 11.05777645111084 63.00406265258789 255 255 255
-96.98696899414062 10.985847473144531 62.507102966308594 255 255 255
-96.05681610107422 10.773346900939941 62.706417083740234 255 255 255
-99.81102752685547 11.385798454284668 62.210453033447266 255 255 255
-97.81708526611328 10.855759620666504 63.22209167480469 255 255 255
-94.86590576171875 10.78555679321289 61.43490219116211 255 255 255
-95.01837921142578 10.72426700592041 62.16276931762695 255 255 255
-94.45731353759766 7.3094282150268555 61.63456344604492 255 255 255
-100.08331298828125 7.154370307922363 59.92837905883789 255 255 255
-98.44114685058594 10.958273887634277 62.20246505737305 255 255 255
-102.4489974975586 11.907432556152344 61.2973747253418 255 255 255
-91.21961975097656 9.62220287322998 62.662696838378906 255 255 255
-91.18310546875 10.460346221923828 63.09044647216797 255 255 255
-94.16189575195312 9.129618644714355 59.97945785522461 255 255 255
-91.71653747558594 9.18929672241211 61.348941802978516 255 255 255
-114.60437774658203 12.464094161987305 67.43497467041016 255 255 255
-110.70460510253906 8.692344665527344 59.60850524902344 255 255 255
-110.30935668945312 8.709117889404297 59.744205474853516 255 255 255
-102.71620178222656 10.472542762756348 62.165225982666016 255 255 255
-107.74771118164062 10.67060661315918 55.9886474609375 255 255 255
-107.5875473022461 10.76058292388916 62.11615753173828 255 255 255
-102.71172332763672 10.909523963928223 66.07237243652344 255 255 255
-105.52566528320312 8.541460037231445 58.34282302856445 255 255 255
-100.22271728515625 11.106184005737305 64.01022338867188 255 255 255
-105.54988861083984 11.861489295959473 62.62057113647461 255 255 255
-102.2472152709961 11.03864574432373 60.45665740966797 255 255 255
-109.58960723876953 11.193979263305664 60.536354064941406 255 255 255
-103.50666809082031 11.359911918640137 61.88312530517578 255 255 255
-104.92459106445312 10.182940483093262 62.1649169921875 255 255 255
-104.43846893310547 7.756596088409424 58.098758697509766 255 255 255
-121.55704498291016 11.79159164428711 48.2792854309082 255 255 255
-107.34842681884766 11.783774375915527 67.13739013671875 255 255 255
-99.98075866699219 11.28770923614502 62.22956848144531 255 255 255
-102.57129669189453 11.078986167907715 60.319515228271484 255 255 255
-101.6925048828125 11.232558250427246 66.72635650634766 255 255 255
-101.89199829101562 10.266016006469727 61.75689697265625 255 255 255
-100.06075286865234 11.168252944946289 63.3280143737793 255 255 255
-99.66313171386719 11.066701889038086 63.37641906738281 255 255 255
-97.8551025390625 10.890876770019531 61.22529220581055 255 255 255
-97.90208435058594 10.982902526855469 64.65894317626953 255 255 255
-98.5496826171875 10.933180809020996 66.56100463867188 255 255 255
-98.82493591308594 10.834122657775879 60.655513763427734 255 255 255
-107.51593017578125 5.8783769607543945 56.95376968383789 255 255 255
-94.56912231445312 7.285703659057617 61.59706115722656 255 255 255
-94.51896667480469 6.801072597503662 61.31181335449219 255 255 255
-94.5774154663086 7.277184009552002 61.5794677734375 255 255 255
-94.5176010131836 6.810995578765869 61.30989074707031 255 255 255
-95.08564758300781 7.4280219078063965 61.82655715942383 255 255 255
-95.09779357910156 7.40962553024292 61.821136474609375 255 255 255
-96.50802612304688 7.144155025482178 61.366275787353516 255 255 255
-90.43832397460938 9.854938507080078 62.192138671875 255 255 255
-90.68132781982422 9.543334007263184 62.901493072509766 255 255 255
-94.34227752685547 7.360069274902344 61.4203987121582 255 255 255
-94.45977783203125 7.326052188873291 61.37754440307617 255 255 255
-137.94186401367188 13.424583435058594 59.06350326538086 255 255 255
-94.43864440917969 7.34240198135376 61.383148193359375 255 255 255
-94.71278381347656 6.751862525939941 61.235694885253906 255 255 255
-94.7831802368164 10.625521659851074 62.636268615722656 255 255 255
-95.37906646728516 7.331124305725098 61.68218994140625 255 255 255
-95.86898040771484 10.738876342773438 62.740997314453125 255 255 255
-96.16879272460938 10.810182571411133 62.68398666381836 255 255 255
-164.604736328125 9.116072654724121 0.7046663761138916 255 255 255
-168.2900848388672 12.63647747039795 2.0248401165008545 255 255 255
-165.86070251464844 9.193163871765137 2.9284677505493164 255 255 255
-168.12185668945312 12.63327693939209 1.5118520259857178 255 255 255
-165.93348693847656 9.019787788391113 1.3638370037078857 255 255 255
-168.84523010253906 12.451992988586426 2.226222038269043 255 255 255
-167.90037536621094 12.631714820861816 2.0833613872528076 255 255 255
-173.38229370117188 13.356172561645508 0.8961535692214966 255 255 255
-173.30523681640625 13.30867862701416 1.0875929594039917 255 255 255
-164.3313751220703 7.923086166381836 0.6305578947067261 255 255 255
-164.8040771484375 8.200752258300781 1.4638735055923462 255 255 255
-165.03497314453125 8.347311019897461 1.9714516401290894 255 255 255
-165.66029357910156 8.253766059875488 1.7391784191131592 255 255 255
-168.1965789794922 12.645058631896973 1.8065801858901978 255 255 255
-172.1579132080078 13.36233901977539 1.1606335639953613 255 255 255
-168.78903198242188 12.884536743164062 -1.2249130010604858 255 255 255
-168.80319213867188 12.373152732849121 -1.6979751586914062 255 255 255
-168.80238342285156 12.367733001708984 -1.7103168964385986 255 255 255
-171.63909912109375 13.276055335998535 -2.5123181343078613 255 255 255
-171.71487426757812 13.196736335754395 -1.8621618747711182 255 255 255
-171.70152282714844 13.203289031982422 -1.8075065612792969 255 255 255
-168.41224670410156 11.73066234588623 -1.995307207107544 255 255 255
-168.71115112304688 12.231645584106445 -1.8634023666381836 255 255 255
-171.11734008789062 13.390830993652344 2.346713066101074 255 255 255
-163.85354614257812 10.53488540649414 -0.12019313126802444 255 255 255
-166.7864227294922 9.563815116882324 1.929988980293274 255 255 255
-166.1311798095703 9.28223705291748 2.486436367034912 255 255 255
-166.49378967285156 9.316604614257812 2.589792251586914 255 255 255
-164.8403778076172 10.356303215026855 1.5555673837661743 255 255 255
-174.0958709716797 13.373968124389648 1.0341734886169434 255 255 255
-167.488525390625 12.08993148803711 1.117177963256836 255 255 255
-170.38650512695312 13.09105110168457 2.555570363998413 255 255 255
-170.61190795898438 13.665910720825195 -6.41861629486084 255 255 255
-166.45762634277344 10.313614845275879 -0.15922193229198456 255 255 255
-166.37498474121094 9.967040061950684 3.6804871559143066 255 255 255
-165.15452575683594 9.311960220336914 3.796682357788086 255 255 255
-164.21145629882812 9.658563613891602 3.466780424118042 255 255 255
-166.46107482910156 9.31301212310791 2.507537603378296 255 255 255
-162.19447326660156 10.183114051818848 2.7270047664642334 255 255 255
-173.58460998535156 13.363534927368164 6.14519739151001 255 255 255
-169.46807861328125 13.544788360595703 11.728018760681152 255 255 255
-175.15484619140625 14.211516380310059 4.843178749084473 255 255 255
-173.98135375976562 13.532700538635254 5.444421291351318 255 255 255
-164.69908142089844 9.568172454833984 3.982104539871216 255 255 255
-111.73470306396484 11.367867469787598 61.88894271850586 255 255 255
-111.8757095336914 11.40230655670166 61.83141326904297 255 255 255
-111.42635345458984 10.964216232299805 61.06619644165039 255 255 255
-114.78304290771484 7.948053359985352 59.816471099853516 255 255 255
-114.42852020263672 7.884018421173096 60.773414611816406 255 255 255
-114.56019592285156 7.849968433380127 60.7053337097168 255 255 255
-115.00880432128906 12.11555290222168 63.312705993652344 255 255 255
-114.16468048095703 11.614954948425293 61.101924896240234 255 255 255
-122.40238952636719 14.103031158447266 58.343109130859375 255 255 255
-118.00765228271484 12.207611083984375 59.876529693603516 255 255 255
-112.96923828125 11.44595718383789 61.69324493408203 255 255 255
-113.05638885498047 11.423537254333496 61.64812469482422 255 255 255
-109.802490234375 10.73536205291748 61.76315689086914 255 255 255
-115.74039459228516 9.089007377624512 55.24329376220703 255 255 255
-102.78829956054688 10.76972484588623 61.749881744384766 255 255 255
-104.54273986816406 10.382125854492188 62.309635162353516 255 255 255
-100.01908111572266 11.064659118652344 63.985652923583984 255 255 255
-100.15904998779297 11.372919082641602 62.75279235839844 255 255 255
-99.09526062011719 11.114561080932617 63.01605224609375 255 255 255
-105.5905990600586 9.726856231689453 62.14186477661133 255 255 255
-139.1873016357422 13.789387702941895 63.46803665161133 255 255 255
-104.57992553710938 10.384866714477539 62.28922653198242 255 255 255
-104.91102600097656 10.868931770324707 62.3781852722168 255 255 255
-107.843994140625 11.625566482543945 60.97856140136719 255 255 255
-98.199462890625 10.913201332092285 62.43599319458008 255 255 255
-106.43902587890625 10.702022552490234 62.54057693481445 255 255 255
-100.56517791748047 11.101434707641602 63.337791442871094 255 255 255
-100.64242553710938 11.137622833251953 64.9703369140625 255 255 255
-101.52445220947266 10.90700912475586 60.71915054321289 255 255 255
-102.88467407226562 10.467510223388672 62.12315368652344 255 255 255
-102.42241668701172 11.163466453552246 63.12407684326172 255 255 255
-102.74362182617188 10.887789726257324 61.55729675292969 255 255 255
-103.65288543701172 11.116573333740234 60.84007263183594 255 255 255
-102.68638610839844 10.33605670928955 60.81439208984375 255 255 255
-103.27241516113281 8.511558532714844 58.55828857421875 255 255 255
-109.64086151123047 7.3144707679748535 58.97319412231445 255 255 255
-110.53501892089844 7.345637798309326 59.76559829711914 255 255 255
-102.78462219238281 10.474526405334473 62.143165588378906 255 255 255
-110.45613098144531 8.074762344360352 59.84000778198242 255 255 255
-108.99812316894531 7.632028579711914 61.31025695800781 255 255 255
-110.9955825805664 9.139911651611328 60.414085388183594 255 255 255
-110.89949798583984 9.176633834838867 60.426795959472656 255 255 255
-110.60757446289062 6.546403884887695 60.30891799926758 255 255 255
-108.40805053710938 7.010000228881836 60.933353424072266 255 255 255
-118.5220718383789 6.953888416290283 59.30864715576172 255 255 255
-104.51343536376953 10.405356407165527 61.64238739013672 255 255 255
-105.10030364990234 11.39831256866455 62.621219635009766 255 255 255
-103.91515350341797 11.177055358886719 61.17145919799805 255 255 255
-108.8301010131836 11.454556465148926 61.32466125488281 255 255 255
-107.51592254638672 10.423351287841797 58.56759262084961 255 255 255
-113.02298736572266 10.3299560546875 56.17915725708008 255 255 255
-109.44609832763672 8.298666954040527 58.898834228515625 255 255 255
-109.09324645996094 8.218791007995605 58.97732925415039 255 255 255
-109.07760620117188 8.207218170166016 58.956485748291016 255 255 255
-110.9306869506836 8.662604331970215 59.49534606933594 255 255 255
-110.02078247070312 8.738158226013184 59.87080383300781 255 255 255
-110.27509307861328 8.708182334899902 59.8026008605957 255 255 255
-110.60919189453125 7.432092189788818 59.525108337402344 255 255 255
-110.44438934326172 7.34934139251709 59.83438491821289 255 255 255
-109.91084289550781 7.285614013671875 58.86541748046875 255 255 255
-103.09835815429688 10.773009300231934 61.877254486083984 255 255 255
-107.34136962890625 11.59164047241211 62.650177001953125 255 255 255
-110.11173248291016 8.111035346984863 59.14683532714844 255 255 255
-110.6498794555664 6.465670108795166 60.33089065551758 255 255 255
-104.40699768066406 10.359326362609863 62.34477233886719 255 255 255
-104.60045623779297 10.250242233276367 62.2775993347168 255 255 255
-105.48534393310547 10.493678092956543 62.366294860839844 255 255 255
-106.9235610961914 11.494078636169434 62.54172897338867 255 255 255
-102.8468246459961 11.232010841369629 62.0286979675293 255 255 255
-103.05889129638672 11.271404266357422 61.97370529174805 255 255 255
-103.78364562988281 11.1142578125 61.23269271850586 255 255 255
-103.94648742675781 11.15419864654541 61.172447204589844 255 255 255
-103.6111831665039 11.109293937683105 60.870609283447266 255 255 255
-102.048583984375 11.186750411987305 62.81473159790039 255 255 255
-104.22026824951172 11.233057022094727 60.542137145996094 255 255 255
-103.60478973388672 11.100868225097656 60.889373779296875 255 255 255
-103.56681060791016 11.067780494689941 61.357364654541016 255 255 255
-101.80834197998047 10.129509925842285 62.588565826416016 255 255 255
-104.66656494140625 10.365477561950684 62.23625946044922 255 255 255
-104.37442779541016 10.099467277526855 62.35844421386719 255 255 255
-108.87588500976562 10.979654312133789 61.86619186401367 255 255 255
-107.09963989257812 10.397929191589355 58.78820037841797 255 255 255
-109.94632720947266 8.075733184814453 59.2710075378418 255 255 255
