-94.64554595947266 18.826061248779297 167.2530975341797 255 255 255
-93.3641128540039 19.398834228515625 172.62847900390625 255 255 255
-10.08122730255127 -7.517007827758789 68.90929412841797 255 255 255
-79.04290771484375 -6.982037544250488 47.19142532348633 255 255 255
-43.81273651123047 -2.629242181777954 47.85714340209961 255 255 255
-33.80538558959961 5.733285903930664 44.49117660522461 255 255 255
-38.710731506347656 -0.12895148992538452 48.88716506958008 255 255 255
-31.43998146057129 2.0128564834594727 48.182823181152344 255 255 255
-40.91808319091797 -0.5204100608825684 49.215843200683594 255 255 255
-43.734375 4.482594013214111 47.491615295410156 255 255 255
-45.044891357421875 -1.1216379404067993 47.024662017822266 255 255 255
-89.15162658691406 8.479307174682617 108.11559295654297 255 255 255
-94.67195892333984 10.218592643737793 103.32931518554688 255 255 255
-33.97710037231445 5.991023540496826 44.21495819091797 255 255 255
-14.422028541564941 6.744627475738525 48.986122131347656 255 255 255
-23.688501358032227 7.480652809143066 65.72979736328125 255 255 255
-21.875146865844727 7.4336700439453125 64.62889862060547 255 255 255
-14.390802383422852 4.796945571899414 58.14674758911133 255 255 255
-6.989264011383057 7.566319942474365 50.2409553527832 255 255 255
-25.633729934692383 -6.046759128570557 76.60265350341797 255 255 255
-17.405078887939453 0.5884857773780823 67.5162353515625 255 255 255
-56.21731948852539 -4.906224727630615 33.49061584472656 255 255 255
-92.88585662841797 7.03036642074585 181.90640258789062 255 255 255
-86.0277099609375 4.760577201843262 46.49441146850586 255 255 255
-94.08637237548828 -1.181515097618103 47.47064971923828 255 255 255
-93.96440124511719 -1.1138553619384766 35.09864807128906 255 255 255
-99.63752746582031 -16.78396224975586 20.231534957885742 255 255 255
-87.34915161132812 3.2801096439361572 32.61853790283203 255 255 255
-85.74097442626953 -6.853074073791504 50.698883056640625 255 255 255
-92.59012603759766 4.426441669464111 51.75290298461914 255 255 255
-84.21516418457031 5.878941059112549 58.42141342163086 255 255 255
-88.98600769042969 0.47949254512786865 74.09899139404297 255 255 255
-81.36585998535156 6.050455093383789 68.87681579589844 255 255 255
-103.67444610595703 -0.23718836903572083 62.746620178222656 255 255 255
-108.78372955322266 -0.8640761971473694 70.40874481201172 255 255 255
-83.52388000488281 4.304671764373779 54.84464645385742 255 255 255
-101.78531646728516 -6.90032958984375 98.53539276123047 255 255 255
-89.05521392822266 -3.1112399101257324 117.59892272949219 255 255 255
-100.37786865234375 3.149716854095459 62.74214172363281 255 255 255
-91.14403533935547 8.881505012512207 95.04713439941406 255 255 255
-87.30741119384766 2.863314151763916 71.48335266113281 255 255 255
-91.92007446289062 2.5549700260162354 55.04595184326172 255 255 255
-59.79913330078125 4.738509178161621 42.227439880371094 255 255 255
-91.4068603515625 -12.541590690612793 43.2476692199707 255 255 255
-77.17680358886719 -8.072422981262207 28.576799392700195 255 255 255
-83.18106842041016 -11.256386756896973 29.25760269165039 255 255 255
-76.94718170166016 -8.525168418884277 31.269880294799805 255 255 255
-92.13938903808594 -2.7003700733184814 71.2120132446289 255 255 255
-91.61775970458984 -3.5628769397735596 79.61216735839844 255 255 255
-78.3240966796875 5.543872833251953 56.82414245605469 255 255 255
-85.70197296142578 5.098958492279053 60.25341796875 255 255 255
-98.79139709472656 1.15071439743042 115.16351318359375 255 255 255
-94.78472137451172 3.828814744949341 70.91315460205078 255 255 255
-81.40084838867188 -7.5918097496032715 22.48154067993164 255 255 255
-30.004627227783203 3.745260000228882 47.252967834472656 255 255 255
-36.043006896972656 -0.03791546821594238 49.3380126953125 255 255 255
-31.939687728881836 5.685633659362793 40.981319427490234 255 255 255
-28.643003463745117 5.388744354248047 41.82864761352539 255 255 255
-39.82878494262695 0.1849231719970703 48.41429901123047 255 255 255
-29.123409271240234 5.38320779800415 41.679813385009766 255 255 255
-35.536190032958984 2.9334218502044678 48.225284576416016 255 255 255
-53.29464340209961 -4.35385799407959 30.485353469848633 255 255 255
-62.64059066772461 -0.26999369263648987 45.234657287597656 255 255 255
-58.9622917175293 -2.498995542526245 44.77019500732422 255 255 255
-50.68452453613281 3.844522714614868 46.46891403198242 255 255 255
-55.40370178222656 -4.2465314865112305 32.34206771850586 255 255 255
-52.51371383666992 -0.4028608798980713 46.6186637878418 255 255 255
-54.0305061340332 -9.551424980163574 47.140811920166016 255 255 255
-54.4096794128418 -11.440710067749023 47.70487976074219 255 255 255
-32.891685485839844 6.05152702331543 45.14450454711914 255 255 255
-41.838951110839844 -1.2207304239273071 34.782291412353516 255 255 255
-86.6541519165039 -2.0818912982940674 49.904605865478516 255 255 255
-101.1781234741211 -1.1892896890640259 43.846046447753906 255 255 255
-50.99396514892578 13.930352210998535 162.20651245117188 255 255 255
-39.42287826538086 18.25542449951172 155.62948608398438 255 255 255
117.25743103027344 15.000321388244629 145.6228790283203 255 255 255
12.496797561645508 9.497673034667969 198.0560760498047 255 255 255
-51.420631408691406 13.98094367980957 162.78562927246094 255 255 255
-51.614501953125 14.365092277526855 162.51492309570312 255 255 255
-43.77389907836914 11.290207862854004 161.93911743164062 255 255 255
-56.69862747192383 -1.964475393295288 31.74102783203125 255 255 255
-57.184478759765625 -3.1372244358062744 31.71919059753418 255 255 255
-62.39335632324219 1.3581115007400513 44.40562057495117 255 255 255
-61.239410400390625 -0.8380415439605713 44.79200744628906 255 255 255
-68.20851135253906 0.5425740480422974 30.547428131103516 255 255 255
-45.745506286621094 -2.740459680557251 47.52716827392578 255 255 255
-53.023834228515625 -3.3429970741271973 31.273120880126953 255 255 255
-51.97239303588867 1.3458051681518555 31.596435546875 255 255 255
-73.3482437133789 -3.6665005683898926 22.474515914916992 255 255 255
-42.58884048461914 0.19969916343688965 35.55857467651367 255 255 255
-39.85301208496094 3.0971202850341797 47.710018157958984 255 255 255
61.096309661865234 21.888172149658203 187.75906372070312 255 255 255
43.55418014526367 8.669614791870117 133.47268676757812 255 255 255
60.244544982910156 19.905715942382812 174.93568420410156 255 255 255
-3.3170220851898193 2.139493227005005 64.18142700195312 255 255 255
-14.272157669067383 -1.395910620689392 66.7347640991211 255 255 255
-35.58915710449219 0.8850691318511963 49.34125900268555 255 255 255
-38.42811965942383 1.1668096780776978 48.71437072753906 255 255 255
-41.0488395690918 0.11445731669664383 48.400978088378906 255 255 255
-30.496105194091797 4.432854175567627 46.98760223388672 255 255 255
-55.20359420776367 -7.2543206214904785 49.195037841796875 255 255 255
60.062721252441406 -1.9780278205871582 48.7007942199707 255 255 255
45.65129852294922 8.884753227233887 77.16947174072266 255 255 255
46.28692626953125 10.77103328704834 76.36386108398438 255 255 255
77.88701629638672 7.548589706420898 47.798831939697266 255 255 255
51.49554443359375 -1.54633367061615 50.15931701660156 255 255 255
-78.26048278808594 3.8291308879852295 56.881961822509766 255 255 255
-109.6867904663086 5.988341331481934 98.65824127197266 255 255 255
-84.03901672363281 5.522820949554443 58.18330383300781 255 255 255
-46.13483810424805 3.7870380878448486 37.894962310791016 255 255 255
-64.13542938232422 4.838583946228027 45.70730972290039 255 255 255
-40.32949447631836 1.476070761680603 47.92198944091797 255 255 255
-43.91358947753906 2.4838573932647705 47.58727264404297 255 255 255
-32.57884216308594 4.307183265686035 49.1030158996582 255 255 255
-108.20416259765625 -13.753432273864746 70.6638412475586 255 255 255
-88.72804260253906 5.3421549797058105 55.01206588745117 255 255 255
-93.40213012695312 5.783719062805176 52.19993209838867 255 255 255
-92.29210662841797 3.918215274810791 57.050628662109375 255 255 255
-105.65270233154297 -1.0661569833755493 44.40043258666992 255 255 255
-100.56837463378906 -3.8555171489715576 45.401344299316406 255 255 255
-107.12371063232422 3.097630500793457 67.26995849609375 255 255 255
-86.48974609375 -2.024554491043091 54.01127624511719 255 255 255
-102.7041015625 -5.61614465713501 44.06700134277344 255 255 255
-23.10260772705078 6.361352443695068 42.15363693237305 255 255 255
-25.94902801513672 1.7692058086395264 50.27490997314453 255 255 255
-92.55510711669922 -9.279667854309082 23.352689743041992 255 255 255
-46.9378776550293 -3.501399517059326 19.762893676757812 255 255 255
-12.519537925720215 6.504977226257324 38.75274658203125 255 255 255
20.610998153686523 1.4896959066390991 44.84089279174805 255 255 255
50.432151794433594 8.864748001098633 48.94050216674805 255 255 255
39.107505798339844 3.0389156341552734 51.378910064697266 255 255 255
49.29803466796875 0.15734000504016876 46.105491638183594 255 255 255
-47.41921615600586 3.3349356651306152 35.667930603027344 255 255 255
-32.31351089477539 5.726090908050537 40.717735290527344 255 255 255
-92.26911926269531 -5.861353397369385 27.827415466308594 255 255 255
-57.595035552978516 1.8923053741455078 45.704898834228516 255 255 255
-81.47866821289062 -1.724471926689148 43.708740234375 255 255 255
-66.73531341552734 13.785503387451172 161.37997436523438 255 255 255
-59.82456970214844 16.019567489624023 158.7587432861328 255 255 255
-69.08712005615234 18.776281356811523 158.2165985107422 255 255 255
-42.90176010131836 15.312149047851562 152.55215454101562 255 255 255
-75.25357055664062 7.968207359313965 146.72288513183594 255 255 255
-76.45569610595703 8.985942840576172 133.13560485839844 255 255 255
-61.74519729614258 -1.3876384496688843 45.05772018432617 255 255 255
-85.3477554321289 4.954165458679199 58.41989517211914 255 255 255
-96.80271911621094 -0.4569619596004486 113.9081802368164 255 255 255
-83.86541748046875 5.203563213348389 58.264930725097656 255 255 255
-89.21451568603516 1.6226307153701782 71.4879379272461 255 255 255
-90.71148681640625 -1.699183702468872 65.82337188720703 255 255 255
-116.36783599853516 2.0238442420959473 82.28468322753906 255 255 255
-91.51305389404297 -8.461578369140625 89.96080780029297 255 255 255
-33.8975715637207 2.9857237339019775 49.86703872680664 255 255 255
-93.15254974365234 0.6813760995864868 87.6864013671875 255 255 255
-98.4500961303711 4.459822177886963 86.56480407714844 255 255 255
-78.14867401123047 2.3113784790039062 57.23225021362305 255 255 255
-78.44799041748047 5.580098628997803 56.93117904663086 255 255 255
-78.10289764404297 4.0693535804748535 56.56584167480469 255 255 255
-396.90557861328125 -102.56610107421875 1124.1754150390625 255 255 255
-106.75786590576172 -14.65375804901123 113.14569091796875 255 255 255
-88.80171966552734 7.454706192016602 79.82698822021484 255 255 255
-97.43506622314453 3.2835097312927246 114.5044174194336 255 255 255
-21.448171615600586 4.742821216583252 41.74860763549805 255 255 255
-10.909934997558594 6.865063667297363 55.07111358642578 255 255 255
-62.25314712524414 -4.761721134185791 45.48066711425781 255 255 255
-60.187034606933594 5.668333530426025 44.26314163208008 255 255 255
-58.05905532836914 4.067989349365234 44.856224060058594 255 255 255
-51.915164947509766 0.9719195365905762 46.159950256347656 255 255 255
-57.46418762207031 5.384904384613037 44.433380126953125 255 255 255
-51.480560302734375 -0.3169037997722626 45.59445571899414 255 255 255
-62.420860290527344 -2.6058008670806885 45.007965087890625 255 255 255
-81.12559509277344 -8.590436935424805 38.94150924682617 255 255 255
-103.19108581542969 -15.85360336303711 9.213692665100098 255 255 255
-61.18860626220703 0.8842040300369263 44.59028244018555 255 255 255
28.457439422607422 5.263036251068115 55.07932662963867 255 255 255
-87.29866027832031 -3.0463709831237793 34.5146598815918 255 255 255
-105.5932388305664 0.8142501711845398 57.53327560424805 255 255 255
-107.54853820800781 -3.165637969970703 48.97306823730469 255 255 255
-101.70303344726562 -5.546614170074463 53.21086883544922 255 255 255
-105.30862426757812 -17.33534049987793 52.6359977722168 255 255 255
-43.4730110168457 -0.09327053278684616 48.30753707885742 255 255 255
-51.34869384765625 3.8467071056365967 46.03622817993164 255 255 255
-39.60706329345703 4.549062728881836 47.620384216308594 255 255 255
-33.71083450317383 1.2017929553985596 49.30622100830078 255 255 255
-56.99409484863281 -3.5320212841033936 32.387474060058594 255 255 255
-38.48067855834961 -0.7798339128494263 36.715789794921875 255 255 255
-47.00792694091797 2.792433500289917 47.16579818725586 255 255 255
-52.110958099365234 4.7661590576171875 47.267887115478516 255 255 255
-58.1965446472168 0.49711108207702637 45.314430236816406 255 255 255
-70.34927368164062 3.7182254791259766 28.35198974609375 255 255 255
-103.43421936035156 10.286199569702148 102.68123626708984 255 255 255
-83.48921203613281 4.393697261810303 54.04396057128906 255 255 255
-99.63340759277344 -2.4514904022216797 114.4041748046875 255 255 255
-99.03972625732422 -4.945704460144043 114.71196746826172 255 255 255
-89.71458435058594 5.24629020690918 55.031497955322266 255 255 255
-101.62742614746094 -0.49927377700805664 69.5708999633789 255 255 255
-89.28682708740234 0.15310315787792206 52.27556610107422 255 255 255
-107.0433578491211 2.363429546356201 46.56958770751953 255 255 255
-49.6136474609375 20.229713439941406 163.36375427246094 255 255 255
-87.8957748413086 10.823699951171875 104.43131256103516 255 255 255
-88.54003143310547 -10.342835426330566 116.53543090820312 255 255 255
23.374929428100586 12.267672538757324 32.774253845214844 255 255 255
46.73642349243164 -1.0454275608062744 38.63618087768555 255 255 255
-88.28911590576172 0.10758793354034424 115.47765350341797 255 255 255
-68.96727752685547 2.9289944171905518 103.9079818725586 255 255 255
49.81769943237305 6.050217151641846 86.38148498535156 255 255 255
45.88611602783203 11.94112777709961 84.57878875732422 255 255 255
-90.5129165649414 18.5911922454834 152.35142517089844 255 255 255
-87.0005111694336 20.110700607299805 168.45591735839844 255 255 255
-71.1457748413086 10.308267593383789 104.51420593261719 255 255 255
-63.57762908935547 9.352316856384277 113.18815612792969 255 255 255
-72.74320983886719 1.7118128538131714 105.41431427001953 255 255 255
-67.31874084472656 12.083290100097656 111.07019805908203 255 255 255
-89.63111114501953 0.7871447801589966 114.61363220214844 255 255 255
-58.47699737548828 2.9905683994293213 106.996826171875 255 255 255
-73.36923217773438 10.419159889221191 102.74683380126953 255 255 255
-45.817832946777344 19.679161071777344 160.9955596923828 255 255 255
-41.45294189453125 20.658199310302734 171.85195922851562 255 255 255
-93.56208038330078 19.343900680541992 164.61436462402344 255 255 255
-77.580078125 16.697162628173828 182.07447814941406 255 255 255
-77.51904296875 19.670146942138672 172.43890380859375 255 255 255
-93.31641387939453 11.099589347839355 180.55160522460938 255 255 255
-75.85205078125 13.41521167755127 117.87421417236328 255 255 255
-99.83196258544922 -5.683589458465576 114.19465637207031 255 255 255
-75.58320617675781 6.245239734649658 113.48357391357422 255 255 255
-114.51612854003906 -1.8139042854309082 135.8767852783203 255 255 255
50.5126838684082 -0.5323017239570618 271.1915283203125 255 255 255
-36.97651672363281 6.761960029602051 164.4586181640625 255 255 255
-50.32038879394531 11.104114532470703 124.47344207763672 255 255 255
-78.22175598144531 5.594542980194092 109.14224243164062 255 255 255
24.688982009887695 10.07339859008789 120.2086181640625 255 255 255
63.934940338134766 7.129179000854492 47.76372146606445 255 255 255
-74.17513275146484 8.988533020019531 130.76461791992188 255 255 255
-80.26013946533203 -0.29601219296455383 93.05130004882812 255 255 255
-79.86918640136719 14.94727897644043 137.04795837402344 255 255 255
-78.4835433959961 2.9384090900421143 101.75238037109375 255 255 255
-81.0787353515625 14.599099159240723 126.56285858154297 255 255 255
21.700523376464844 5.036707401275635 127.70105743408203 255 255 255
29.75752067565918 8.440215110778809 148.9573516845703 255 255 255
27.347009658813477 17.1444091796875 130.18748474121094 255 255 255
17.305063247680664 13.150256156921387 116.43917846679688 255 255 255
5.218071937561035 5.348885536193848 84.67192077636719 255 255 255
16.35317039489746 12.250048637390137 131.20277404785156 255 255 255
-76.70512390136719 8.617021560668945 180.995361328125 255 255 255
-96.90750885009766 6.974939823150635 85.7481918334961 255 255 255
-111.7452621459961 -12.229586601257324 130.93289184570312 255 255 255
-90.19207000732422 5.314133167266846 115.24309539794922 255 255 255
-90.10430145263672 5.622165679931641 113.12982940673828 255 255 255
-71.06068420410156 12.714262962341309 116.69145202636719 255 255 255
-73.63167572021484 0.4750455915927887 100.33393859863281 255 255 255
-64.84150695800781 -0.5133938789367676 129.0064239501953 255 255 255
-61.7330436706543 12.077271461486816 123.26438903808594 255 255 255
-79.84629821777344 9.443987846374512 87.40582275390625 255 255 255
-88.48967742919922 -3.0615155696868896 116.44157409667969 255 255 255
-95.161865234375 10.496989250183105 110.09406280517578 255 255 255
-87.9643783569336 4.13571310043335 113.08319854736328 255 255 255
-60.421531677246094 13.023000717163086 114.74688720703125 255 255 255
-51.71728515625 10.693222999572754 122.9863052368164 255 255 255
-84.97919464111328 17.111019134521484 144.66790771484375 255 255 255
-69.79566192626953 8.221617698669434 118.38067626953125 255 255 255
-87.26229858398438 11.405550956726074 108.28711700439453 255 255 255
-99.23802947998047 0.9864275455474854 198.92428588867188 255 255 255
-75.88813781738281 3.4223735332489014 111.96221923828125 255 255 255
-89.0608139038086 1.3737622499465942 121.49395751953125 255 255 255
-87.18354034423828 19.293302536010742 168.2761688232422 255 255 255
-102.88741302490234 -10.026229858398438 115.42816162109375 255 255 255
-79.40591430664062 15.236943244934082 129.97950744628906 255 255 255
-72.51510620117188 7.735729694366455 124.69985961914062 255 255 255
-92.57080841064453 2.243229866027832 85.4382553100586 255 255 255
-89.98148345947266 3.4173905849456787 177.15496826171875 255 255 255
-88.83280944824219 1.8282471895217896 75.73295593261719 255 255 255
-74.6278076171875 -5.141411304473877 106.22901153564453 255 255 255
20.821460723876953 5.679173946380615 134.91473388671875 255 255 255
22.24187660217285 14.380354881286621 123.70275115966797 255 255 255
2.892164945602417 -1.8387610912322998 57.50166320800781 255 255 255
-2.717623710632324 -5.234591007232666 69.83119201660156 255 255 255
-92.76583099365234 2.301330089569092 85.63130187988281 255 255 255
-79.27961730957031 0.5327340364456177 93.34075927734375 255 255 255
-80.89002227783203 7.817389965057373 74.24417114257812 255 255 255
-79.46989440917969 9.586812973022461 87.60505676269531 255 255 255
-97.58338928222656 3.2737748622894287 88.42069244384766 255 255 255
-96.44700622558594 5.343315601348877 86.8599624633789 255 255 255
-74.33511352539062 12.582893371582031 118.8844223022461 255 255 255
36.632301330566406 1.8333112001419067 48.18279266357422 255 255 255
52.953914642333984 5.759771823883057 53.58808517456055 255 255 255
52.9698371887207 5.796609878540039 53.647438049316406 255 255 255
43.469722747802734 3.0945475101470947 49.717559814453125 255 255 255
39.1085205078125 1.2171016931533813 45.536277770996094 255 255 255
46.734947204589844 9.32658863067627 52.97452163696289 255 255 255
-110.583740234375 -16.8802433013916 125.61139678955078 255 255 255
-104.9776382446289 -9.693592071533203 117.20932006835938 255 255 255
-65.89808654785156 13.466425895690918 161.60398864746094 255 255 255
30.986438751220703 13.892226219177246 142.86721801757812 255 255 255
95.41940307617188 9.009195327758789 197.11419677734375 255 255 255
-77.5076904296875 12.871225357055664 114.73536682128906 255 255 255
-67.90394592285156 2.5090017318725586 105.6744155883789 255 255 255
-63.83892822265625 7.9525933265686035 114.749755859375 255 255 255
-70.14640808105469 3.78987193107605 104.41590881347656 255 255 255
-74.17303466796875 19.97254180908203 165.66612243652344 255 255 255
-89.31842041015625 19.38920021057129 174.13636779785156 255 255 255
-98.66403198242188 9.609037399291992 194.03445434570312 255 255 255
-59.54793167114258 3.0742692947387695 107.55509185791016 255 255 255
-78.62207794189453 11.30062484741211 101.65330505371094 255 255 255
-116.77721405029297 4.479274749755859 116.70349884033203 255 255 255
-76.19837951660156 15.311269760131836 144.83184814453125 255 255 255
-94.06461334228516 -3.4169254302978516 116.4035873413086 255 255 255
-91.94377136230469 1.7568647861480713 81.34397888183594 255 255 255
-102.1416244506836 -4.211799144744873 103.96768188476562 255 255 255
-92.489501953125 2.161468982696533 85.38856506347656 255 255 255
-73.57789611816406 6.261996746063232 93.6824722290039 255 255 255
-102.0948715209961 3.990363836288452 112.00149536132812 255 255 255
-97.04084014892578 -4.395289897918701 115.28950500488281 255 255 255
-77.93611907958984 13.88969898223877 119.55093383789062 255 255 255
-81.46867370605469 14.615166664123535 125.90232849121094 255 255 255
-62.83371353149414 4.81451940536499 109.03240203857422 255 255 255
-60.70016860961914 6.404502868652344 113.66651916503906 255 255 255
-103.7270736694336 -3.8225250244140625 113.20345306396484 255 255 255
-72.27742767333984 -3.976832866668701 125.36134338378906 255 255 255
-94.1722183227539 0.4302273988723755 109.80435180664062 255 255 255
-67.74038696289062 4.724453449249268 100.35147094726562 255 255 255
-100.27619934082031 -5.85205602645874 114.08438873291016 255 255 255
-80.9261474609375 3.7885539531707764 99.4824447631836 255 255 255
-80.3253402709961 1.7069125175476074 92.28549194335938 255 255 255
-78.81199645996094 3.520597457885742 98.76455688476562 255 255 255
-81.34854125976562 1.7810266017913818 93.05484008789062 255 255 255
-75.28851318359375 5.472103118896484 140.62364196777344 255 255 255
-64.11534881591797 7.933685302734375 117.87622833251953 255 255 255
-75.64409637451172 12.262950897216797 111.18107604980469 255 255 255
-63.14413070678711 8.30573844909668 120.36878967285156 255 255 255
-87.87117767333984 7.539575576782227 74.23404693603516 255 255 255
-87.93933868408203 7.55882453918457 74.25598907470703 255 255 255
-94.37369537353516 -10.266307830810547 130.34121704101562 255 255 255
-91.26958465576172 5.080461025238037 113.66519927978516 255 255 255
-86.1595687866211 6.836958885192871 70.74945831298828 255 255 255
-98.44105529785156 14.611642837524414 174.9369354248047 255 255 255
-71.75706481933594 19.59807586669922 183.01808166503906 255 255 255
-84.57585906982422 16.337156295776367 181.5341033935547 255 255 255
-94.35962677001953 18.534412384033203 167.64112854003906 255 255 255
-61.24057388305664 19.88127899169922 161.4919891357422 255 255 255
-99.3860092163086 -8.108277320861816 121.4254150390625 255 255 255
-89.35535430908203 8.595812797546387 109.6841812133789 255 255 255
-89.78235626220703 13.419001579284668 119.094482421875 255 255 255
-92.2137222290039 7.7205281257629395 83.81816101074219 255 255 255
-78.04768371582031 5.660078048706055 110.02687072753906 255 255 255
-73.07279968261719 5.7547712326049805 122.21539306640625 255 255 255
-96.94718170166016 10.638989448547363 111.73919677734375 255 255 255
-80.27188873291016 -1.6487514972686768 98.48838806152344 255 255 255
-73.4364013671875 14.26786994934082 124.94116973876953 255 255 255
-95.52806091308594 6.042658805847168 182.8839111328125 255 255 255
-93.13933563232422 2.3961262702941895 181.76341247558594 255 255 255
-90.3945541381836 10.441243171691895 129.56500244140625 255 255 255
-75.62512969970703 10.063419342041016 128.47962951660156 255 255 255
-89.81867980957031 4.594213962554932 130.03021240234375 255 255 255
-81.74935913085938 15.273921966552734 125.51757049560547 255 255 255
-94.13426971435547 4.902923583984375 112.65166473388672 255 255 255
-81.21318054199219 3.862104654312134 98.78338623046875 255 255 255
-95.70465087890625 12.046104431152344 202.4617462158203 255 255 255
-89.30554962158203 3.3056654930114746 120.49706268310547 255 255 255
-87.67582702636719 11.32326889038086 108.25926208496094 255 255 255
-72.44452667236328 -0.06536807119846344 105.45990753173828 255 255 255
-88.72491455078125 7.558874130249023 114.30760192871094 255 255 255
20.251279830932617 12.864022254943848 118.81321716308594 255 255 255
18.254762649536133 11.965921401977539 118.93704223632812 255 255 255
-90.33751678466797 18.317054748535156 151.07620239257812 255 255 255
-89.93721008300781 19.966346740722656 167.49557495117188 255 255 255
-66.133056640625 -0.5724719166755676 112.27474212646484 255 255 255
84.43951416015625 18.3458309173584 182.99661254882812 255 255 255
186.4662628173828 -43.72550964355469 338.8131408691406 255 255 255
-89.96080017089844 0.5976578593254089 68.72401428222656 255 255 255
-95.88037109375 -21.12578773498535 130.04623413085938 255 255 255
-96.56839752197266 -3.860426902770996 92.6190185546875 255 255 255
-95.44139099121094 -11.830683708190918 116.83604431152344 255 255 255
-99.64181518554688 3.7894835472106934 76.25320434570312 255 255 255
-96.57636260986328 8.755330085754395 111.2033920288086 255 255 255
-71.71147155761719 5.4291181564331055 92.42462158203125 255 255 255
-98.4812240600586 -8.545787811279297 114.27171325683594 255 255 255
-76.32866668701172 5.117170333862305 95.54058837890625 255 255 255
-69.57102966308594 13.51744270324707 158.9202423095703 255 255 255
-64.51541137695312 12.302994728088379 158.2919158935547 255 255 255
-70.48469543457031 16.739561080932617 158.99411010742188 255 255 255
-80.24585723876953 12.336628913879395 182.0446014404297 255 255 255
-75.36722564697266 12.209421157836914 184.2462921142578 255 255 255
-73.79887390136719 20.1691837310791 171.0475311279297 255 255 255
-20.64153289794922 24.010316848754883 207.48995971679688 255 255 255
-71.70894622802734 5.3524980545043945 105.0988540649414 255 255 255
-88.33770751953125 -6.350769519805908 128.1201934814453 255 255 255
-78.62348937988281 5.934757709503174 100.70728302001953 255 255 255
-64.07527160644531 8.147419929504395 118.37686157226562 255 255 255
-92.64588928222656 8.594464302062988 115.52945709228516 255 255 255
-38.46092987060547 6.498463153839111 208.55186462402344 255 255 255
-59.65921401977539 17.84416389465332 158.67364501953125 255 255 255
-49.193336486816406 13.67109489440918 194.10853576660156 255 255 255
-66.90984344482422 21.367589950561523 175.97865295410156 255 255 255
-88.44971466064453 3.8356480598449707 114.81365203857422 255 255 255
-66.71935272216797 11.613387107849121 106.47357177734375 255 255 255
-89.05353546142578 11.276403427124023 114.59031677246094 255 255 255
-89.74594116210938 5.377902507781982 119.67549896240234 255 255 255
-80.71221923828125 15.259965896606445 147.31283569335938 255 255 255
-87.32972717285156 19.129804611206055 167.60028076171875 255 255 255
-94.49534606933594 0.7649599313735962 91.3687973022461 255 255 255
-80.13806915283203 7.674011707305908 74.950927734375 255 255 255
-89.57140350341797 1.5698144435882568 72.06782531738281 255 255 255
-103.29478454589844 -12.204902648925781 113.6013412475586 255 255 255
-94.5357894897461 -6.346827507019043 116.24894714355469 255 255 255
-88.43797302246094 19.3966121673584 170.84474182128906 255 255 255
-92.70652770996094 4.182868003845215 86.02405548095703 255 255 255
-80.4271011352539 5.162325382232666 67.0337905883789 255 255 255
-95.58785247802734 10.540989875793457 181.33908081054688 255 255 255
-93.93397521972656 7.867856502532959 82.34577941894531 255 255 255
-89.13581085205078 0.9953656196594238 76.64835357666016 255 255 255
-80.88208770751953 6.0652689933776855 67.88673400878906 255 255 255
-89.9720458984375 -0.019901543855667114 75.23912048339844 255 255 255
18.72150230407715 10.153106689453125 163.89064025878906 255 255 255
28.479219436645508 10.863078117370605 142.43292236328125 255 255 255
15.069239616394043 13.305198669433594 165.5596466064453 255 255 255
18.88496208190918 8.576382637023926 160.8662872314453 255 255 255
-81.1471939086914 3.734308958053589 99.55413055419922 255 255 255
-44.589080810546875 -1.2270700931549072 47.58341979980469 255 255 255
-15.041458129882812 6.806469440460205 43.494327545166016 255 255 255
54.045772552490234 5.083473205566406 83.6294937133789 255 255 255
55.859535217285156 5.7418951988220215 82.27733612060547 255 255 255
-92.72787475585938 -20.599288940429688 129.4923858642578 255 255 255
-101.00312805175781 -9.145464897155762 112.92073822021484 255 255 255
-92.59210205078125 7.160594463348389 83.98889923095703 255 255 255
-101.30231475830078 -9.780491828918457 115.01021575927734 255 255 255
-86.14862823486328 6.838059902191162 69.82015228271484 255 255 255
-90.6764907836914 10.590895652770996 180.77099609375 255 255 255
-92.3541488647461 7.589742183685303 82.76783752441406 255 255 255
-97.6876449584961 5.047003269195557 77.318359375 255 255 255
-98.62594604492188 -16.387714385986328 116.45944213867188 255 255 255
4.392761707305908 8.432045936584473 51.68033981323242 255 255 255
-1.788744330406189 6.716850280761719 56.477474212646484 255 255 255
13.76842212677002 7.587706565856934 55.00201416015625 255 255 255
-62.14625930786133 -9.478931427001953 49.378726959228516 255 255 255
-94.7132339477539 0.479686439037323 92.32950592041016 255 255 255
-79.14325714111328 3.098134994506836 58.56571578979492 255 255 255
-195.90357971191406 -15.994522094726562 77.84764862060547 255 255 255
21.28338050842285 9.652857780456543 58.674312591552734 255 255 255
21.15227699279785 8.568081855773926 60.0778694152832 255 255 255
17.724992752075195 8.499128341674805 58.61272048950195 255 255 255
-78.13355255126953 4.259222507476807 108.68063354492188 255 255 255
-58.136878967285156 6.512648582458496 123.7712631225586 255 255 255
-63.141990661621094 7.485011100769043 112.25984191894531 255 255 255
-77.159912109375 11.340545654296875 101.95458984375 255 255 255
-100.92664337158203 -13.360283851623535 114.69527435302734 255 255 255
-49.539424896240234 9.481768608093262 163.43711853027344 255 255 255
-38.976524353027344 7.9053754806518555 163.8958740234375 255 255 255
-56.01493835449219 11.544886589050293 161.23765563964844 255 255 255
-55.68806076049805 20.215648651123047 166.40350341796875 255 255 255
-81.15907287597656 7.707655429840088 73.80123901367188 255 255 255
-101.31971740722656 5.367039203643799 86.89991760253906 255 255 255
-99.75483703613281 -13.089327812194824 113.99427795410156 255 255 255
-95.24993896484375 3.455273151397705 112.4354019165039 255 255 255
-88.60340118408203 5.5617570877075195 114.84856414794922 255 255 255
-97.82566833496094 4.855685234069824 88.10368347167969 255 255 255
35.832008361816406 21.54651641845703 186.31228637695312 255 255 255
-64.47293090820312 12.997208595275879 161.13919067382812 255 255 255
-51.64165115356445 18.49861717224121 158.63131713867188 255 255 255
-68.42462158203125 6.019855976104736 116.40931701660156 255 255 255
-69.98893737792969 5.3356614112854 113.13177490234375 255 255 255
-97.52198028564453 -18.96523666381836 121.24002838134766 255 255 255
-91.94166564941406 -3.1387016773223877 73.56826782226562 255 255 255
-79.21551513671875 5.362171649932861 60.36143112182617 255 255 255
-91.31925964355469 2.826742172241211 80.83306884765625 255 255 255
-102.56697082519531 -13.687938690185547 115.49092102050781 255 255 255
-90.93988800048828 4.432991027832031 115.62611389160156 255 255 255
-97.39130401611328 6.157694339752197 79.23529815673828 255 255 255
-109.88583374023438 -20.99337387084961 160.15003967285156 255 255 255
-90.69109344482422 -1.0382436513900757 70.15677642822266 255 255 255
-102.94548797607422 -9.87146282196045 112.89685821533203 255 255 255
-89.90232849121094 6.92908239364624 71.19831848144531 255 255 255
-79.72274780273438 -1.1753222942352295 24.419328689575195 255 255 255
34.3614387512207 9.312350273132324 51.40749740600586 255 255 255
-64.37539672851562 4.010727882385254 27.23318862915039 255 255 255
-0.687926173210144 6.759338855743408 41.295413970947266 255 255 255
31.478519439697266 0.032970186322927475 48.05457305908203 255 255 255
-113.14408111572266 6.316976070404053 103.85242462158203 255 255 255
-91.70380401611328 -16.868383407592773 123.15557861328125 255 255 255
-98.3564682006836 -18.196788787841797 118.46183013916016 255 255 255
-97.90640258789062 -6.067890167236328 114.1841049194336 255 255 255
-97.96302795410156 -6.185872554779053 114.41650390625 255 255 255
-90.54764556884766 -1.1527714729309082 76.47398376464844 255 255 255
-95.29051971435547 8.074132919311523 84.27799224853516 255 255 255
-84.93368530273438 6.12929105758667 61.990272521972656 255 255 255
-115.5565185546875 2.900325059890747 365.0332336425781 255 255 255
-80.56610870361328 5.771775722503662 66.56640625 255 255 255
-73.7869873046875 12.589305877685547 119.66796112060547 255 255 255
-75.05587005615234 4.17482328414917 112.88224792480469 255 255 255
-73.57765197753906 5.083004474639893 128.65469360351562 255 255 255
-93.7060775756836 6.788179397583008 76.87322998046875 255 255 255
-97.66348266601562 -1.3686418533325195 98.60938262939453 255 255 255
-99.11697387695312 4.133025646209717 92.1604995727539 255 255 255
-111.38449096679688 4.789835453033447 110.32395935058594 255 255 255
-80.18220520019531 4.022913455963135 95.94029998779297 255 255 255
40.95623779296875 7.414875030517578 71.98269653320312 255 255 255
-89.40583801269531 9.490596771240234 117.2014389038086 255 255 255
-87.30484771728516 11.684565544128418 114.6938705444336 255 255 255
-70.88268280029297 11.7411527633667 110.92044830322266 255 255 255
-103.97744750976562 -10.108723640441895 119.16140747070312 255 255 255
-87.32701873779297 8.261837005615234 84.52970123291016 255 255 255
5.036502838134766 -3.2614223957061768 67.8187484741211 255 255 255
-312.3533630371094 19.204425811767578 405.41510009765625 255 255 255
25.429941177368164 13.646844863891602 116.23721313476562 255 255 255
24.796131134033203 10.382942199707031 142.9217987060547 255 255 255
53.80717849731445 11.70730972290039 117.22199249267578 255 255 255
10.76469898223877 9.640628814697266 108.14962768554688 255 255 255
69.51415252685547 -8.3624849319458 40.71738052368164 255 255 255
-84.80157470703125 12.174459457397461 181.1139373779297 255 255 255
77.02937316894531 -3.919086217880249 23.30704116821289 255 255 255
76.25511932373047 6.386197566986084 48.73940658569336 255 255 255
-96.42314147949219 -7.813119888305664 114.54212188720703 255 255 255
-87.32774353027344 -15.834063529968262 118.84893798828125 255 255 255
14.637003898620605 0.9057193994522095 65.57658386230469 255 255 255
-0.9742642045021057 7.66329288482666 69.45162963867188 255 255 255
-15.298590660095215 8.881855010986328 72.07376861572266 255 255 255
-88.7242202758789 -6.913071632385254 16.983484268188477 255 255 255
-11.224790573120117 3.249258041381836 66.69740295410156 255 255 255
-75.6329574584961 5.106869697570801 105.01414489746094 255 255 255
-20.19815444946289 -14.510684967041016 82.32012939453125 255 255 255
-28.19719886779785 -9.362717628479004 27.907052993774414 255 255 255
12.90096664428711 -0.1927465796470642 68.95858764648438 255 255 255
4.812395095825195 1.8996831178665161 68.84591674804688 255 255 255
-105.69422149658203 -13.592630386352539 113.89898681640625 255 255 255
-89.98957824707031 17.15599822998047 140.8194122314453 255 255 255
-86.900146484375 19.78914451599121 169.6085205078125 255 255 255
-76.24608612060547 10.83024787902832 134.1126251220703 255 255 255
-92.68551635742188 23.349367141723633 189.97463989257812 255 255 255
-64.76571655273438 5.95480489730835 112.06600952148438 255 255 255
-78.16810607910156 5.511063575744629 109.59185791015625 255 255 255
-72.93998718261719 7.945318222045898 126.94194030761719 255 255 255
-92.91049194335938 15.139055252075195 179.90280151367188 255 255 255
-89.751220703125 6.571123123168945 121.5040054321289 255 255 255
-84.42473602294922 20.648487091064453 163.9191131591797 255 255 255
-78.12472534179688 4.252686500549316 109.03234100341797 255 255 255
-72.9276351928711 4.881585597991943 116.46484375 255 255 255
-74.10260009765625 8.820396423339844 104.08731079101562 255 255 255
-78.55651092529297 5.202001571655273 106.25016021728516 255 255 255
-63.380577087402344 6.485541820526123 119.99341583251953 255 255 255
-71.12666320800781 4.157690048217773 104.94104766845703 255 255 255
-80.310791015625 7.554022312164307 73.4693832397461 255 255 255
-74.41886138916016 -5.330162048339844 107.19110870361328 255 255 255
-93.53015899658203 2.0401229858398438 84.830322265625 255 255 255
-106.69926452636719 8.059449195861816 204.23434448242188 255 255 255
-79.61753845214844 2.1608219146728516 91.80583190917969 255 255 255
-88.52998352050781 8.02536392211914 80.15419006347656 255 255 255
-94.7847671508789 4.972742080688477 85.68444061279297 255 255 255
-83.050048828125 11.954543113708496 173.90731811523438 255 255 255
-97.70687866210938 6.00283145904541 100.65394592285156 255 255 255
-82.46273803710938 12.218955993652344 179.00662231445312 255 255 255
-88.38926696777344 11.356964111328125 110.9266357421875 255 255 255
-75.42843627929688 13.897751808166504 128.38644409179688 255 255 255
49.47175979614258 -0.2139114886522293 49.0460090637207 255 255 255
49.98561477661133 1.0798907279968262 49.476341247558594 255 255 255
59.99989318847656 5.541324138641357 62.47407150268555 255 255 255
46.00226974487305 1.48179030418396 67.29419708251953 255 255 255
271.7054748535156 -62.64188003540039 -194.78778076171875 255 255 255
-89.19182586669922 -14.995125770568848 117.7306137084961 255 255 255
-74.4314956665039 5.538820266723633 116.94873809814453 255 255 255
-87.9617691040039 19.04458999633789 167.1801300048828 255 255 255
-88.80030822753906 19.772756576538086 166.24493408203125 255 255 255
-92.55414581298828 20.370075225830078 169.6453094482422 255 255 255
-92.52748107910156 20.2828426361084 169.18243408203125 255 255 255
-109.58934020996094 13.797536849975586 190.586181640625 255 255 255
-96.84192657470703 17.559356689453125 183.45733642578125 255 255 255
-117.2140121459961 7.102313995361328 203.1120147705078 255 255 255
-73.00939178466797 4.244699478149414 183.9447021484375 255 255 255
-92.01303100585938 7.8818230628967285 83.9445571899414 255 255 255
-95.44277954101562 1.1064304113388062 77.78158569335938 255 255 255
-110.70813751220703 -21.551239013671875 126.4000473022461 255 255 255
-95.22621154785156 20.567630767822266 230.98129272460938 255 255 255
-93.90811920166016 4.042541027069092 86.31433868408203 255 255 255
-81.7051773071289 0.2123303860425949 91.8078384399414 255 255 255
-84.04936981201172 5.218169689178467 59.51448059082031 255 255 255
-80.19355010986328 0.9561947584152222 65.69707489013672 255 255 255
-88.27315521240234 -10.059670448303223 115.85201263427734 255 255 255
-104.29106903076172 15.573037147521973 172.18661499023438 255 255 255
-81.62640380859375 8.062694549560547 182.1699676513672 255 255 255
-107.10299682617188 2.8272881507873535 203.7158203125 255 255 255
-88.71075439453125 18.78146743774414 167.32618713378906 255 255 255
-111.66959381103516 6.9222588539123535 206.01358032226562 255 255 255
-87.83027648925781 19.772939682006836 168.69952392578125 255 255 255
-81.15847778320312 19.556001663208008 183.68980407714844 255 255 255
-82.38870239257812 16.069156646728516 180.3661651611328 255 255 255
-48.308719635009766 21.911357879638672 185.8955535888672 255 255 255
-81.07068634033203 20.726940155029297 172.01528930664062 255 255 255
-79.50355529785156 3.426819086074829 109.15470886230469 255 255 255
-70.26011657714844 2.820594072341919 103.2132568359375 255 255 255
-75.53433990478516 8.197903633117676 112.42585754394531 255 255 255
-78.4211196899414 10.178972244262695 94.52778625488281 255 255 255
-74.89073181152344 6.8256072998046875 114.98927307128906 255 255 255
16.57205581665039 19.498144149780273 156.08099365234375 255 255 255
19.78651237487793 7.396434307098389 137.1056365966797 255 255 255
-76.38300323486328 4.615708827972412 101.97106170654297 255 255 255
46.64775466918945 4.693920135498047 45.60447692871094 255 255 255
44.56196212768555 1.8055590391159058 42.921627044677734 255 255 255
44.61576461791992 0.7411214709281921 40.592830657958984 255 255 255
18.04998016357422 5.2090559005737305 42.68156814575195 255 255 255
22.505481719970703 8.169473648071289 46.270198822021484 255 255 255
-37.895408630371094 19.764991760253906 162.8443603515625 255 255 255
-73.2734146118164 14.303488731384277 183.0616455078125 255 255 255
-76.3026123046875 14.154377937316895 182.2282257080078 255 255 255
-96.39906311035156 16.63861846923828 195.1775665283203 255 255 255
-95.0285415649414 10.923552513122559 184.7572784423828 255 255 255
-37.381492614746094 26.615997314453125 252.69540405273438 255 255 255
-75.76651763916016 16.56321144104004 183.2794647216797 255 255 255
-98.08280181884766 -8.114446640014648 115.4066390991211 255 255 255
-95.49639129638672 -21.634052276611328 138.6171875 255 255 255
-91.31330108642578 -1.6376270055770874 71.97663116455078 255 255 255
-79.38782501220703 2.0919272899627686 60.57038116455078 255 255 255
-96.17675018310547 8.087834358215332 88.5244140625 255 255 255
19.102922439575195 8.52725887298584 56.63688659667969 255 255 255
12.765334129333496 1.3701387643814087 43.63124465942383 255 255 255
-46.902957916259766 4.066747188568115 42.031410217285156 255 255 255
27.656932830810547 13.085411071777344 152.02069091796875 255 255 255
27.818340301513672 12.107547760009766 146.6747589111328 255 255 255
-89.85760498046875 -0.8609917759895325 70.24324798583984 255 255 255
-85.50812530517578 6.467400074005127 64.51062774658203 255 255 255
-80.41168975830078 5.963320255279541 65.4491195678711 255 255 255
-93.41557312011719 4.232637882232666 85.9913558959961 255 255 255
-45.32942581176758 19.97840690612793 174.09422302246094 255 255 255
-74.44029235839844 12.558266639709473 183.10340881347656 255 255 255
-87.28658294677734 20.003652572631836 166.85777282714844 255 255 255
-95.99385070800781 10.445068359375 182.95277404785156 255 255 255
-78.05271911621094 20.055784225463867 168.6546173095703 255 255 255
-89.09361267089844 19.170381546020508 167.54287719726562 255 255 255
-74.44046020507812 12.521269798278809 183.19894409179688 255 255 255
-78.63442993164062 12.716265678405762 183.271484375 255 255 255
-66.94071960449219 11.881422996520996 186.27716064453125 255 255 255
-73.15122985839844 12.613910675048828 183.2134552001953 255 255 255
8.529601097106934 0.26360854506492615 71.04853820800781 255 255 255
53.28516387939453 5.713652610778809 53.724464416503906 255 255 255
45.16617202758789 -0.7483031153678894 37.61793899536133 255 255 255
42.77540588378906 7.584768772125244 49.083248138427734 255 255 255
46.730220794677734 9.234029769897461 49.4991569519043 255 255 255
41.68272399902344 1.544745683670044 50.00157165527344 255 255 255
-90.84048461914062 6.1275224685668945 133.86280822753906 255 255 255
-69.40827178955078 6.079501152038574 112.88555145263672 255 255 255
-64.23961639404297 12.785568237304688 122.65353393554688 255 255 255
-63.22731399536133 9.837708473205566 120.15472412109375 255 255 255
-71.99567413330078 12.500670433044434 118.11807250976562 255 255 255
-56.3460807800293 10.318916320800781 122.1055679321289 255 255 255
-82.67862701416016 11.230292320251465 103.04192352294922 255 255 255
-133.14096069335938 -21.95604133605957 480.5081481933594 255 255 255
-77.81948852539062 -0.5004902482032776 107.31947326660156 255 255 255
-72.4407730102539 3.6025125980377197 106.50724029541016 255 255 255
-75.16104125976562 8.915701866149902 129.8867645263672 255 255 255
-75.94506072998047 -0.22830712795257568 104.46018981933594 255 255 255
-59.863731384277344 3.2325758934020996 105.3669662475586 255 255 255
-72.54595184326172 10.429618835449219 116.65929412841797 255 255 255
-86.217529296875 5.8591156005859375 63.90562057495117 255 255 255
-93.0657730102539 7.047921180725098 84.08110046386719 255 255 255
-20.059648513793945 23.40345573425293 173.98243713378906 255 255 255
-68.36811065673828 18.692333221435547 158.59820556640625 255 255 255
-81.1573715209961 7.717566013336182 73.83087158203125 255 255 255
-89.24325561523438 12.266678810119629 186.85450744628906 255 255 255
-99.19137573242188 -13.600760459899902 115.17131042480469 255 255 255
-113.47493743896484 -17.237470626831055 124.58863830566406 255 255 255
-79.24437713623047 5.308254241943359 60.0352668762207 255 255 255
-89.09935760498047 4.038229942321777 74.95711517333984 255 255 255
-100.96985626220703 -13.469276428222656 114.93466186523438 255 255 255
-91.93186950683594 5.4692511558532715 86.10660552978516 255 255 255
-103.50018310546875 -14.446191787719727 113.19999694824219 255 255 255
-84.590087890625 9.441570281982422 89.6583251953125 255 255 255
-96.05254364013672 16.408838272094727 136.88507080078125 255 255 255
-100.2019271850586 1.0206493139266968 104.03878021240234 255 255 255
-81.1470718383789 7.735773086547852 73.76382446289062 255 255 255
-84.30352783203125 9.330059051513672 94.82919311523438 255 255 255
17.866619110107422 10.434024810791016 138.70382690429688 255 255 255
13.605006217956543 16.87978744506836 142.03134155273438 255 255 255
13.96596622467041 7.614249229431152 139.36843872070312 255 255 255
27.516420364379883 8.956467628479004 140.70069885253906 255 255 255
-96.61859130859375 -7.960869789123535 115.21208953857422 255 255 255
-78.40274047851562 21.077747344970703 173.7812042236328 255 255 255
-91.0029067993164 20.650514602661133 171.67181396484375 255 255 255
-77.56903839111328 10.693998336791992 96.7822494506836 255 255 255
-90.14485168457031 -2.0024657249450684 115.60555267333984 255 255 255
-68.82901000976562 2.136385679244995 106.7363052368164 255 255 255
-79.74716186523438 4.756760597229004 100.75826263427734 255 255 255
-97.83184051513672 -15.59583854675293 116.15446472167969 255 255 255
-94.21180725097656 11.58619213104248 179.77772521972656 255 255 255
-93.12664794921875 11.335811614990234 182.04649353027344 255 255 255
-82.430908203125 16.26857566833496 130.82672119140625 255 255 255
-82.00890350341797 14.753806114196777 127.81647491455078 255 255 255
-75.21464538574219 8.497238159179688 126.28816223144531 255 255 255
-66.6583251953125 2.4491474628448486 108.71588897705078 255 255 255
-75.88522338867188 8.620416641235352 128.489501953125 255 255 255
-113.83086395263672 -17.080055236816406 119.2405776977539 255 255 255
-89.1655044555664 1.5971847772598267 77.03961944580078 255 255 255
-85.55116271972656 6.460108280181885 65.57196807861328 255 255 255
-90.46591186523438 0.07275150716304779 72.28387451171875 255 255 255
-69.15666198730469 2.552159309387207 106.93726348876953 255 255 255
-77.6761703491211 9.187304496765137 94.89860534667969 255 255 255
-69.73480224609375 4.283158302307129 110.59536743164062 255 255 255
-92.07064056396484 17.377010345458984 158.48228454589844 255 255 255
-97.71135711669922 5.447969913482666 94.45707702636719 255 255 255
-78.31932067871094 4.668936252593994 59.71159362792969 255 255 255
-89.99202728271484 -0.9392455220222473 69.48185729980469 255 255 255
-43.473350524902344 11.93797492980957 184.11782836914062 255 255 255
-60.6501350402832 17.470226287841797 152.96942138671875 255 255 255
-63.045467376708984 18.35863494873047 153.61575317382812 255 255 255
45.244850158691406 3.4531068801879883 72.41980743408203 255 255 255
52.76694107055664 -1.79647696018219 52.32895278930664 255 255 255
50.791297912597656 -3.5702507495880127 48.567317962646484 255 255 255
51.856300354003906 -2.9473631381988525 40.13794708251953 255 255 255
-89.28955078125 20.12601089477539 168.99606323242188 255 255 255
-76.59452056884766 20.624866485595703 171.3192901611328 255 255 255
-61.95536804199219 5.173237323760986 189.9385986328125 255 255 255
