0.5711840391159058 8.569849014282227 62.43120574951172 255 255 255
1.2254630327224731 8.821525573730469 63.261512756347656 255 255 255
0.841973066329956 8.515010833740234 63.64385986328125 255 255 255
0.7255840301513672 8.820027351379395 63.151390075683594 255 255 255
1.0782701969146729 9.404057502746582 63.02554702758789 255 255 255
1.0758033990859985 9.413962364196777 63.01886749267578 255 255 255
0.7880132794380188 9.022451400756836 62.93937301635742 255 255 255
1.1756856441497803 9.612174987792969 62.95999526977539 255 255 255
0.7760149836540222 8.939708709716797 63.65018844604492 255 255 255
0.5938817262649536 8.012170791625977 64.49395751953125 255 255 255
1.7168627977371216 8.975972175598145 62.98170471191406 255 255 255
-1.130738377571106 7.821720600128174 66.10372161865234 255 255 255
-1.0652447938919067 7.3728718757629395 66.18943786621094 255 255 255
1.1106715202331543 8.444923400878906 61.39348220825195 255 255 255
1.178536057472229 9.548108100891113 63.02178192138672 255 255 255
1.5184905529022217 8.736459732055664 58.86564254760742 255 255 255
1.089769721031189 8.259990692138672 63.049171447753906 255 255 255
1.5720503330230713 9.597137451171875 63.056365966796875 255 255 255
-0.7386475205421448 12.372879981994629 60.83153533935547 255 255 255
1.1110551357269287 7.985349178314209 63.0380859375 255 255 255
-1.05839204788208 8.034064292907715 66.04145812988281 255 255 255
-0.7686481475830078 11.03231143951416 73.26744842529297 255 255 255
1.5637145042419434 8.728534698486328 62.54399871826172 255 255 255
1.2795603275299072 7.365871906280518 63.59798049926758 255 255 255
1.248622179031372 7.531840801239014 62.50210189819336 255 255 255
1.1877877712249756 8.074019432067871 60.388973236083984 255 255 255
2.230398654937744 8.244141578674316 62.375736236572266 255 255 255
0.7871851921081543 9.087261199951172 62.08556365966797 255 255 255
2.2660269737243652 8.188424110412598 62.69934844970703 255 255 255
0.9724509119987488 8.84142017364502 62.43564987182617 255 255 255
0.7744326591491699 9.0624361038208 62.543914794921875 255 255 255
0.7896073460578918 9.106249809265137 61.84125518798828 255 255 255
1.0740307569503784 9.351818084716797 63.4682502746582 255 255 255
1.1896216869354248 8.918012619018555 62.18913269042969 255 255 255
1.6399115324020386 8.340456008911133 62.08378219604492 255 255 255
1.7438462972640991 8.505565643310547 61.76764678955078 255 255 255
-0.5720803737640381 12.542902946472168 62.23834991455078 255 255 255
-2.432669162750244 12.322936058044434 60.90599060058594 255 255 255
0.9724829196929932 8.588457107543945 62.02347183227539 255 255 255
0.9969751834869385 9.092063903808594 61.756927490234375 255 255 255
-12.041610717773438 13.040934562683105 63.55923843383789 255 255 255
-8.722956657409668 8.908360481262207 69.5636978149414 255 255 255
-15.126301765441895 13.48811149597168 65.2800064086914 255 255 255
-9.468738555908203 8.317179679870605 70.44261169433594 255 255 255
-14.992583274841309 7.898361682891846 71.30946350097656 255 255 255
-2.429112434387207 7.716416358947754 66.34161376953125 255 255 255
-2.3556761741638184 7.786489486694336 65.93794250488281 255 255 255
2.7081258296966553 9.432666778564453 61.27112579345703 255 255 255
1.1220840215682983 8.47793960571289 61.65963363647461 255 255 255
0.7780853509902954 8.694707870483398 62.265193939208984 255 255 255
1.0867739915847778 9.180145263671875 60.253543853759766 255 255 255
1.4084330797195435 7.159284591674805 63.29925537109375 255 255 255
-0.8916409611701965 7.65170955657959 64.8922119140625 255 255 255
-0.8503122329711914 7.752668857574463 64.4388198852539 255 255 255
1.342848777770996 8.55646800994873 63.16898727416992 255 255 255
1.496718406677246 9.597906112670898 62.05322265625 255 255 255
1.5255393981933594 9.570321083068848 62.620452880859375 255 255 255
1.3423584699630737 8.416444778442383 61.648826599121094 255 255 255
1.6417688131332397 8.33353042602539 62.04525375366211 255 255 255
1.101372241973877 8.260164260864258 63.022705078125 255 255 255
1.2310177087783813 8.624170303344727 62.23863220214844 255 255 255
1.1027472019195557 8.367317199707031 62.21367645263672 255 255 255
0.5662253499031067 8.495542526245117 62.9018669128418 255 255 255
-1.0646275281906128 8.01910400390625 66.05679321289062 255 255 255
-1.767059564590454 8.178672790527344 66.22283172607422 255 255 255
-1.7534759044647217 8.185565948486328 66.1117935180664 255 255 255
-2.584773063659668 8.08508586883545 66.10755157470703 255 255 255
0.5464311838150024 8.549083709716797 62.424903869628906 255 255 255
0.7968009114265442 8.663647651672363 62.55244064331055 255 255 255
1.0553873777389526 9.408174514770508 62.747108459472656 255 255 255
0.7711265683174133 9.045778274536133 62.44786834716797 255 255 255
0.5614835023880005 8.574947357177734 62.34989547729492 255 255 255
1.744057297706604 9.859406471252441 62.364559173583984 255 255 255
1.0130212306976318 9.077089309692383 63.30946731567383 255 255 255
-11.965144157409668 12.757963180541992 63.116939544677734 255 255 255
-12.98930835723877 12.986801147460938 64.35140991210938 255 255 255
-8.385539054870605 9.701265335083008 67.14048767089844 255 255 255
-10.973976135253906 10.239577293395996 68.42240142822266 255 255 255
-13.67719554901123 13.198007583618164 64.839111328125 255 255 255
-10.774945259094238 9.789642333984375 68.10152435302734 255 255 255
-8.352264404296875 13.004890441894531 65.1483154296875 255 255 255
-9.130879402160645 9.220366477966309 67.5589828491211 255 255 255
-9.148802757263184 10.122642517089844 67.98756408691406 255 255 255
-25.258642196655273 17.79395866394043 73.17915344238281 255 255 255
-10.169322967529297 10.372962951660156 67.69232177734375 255 255 255
-10.042274475097656 10.381718635559082 67.36297607421875 255 255 255
-9.442626953125 10.38685417175293 66.56810760498047 255 255 255
-9.743633270263672 13.551980018615723 66.75977325439453 255 255 255
-10.349649429321289 8.890119552612305 69.69844818115234 255 255 255
-10.563117980957031 8.063456535339355 71.13105773925781 255 255 255
-13.532419204711914 7.950048923492432 70.42345428466797 255 255 255
-15.910432815551758 7.292452812194824 73.25482940673828 255 255 255
-11.928658485412598 10.100204467773438 67.3005142211914 255 255 255
-11.836149215698242 13.393941879272461 64.46391296386719 255 255 255
-9.18121337890625 9.329522132873535 67.62545013427734 255 255 255
-9.776947021484375 10.193594932556152 67.17499542236328 255 255 255
-5.766157150268555 15.16539192199707 75.61434936523438 255 255 255
-9.733131408691406 9.603449821472168 67.03296661376953 255 255 255
-8.703620910644531 8.911898612976074 69.54936218261719 255 255 255
-2.566922664642334 8.515727996826172 66.74925994873047 255 255 255
-2.173607587814331 7.524234771728516 65.5285415649414 255 255 255
-2.5979087352752686 8.076726913452148 66.15953826904297 255 255 255
-2.1847825050354004 8.717355728149414 66.72693634033203 255 255 255
-2.8565335273742676 8.256245613098145 66.78836059570312 255 255 255
-12.589531898498535 9.50424861907959 69.16036987304688 255 255 255
-8.390460968017578 8.603696823120117 69.32917022705078 255 255 255
-13.325861930847168 10.716042518615723 67.9638442993164 255 255 255
-4.345834732055664 7.841607093811035 70.93984985351562 255 255 255
-7.114608287811279 10.435980796813965 63.78353500366211 255 255 255
-4.344160556793213 7.8567938804626465 70.79141998291016 255 255 255
-9.201772689819336 9.0173978805542 68.91596984863281 255 255 255
-9.098088264465332 9.040016174316406 68.77702331542969 255 255 255
-10.93553638458252 8.66844367980957 72.5645751953125 255 255 255
-9.728013038635254 9.190711975097656 67.63726806640625 255 255 255
-10.544507026672363 8.411641120910645 68.76419830322266 255 255 255
-12.809467315673828 8.197351455688477 71.43681335449219 255 255 255
-12.929817199707031 8.14326000213623 71.573974609375 255 255 255
-11.21181869506836 8.639452934265137 69.21014404296875 255 255 255
-10.837981224060059 8.751707077026367 68.57144927978516 255 255 255
-17.873252868652344 12.83554458618164 61.666080474853516 255 255 255
-13.379838943481445 10.863831520080566 67.96989440917969 255 255 255
-10.02425765991211 12.919610977172852 63.291343688964844 255 255 255
-11.57154369354248 13.116165161132812 63.538856506347656 255 255 255
-10.240570068359375 12.762364387512207 63.34916687011719 255 255 255
-5.638700008392334 13.251307487487793 65.67755889892578 255 255 255
-23.315292358398438 15.935486793518066 70.2899398803711 255 255 255
-9.291901588439941 9.211273193359375 67.77415466308594 255 255 255
-8.90665340423584 8.870330810546875 69.38905334472656 255 255 255
-17.173219680786133 14.144926071166992 66.91123962402344 255 255 255
-9.490734100341797 8.25339126586914 69.46041870117188 255 255 255
-19.075529098510742 8.638961791992188 60.51332473754883 255 255 255
-11.073831558227539 7.809329032897949 72.4501953125 255 255 255
-16.754505157470703 12.460378646850586 59.61132049560547 255 255 255
-16.92626190185547 12.477401733398438 59.64061737060547 255 255 255
-16.68172264099121 12.442402839660645 59.62778091430664 255 255 255
-11.40490436553955 8.648199081420898 69.54291534423828 255 255 255
-9.14079475402832 10.119722366333008 67.97469329833984 255 255 255
-10.968820571899414 12.980340957641602 63.154354095458984 255 255 255
-22.848745346069336 11.217693328857422 77.02442932128906 255 255 255
-9.599799156188965 9.469258308410645 68.77299499511719 255 255 255
-10.837164878845215 14.34020709991455 68.96929168701172 255 255 255
-21.313295364379883 12.698957443237305 58.63527297973633 255 255 255
-11.590766906738281 9.567767143249512 68.00013732910156 255 255 255
-12.935442924499512 14.326356887817383 69.28001403808594 255 255 255
-9.232422828674316 9.79752254486084 68.6982650756836 255 255 255
-13.988516807556152 13.528080940246582 64.77967834472656 255 255 255
-13.620854377746582 10.285316467285156 70.21986389160156 255 255 255
-12.870262145996094 10.359626770019531 69.17453002929688 255 255 255
-16.438119888305664 12.80945110321045 62.24183654785156 255 255 255
-20.288206100463867 7.326079368591309 76.89584350585938 255 255 255
-28.956483840942383 18.49793815612793 79.80953979492188 255 255 255
-13.306044578552246 7.769777297973633 70.20948028564453 255 255 255
-11.447855949401855 8.493358612060547 67.58001708984375 255 255 255
-13.228955268859863 13.675642967224121 67.5745849609375 255 255 255
-12.03129768371582 8.473799705505371 68.351318359375 255 255 255
-12.352285385131836 13.352482795715332 66.61986541748047 255 255 255
-12.167799949645996 8.182228088378906 68.6316146850586 255 255 255
-11.935757637023926 8.276357650756836 68.2843017578125 255 255 255
-23.56057357788086 6.125789642333984 82.22074890136719 255 255 255
-14.519594192504883 8.510831832885742 70.70488739013672 255 255 255
-11.303590774536133 13.235595703125 64.44188690185547 255 255 255
-9.58963680267334 10.416913032531738 67.7022476196289 255 255 255
-10.701506614685059 9.920672416687012 67.81092071533203 255 255 255
-10.489542961120605 9.029153823852539 68.83558654785156 255 255 255
-16.97617530822754 12.158544540405273 59.58713912963867 255 255 255
-10.239749908447266 10.169598579406738 67.7427749633789 255 255 255
-12.21240234375 10.192351341247559 66.81956481933594 255 255 255
-13.69704818725586 13.380744934082031 65.1448974609375 255 255 255
-14.04529094696045 11.153437614440918 73.9430160522461 255 255 255
-17.64014434814453 14.445554733276367 66.85254669189453 255 255 255
-12.464285850524902 14.291372299194336 69.0779037475586 255 255 255
-14.21225643157959 14.351841926574707 69.49445343017578 255 255 255
-18.513444900512695 6.374507904052734 76.93226623535156 255 255 255
-14.692024230957031 13.611949920654297 66.61198425292969 255 255 255
-11.191822052001953 13.534050941467285 67.00199127197266 255 255 255
-10.131409645080566 9.784253120422363 68.46173858642578 255 255 255
-9.174843788146973 9.800413131713867 68.27879333496094 255 255 255
-10.30787467956543 9.734720230102539 68.14234924316406 255 255 255
-11.992395401000977 7.476478099822998 73.87677764892578 255 255 255
-11.134868621826172 9.824094772338867 68.41034698486328 255 255 255
-14.238035202026367 13.357719421386719 65.2815933227539 255 255 255
-10.506117820739746 9.929579734802246 67.57141876220703 255 255 255
-9.129284858703613 8.301280975341797 75.37354278564453 255 255 255
-9.428705215454102 12.57888126373291 64.26538848876953 255 255 255
-11.354984283447266 9.617181777954102 67.68997955322266 255 255 255
-17.00796890258789 14.045013427734375 66.13019561767578 255 255 255
-17.61516571044922 5.297901630401611 79.49527740478516 255 255 255
-13.036601066589355 10.782527923583984 68.11044311523438 255 255 255
-12.471711158752441 10.650399208068848 69.20346069335938 255 255 255
-10.08200740814209 8.605045318603516 66.65438079833984 255 255 255
-17.62493324279785 7.198139190673828 75.04141998291016 255 255 255
-12.329072952270508 7.522027492523193 69.17002868652344 255 255 255
-12.271285057067871 8.61362075805664 68.21556091308594 255 255 255
-13.680208206176758 10.69002628326416 68.57298278808594 255 255 255
-13.122708320617676 10.762550354003906 68.23161315917969 255 255 255
-12.379714965820312 8.898079872131348 68.14452362060547 255 255 255
-13.327956199645996 10.708864212036133 67.9288330078125 255 255 255
-12.717686653137207 8.775798797607422 68.59391021728516 255 255 255
-19.762500762939453 8.617361068725586 60.774620056152344 255 255 255
-14.29610824584961 13.40379810333252 65.37110900878906 255 255 255
-20.650066375732422 12.57922649383545 59.56352615356445 255 255 255
-22.7458438873291 6.002480983734131 60.83979034423828 255 255 255
-21.428041458129883 5.9017815589904785 59.60263442993164 255 255 255
-32.879425048828125 13.931724548339844 59.72285079956055 255 255 255
-20.0824031829834 8.058232307434082 61.102542877197266 255 255 255
-22.36623764038086 8.343903541564941 59.189537048339844 255 255 255
-15.91323184967041 14.18264102935791 67.9153823852539 255 255 255
-20.146713256835938 7.182729721069336 59.68102264404297 255 255 255
-20.839754104614258 6.278464317321777 58.69445037841797 255 255 255
-18.322036743164062 7.803648948669434 59.83839416503906 255 255 255
-18.436853408813477 7.720048427581787 59.823665618896484 255 255 255
-18.98916244506836 8.516275405883789 59.59219741821289 255 255 255
-21.39769744873047 7.9173502922058105 59.08576202392578 255 255 255
-21.094770431518555 8.015995979309082 59.13031005859375 255 255 255
-22.193708419799805 6.630829334259033 60.056793212890625 255 255 255
-12.737814903259277 10.165928840637207 67.76990509033203 255 255 255
-14.519974708557129 13.40800666809082 64.69288635253906 255 255 255
-12.981024742126465 9.07574462890625 69.4276123046875 255 255 255
-13.702834129333496 13.29092025756836 65.77062225341797 255 255 255
-15.569168090820312 11.461114883422852 71.00318908691406 255 255 255
-13.267260551452637 11.292458534240723 68.2564468383789 255 255 255
-17.684720993041992 12.771981239318848 61.291419982910156 255 255 255
-24.792245864868164 7.230525970458984 58.39691162109375 255 255 255
-16.57931137084961 13.503070831298828 66.03468322753906 255 255 255
-16.428762435913086 13.4987211227417 65.32225036621094 255 255 255
-14.222320556640625 10.945385932922363 69.05396270751953 255 255 255
-15.200455665588379 10.186147689819336 69.80208587646484 255 255 255
-13.437407493591309 13.758979797363281 67.80464172363281 255 255 255
-14.484054565429688 13.120664596557617 64.95978546142578 255 255 255
-16.52933120727539 12.840200424194336 62.27013397216797 255 255 255
-14.527702331542969 13.83834171295166 68.29891967773438 255 255 255
-14.293424606323242 13.435660362243652 65.44458770751953 255 255 255
-15.285133361816406 13.81367301940918 68.35047912597656 255 255 255
-17.94151496887207 8.978474617004395 60.27570724487305 255 255 255
-18.938467025756836 8.765375137329102 60.28470993041992 255 255 255
-21.029869079589844 8.347336769104004 60.803855895996094 255 255 255
-19.698169708251953 7.2273335456848145 59.87314224243164 255 255 255
-13.95358943939209 10.192317962646484 68.37152862548828 255 255 255
-14.684566497802734 14.304603576660156 69.3781967163086 255 255 255
-19.402996063232422 6.884567737579346 59.991024017333984 255 255 255
-14.158971786499023 13.634592056274414 67.71894836425781 255 255 255
-16.449542999267578 13.525482177734375 65.35433197021484 255 255 255
-12.75444507598877 10.732562065124512 67.23110961914062 255 255 255
-20.28144073486328 6.979496002197266 60.783935546875 255 255 255
-16.082069396972656 10.423736572265625 69.41737365722656 255 255 255
-17.000608444213867 7.726159572601318 59.97287368774414 255 255 255
-18.975942611694336 12.351262092590332 59.76833724975586 255 255 255
-22.827049255371094 6.4657182693481445 59.183067321777344 255 255 255
-22.041486740112305 7.350579738616943 59.75075149536133 255 255 255
-25.07777976989746 6.276482582092285 59.43803405761719 255 255 255
-21.797714233398438 7.382906436920166 59.7941780090332 255 255 255
-35.28928756713867 4.214399814605713 57.44084167480469 255 255 255
-19.84300994873047 8.72266960144043 60.80168151855469 255 255 255
-20.180397033691406 8.508249282836914 60.3850212097168 255 255 255
-20.88988494873047 7.61207914352417 61.038665771484375 255 255 255
-52.26700210571289 27.37765884399414 109.46080017089844 255 255 255
-22.670347213745117 7.355506420135498 59.99228286743164 255 255 255
-22.709476470947266 7.697986602783203 59.824161529541016 255 255 255
-25.791799545288086 13.121745109558105 59.85781478881836 255 255 255
-20.257173538208008 6.973611354827881 60.778194427490234 255 255 255
-19.674230575561523 5.939931869506836 59.48386764526367 255 255 255
-24.2794246673584 12.943201065063477 59.84370803833008 255 255 255
-18.595073699951172 8.34372615814209 60.84413528442383 255 255 255
-19.310319900512695 8.900274276733398 60.852210998535156 255 255 255
-19.80413055419922 8.602399826049805 60.789669036865234 255 255 255
-20.602848052978516 8.3802490234375 60.76405715942383 255 255 255
-19.582101821899414 7.628584861755371 60.23564910888672 255 255 255
-21.02888298034668 8.114091873168945 60.001708984375 255 255 255
-20.058961868286133 8.460200309753418 61.25965881347656 255 255 255
-26.234634399414062 13.565640449523926 61.19187927246094 255 255 255
-21.86463737487793 7.778951644897461 61.42439651489258 255 255 255
-19.28569221496582 9.392987251281738 59.72037887573242 255 255 255
-34.73170471191406 7.041913032531738 57.05471420288086 255 255 255
-18.913715362548828 8.199800491333008 60.834590911865234 255 255 255
-19.826904296875 7.016165256500244 59.44495391845703 255 255 255
-22.027942657470703 7.679535388946533 61.11027526855469 255 255 255
-37.71603775024414 19.438800811767578 80.43741607666016 255 255 255
-19.232479095458984 8.937597274780273 60.875267028808594 255 255 255
-21.375627517700195 8.219212532043457 59.885623931884766 255 255 255
-25.277362823486328 7.250958442687988 59.503883361816406 255 255 255
-20.13992691040039 8.648932456970215 59.87177276611328 255 255 255
-22.021846771240234 8.044549942016602 59.62141799926758 255 255 255
-21.52381706237793 8.001131057739258 61.15826416015625 255 255 255
-20.17874526977539 7.367701053619385 61.4710693359375 255 255 255
-19.87850570678711 8.551579475402832 61.22297668457031 255 255 255
-18.46548843383789 8.814277648925781 60.44031524658203 255 255 255
-20.892702102661133 7.479244232177734 60.84181213378906 255 255 255
-24.43672752380371 6.514412879943848 59.45928192138672 255 255 255
-23.5616455078125 7.787696361541748 60.14200210571289 255 255 255
-20.956815719604492 6.998147487640381 59.9567756652832 255 255 255
-22.344003677368164 6.957529067993164 60.820404052734375 255 255 255
-18.37355613708496 8.661527633666992 60.71672821044922 255 255 255
-18.70438003540039 7.619913578033447 59.761085510253906 255 255 255
-20.89847183227539 6.650208950042725 60.212249755859375 255 255 255
-21.463348388671875 7.407258987426758 60.97031784057617 255 255 255
-17.38735580444336 13.514037132263184 65.52405548095703 255 255 255
-21.07472038269043 7.8378005027771 60.1224365234375 255 255 255
-26.069782257080078 13.497239112854004 59.7564811706543 255 255 255
-22.340885162353516 6.724785804748535 59.56626892089844 255 255 255
-21.56598663330078 8.198797225952148 60.412147521972656 255 255 255
-22.7149658203125 7.883951663970947 58.64226531982422 255 255 255
-21.128747940063477 8.532878875732422 58.361968994140625 255 255 255
-16.00978660583496 10.658387184143066 68.8143539428711 255 255 255
-19.724754333496094 13.272459983825684 63.4448356628418 255 255 255
-18.84735679626465 14.311735153198242 66.9359359741211 255 255 255
-19.349538803100586 8.054712295532227 60.7961311340332 255 255 255
-19.641427993774414 8.665728569030762 60.42483901977539 255 255 255
-22.18065643310547 6.607041358947754 60.07994079589844 255 255 255
-21.927833557128906 7.932039737701416 59.33469772338867 255 255 255
-19.175756454467773 10.665765762329102 72.22946166992188 255 255 255
-19.459735870361328 8.687461853027344 60.95515441894531 255 255 255
-30.039901733398438 16.502376556396484 72.60932159423828 255 255 255
-21.531085968017578 7.090290069580078 61.29436492919922 255 255 255
-24.866464614868164 13.69676685333252 65.20938873291016 255 255 255
-23.578466415405273 6.9373273849487305 59.21011734008789 255 255 255
-21.14549446105957 8.148893356323242 60.092811584472656 255 255 255
-22.295377731323242 7.78167200088501 59.95396423339844 255 255 255
-20.33007049560547 8.403299331665039 60.33380889892578 255 255 255
-17.45985984802246 9.281266212463379 60.739585876464844 255 255 255
-20.015167236328125 8.530889511108398 60.833778381347656 255 255 255
-20.007089614868164 8.786425590515137 60.75140380859375 255 255 255
-22.499937057495117 7.584255695343018 60.6165885925293 255 255 255
-22.429880142211914 7.651968479156494 60.720481872558594 255 255 255
-20.307226181030273 8.699712753295898 60.568458557128906 255 255 255
-19.861108779907227 8.845992088317871 60.765010833740234 255 255 255
-25.670833587646484 7.552285194396973 60.19401550292969 255 255 255
-20.870670318603516 9.272067070007324 60.671382904052734 255 255 255
-22.888771057128906 9.672684669494629 59.77958679199219 255 255 255
-21.53306007385254 9.526921272277832 61.05080032348633 255 255 255
-22.21778106689453 8.761500358581543 60.603843688964844 255 255 255
-22.417953491210938 13.435864448547363 64.30194854736328 255 255 255
-22.678693771362305 8.643760681152344 59.72831344604492 255 255 255
-20.023006439208984 8.516711235046387 61.25171661376953 255 255 255
-62.6375732421875 -10.15037727355957 59.87596893310547 255 255 255
-20.388362884521484 8.40900993347168 61.231143951416016 255 255 255
-21.390975952148438 8.162666320800781 59.87477493286133 255 255 255
-20.204912185668945 8.371453285217285 60.811065673828125 255 255 255
-22.850784301757812 14.131094932556152 69.62752532958984 255 255 255
-23.479867935180664 11.161845207214355 69.1825180053711 255 255 255
-22.81929588317871 14.12296199798584 69.61731719970703 255 255 255
-21.318269729614258 8.87541675567627 60.64937210083008 255 255 255
-23.980022430419922 8.8727388381958 60.064308166503906 255 255 255
-21.3581485748291 9.577916145324707 61.078590393066406 255 255 255
-37.47230529785156 7.152609825134277 56.68452835083008 255 255 255
-26.349504470825195 15.104379653930664 69.90460205078125 255 255 255
-22.65120506286621 8.855341911315918 60.47624588012695 255 255 255
-25.953371047973633 13.000594139099121 61.0081787109375 255 255 255
-19.804885864257812 8.562885284423828 60.77123260498047 255 255 255
-28.40285873413086 12.138643264770508 72.96815490722656 255 255 255
-29.650373458862305 13.609018325805664 63.641273498535156 255 255 255
-30.19695472717285 12.30778980255127 59.258705139160156 255 255 255
-34.569740295410156 14.207449913024902 64.53034210205078 255 255 255
-28.829923629760742 13.950141906738281 66.76182556152344 255 255 255
-30.764575958251953 12.373842239379883 59.46137619018555 255 255 255
-30.7911319732666 12.108232498168945 59.508480072021484 255 255 255
-29.423526763916016 10.581306457519531 64.0477294921875 255 255 255
-28.657926559448242 11.163064002990723 63.854888916015625 255 255 255
-31.476808547973633 11.74043083190918 59.63896179199219 255 255 255
-32.07045364379883 11.758118629455566 59.57242965698242 255 255 255
-28.316041946411133 12.868412017822266 63.27773666381836 255 255 255
-31.418689727783203 11.725615501403809 59.65224838256836 255 255 255
-29.410316467285156 12.793237686157227 62.70466995239258 255 255 255
-24.439083099365234 14.039196014404297 67.933837890625 255 255 255
-22.690326690673828 11.775924682617188 68.360107421875 255 255 255
-20.205175399780273 7.631649017333984 60.871829986572266 255 255 255
-20.150104522705078 8.441719055175781 60.75248718261719 255 255 255
-22.226354598999023 9.107766151428223 60.00383758544922 255 255 255
-21.19384765625 9.332756996154785 60.21149444580078 255 255 255
-25.01888084411621 8.470757484436035 59.66917419433594 255 255 255
-21.618309020996094 9.448092460632324 60.752952575683594 255 255 255
-23.418703079223633 8.237075805664062 60.52547073364258 255 255 255
-23.34228515625 13.872153282165527 68.77671813964844 255 255 255
-24.010337829589844 14.013176918029785 68.35843658447266 255 255 255
-28.15762710571289 13.372782707214355 63.51041793823242 255 255 255
-29.803524017333984 13.233665466308594 63.500877380371094 255 255 255
-30.201335906982422 9.348136901855469 62.51902770996094 255 255 255
-29.48126792907715 9.465740203857422 62.57265090942383 255 255 255
-35.43400192260742 9.288290023803711 63.21287155151367 255 255 255
-28.8585205078125 13.955965995788574 66.78671264648438 255 255 255
-29.378273010253906 9.809707641601562 63.14322280883789 255 255 255
-29.4927978515625 13.46323013305664 64.5223159790039 255 255 255
-29.381385803222656 9.757501602172852 63.16084671020508 255 255 255
-29.54010772705078 9.756200790405273 63.1353645324707 255 255 255
-25.361103057861328 12.90490436553955 61.28720474243164 255 255 255
-23.925411224365234 11.873577117919922 69.50995635986328 255 255 255
-23.82567596435547 11.865799903869629 69.40885162353516 255 255 255
-29.144779205322266 12.934736251831055 62.65495681762695 255 255 255
-28.400142669677734 10.377300262451172 63.52212142944336 255 255 255
-35.162410736083984 9.487170219421387 63.49093246459961 255 255 255
-30.099966049194336 9.65427303314209 62.609283447265625 255 255 255
-28.278850555419922 14.519862174987793 69.85375213623047 255 255 255
-30.247289657592773 9.677264213562012 62.6020622253418 255 255 255
-31.113061904907227 11.108715057373047 63.99991989135742 255 255 255
-28.53960609436035 10.345549583435059 64.08096313476562 255 255 255
-28.940702438354492 12.722271919250488 63.329715728759766 255 255 255
-24.124814987182617 13.012866020202637 62.746463775634766 255 255 255
-23.77648162841797 14.387171745300293 70.25434875488281 255 255 255
-25.38735580444336 14.256376266479492 68.49247741699219 255 255 255
-23.959924697875977 11.852507591247559 69.2453384399414 255 255 255
-23.417484283447266 11.189599990844727 68.96297454833984 255 255 255
-26.529449462890625 12.456140518188477 59.58616638183594 255 255 255
-22.776735305786133 13.912637710571289 69.60401916503906 255 255 255
-23.363008499145508 13.84018325805664 68.80685424804688 255 255 255
-23.257028579711914 13.828951835632324 68.69881439208984 255 255 255
-26.42232322692871 11.96855354309082 59.703243255615234 255 255 255
-27.198654174804688 11.980509757995605 59.52590560913086 255 255 255
-23.77463150024414 10.95203971862793 69.30040740966797 255 255 255
-27.621437072753906 13.433445930480957 63.130889892578125 255 255 255
-25.427030563354492 14.656682014465332 71.43766784667969 255 255 255
-28.890178680419922 13.481865882873535 63.54930877685547 255 255 255
-26.464073181152344 13.67572021484375 65.88093566894531 255 255 255
-25.798561096191406 13.248527526855469 62.762611389160156 255 255 255
-28.096027374267578 13.329429626464844 64.07798767089844 255 255 255
-28.703170776367188 13.9166259765625 66.72818756103516 255 255 255
-28.421405792236328 10.074580192565918 63.53415298461914 255 255 255
-36.467796325683594 9.11783504486084 63.131710052490234 255 255 255
-29.01707649230957 12.735605239868164 63.32904052734375 255 255 255
-29.495840072631836 13.1908597946167 63.525428771972656 255 255 255
-30.35301399230957 9.68652057647705 62.508766174316406 255 255 255
-30.190134048461914 13.488239288330078 61.640708923339844 255 255 255
-28.403099060058594 13.295066833496094 61.78675842285156 255 255 255
-24.135570526123047 13.013463020324707 62.710689544677734 255 255 255
-25.196147918701172 14.552704811096191 71.18384552001953 255 255 255
-23.86675453186035 13.960652351379395 68.22570037841797 255 255 255
-27.2408447265625 14.649785995483398 69.86964416503906 255 255 255
-36.034976959228516 6.855322360992432 62.52617645263672 255 255 255
-32.133949279785156 13.468225479125977 64.6287841796875 255 255 255
-36.739830017089844 16.576812744140625 74.87921142578125 255 255 255
-33.159915924072266 15.363961219787598 71.83636474609375 255 255 255
-32.0792350769043 15.198099136352539 71.66179656982422 255 255 255
-31.054515838623047 14.115442276000977 67.539794921875 255 255 255
-29.038511276245117 12.712678909301758 63.29811096191406 255 255 255
-27.436748504638672 14.726592063903809 71.56375885009766 255 255 255
-28.81529426574707 10.103281021118164 63.545780181884766 255 255 255
-32.311180114746094 9.380538940429688 63.37331008911133 255 255 255
-23.00786018371582 14.183456420898438 69.7860107421875 255 255 255
-29.241060256958008 9.377100944519043 62.572113037109375 255 255 255
-30.686687469482422 8.828658103942871 62.68315505981445 255 255 255
-30.281930923461914 8.852842330932617 62.694122314453125 255 255 255
-30.783775329589844 8.771974563598633 62.65451431274414 255 255 255
-30.0740909576416 8.90436840057373 62.72660827636719 255 255 255
-32.997886657714844 8.561478614807129 64.21842956542969 255 255 255
-32.5233154296875 8.873133659362793 62.68240737915039 255 255 255
-36.00807189941406 9.343894958496094 63.36264419555664 255 255 255
-28.882966995239258 14.588458061218262 70.03828430175781 255 255 255
-34.897865295410156 8.16888427734375 65.71240234375 255 255 255
-26.229219436645508 14.252968788146973 69.01725769042969 255 255 255
-30.091915130615234 10.188660621643066 63.55362319946289 255 255 255
-23.704471588134766 13.900615692138672 68.16675567626953 255 255 255
-85.10594177246094 0.7592976093292236 56.642791748046875 255 255 255
-84.94099426269531 7.998412132263184 71.80577850341797 255 255 255
-79.36837768554688 12.078877449035645 76.69635772705078 255 255 255
-78.56453704833984 12.864826202392578 77.48222351074219 255 255 255
-77.92788696289062 12.622786521911621 76.03831481933594 255 255 255
-74.87285614013672 10.31038761138916 71.12380981445312 255 255 255
-76.45238494873047 12.785134315490723 77.57611846923828 255 255 255
-73.86895751953125 11.56180477142334 72.20960235595703 255 255 255
-79.07708740234375 10.572698593139648 68.65827941894531 255 255 255
-74.83641052246094 10.191508293151855 69.43162536621094 255 255 255
-74.80449676513672 10.217350006103516 69.62071228027344 255 255 255
-84.96278381347656 11.684826850891113 59.791629791259766 255 255 255
-84.91499328613281 11.572718620300293 59.887264251708984 255 255 255
-76.64405822753906 10.469755172729492 70.90998840332031 255 255 255
-77.86611938476562 16.146778106689453 74.8448715209961 255 255 255
-75.55557250976562 10.236437797546387 69.87042999267578 255 255 255
-78.88650512695312 13.320508003234863 75.08326721191406 255 255 255
-75.44256591796875 9.705636024475098 70.39442443847656 255 255 255
-79.72875213623047 9.566675186157227 68.1630630493164 255 255 255
-81.69366455078125 15.824671745300293 69.26860809326172 255 255 255
-79.58897399902344 9.70227336883545 68.32794189453125 255 255 255
-76.5674819946289 12.117733001708984 69.67301940917969 255 255 255
-83.0324935913086 6.221434116363525 59.565162658691406 255 255 255
-85.31986236572266 7.668622016906738 69.80736541748047 255 255 255
-77.5579833984375 14.696170806884766 67.39195251464844 255 255 255
-76.63629150390625 14.895024299621582 68.53681182861328 255 255 255
-76.87116241455078 14.823567390441895 68.24414825439453 255 255 255
-81.77622985839844 5.261178016662598 59.073917388916016 255 255 255
-89.0627212524414 3.366095781326294 60.25428009033203 255 255 255
-76.7174301147461 11.7674560546875 69.44454193115234 255 255 255
-75.54732513427734 14.414093017578125 67.08468627929688 255 255 255
-84.86875915527344 3.4156908988952637 65.84941864013672 255 255 255
-76.49056243896484 14.76143741607666 65.38134002685547 255 255 255
-80.65949249267578 16.04471778869629 73.50980377197266 255 255 255
-85.21116638183594 10.57225513458252 77.7333755493164 255 255 255
-84.79248809814453 13.866238594055176 76.18163299560547 255 255 255
-77.57408905029297 11.594895362854004 73.71717071533203 255 255 255
-85.42989349365234 12.289912223815918 75.81660461425781 255 255 255
-82.09689331054688 14.134969711303711 76.54464721679688 255 255 255
-78.20030975341797 5.669525623321533 64.16322326660156 255 255 255
-80.2364730834961 9.675556182861328 72.73220825195312 255 255 255
-79.11743927001953 12.271676063537598 75.55307006835938 255 255 255
-84.02164459228516 12.099945068359375 76.4256591796875 255 255 255
-78.69961547851562 12.439785957336426 75.68826293945312 255 255 255
-81.13282775878906 11.472278594970703 74.98363494873047 255 255 255
-78.37910461425781 12.576231002807617 75.7666244506836 255 255 255
-81.30050659179688 11.43265151977539 74.94915771484375 255 255 255
-77.57648468017578 13.204705238342285 78.24805450439453 255 255 255
-78.48209381103516 12.284539222717285 77.37865447998047 255 255 255
-78.71189880371094 12.811059951782227 78.17034912109375 255 255 255
-79.49052429199219 12.605475425720215 78.1043930053711 255 255 255
-79.2255630493164 11.677387237548828 77.61865997314453 255 255 255
-45.87636184692383 4.648859977722168 65.60200500488281 255 255 255
-37.16593551635742 7.773227214813232 65.75714111328125 255 255 255
-34.31699752807617 9.884942054748535 64.83483123779297 255 255 255
-38.31012725830078 15.405030250549316 73.65118408203125 255 255 255
-38.106380462646484 15.364834785461426 73.50298309326172 255 255 255
-36.402801513671875 12.035704612731934 74.71454620361328 255 255 255
-36.4750862121582 12.043975830078125 74.78756713867188 255 255 255
-37.6948356628418 11.937469482421875 75.82473754882812 255 255 255
-51.88085174560547 10.607213020324707 91.05341339111328 255 255 255
-41.627872467041016 16.1510066986084 74.83086395263672 255 255 255
-40.722503662109375 11.766935348510742 79.30586242675781 255 255 255
-39.26839065551758 11.785828590393066 77.00273132324219 255 255 255
-38.426292419433594 11.791046142578125 76.74230194091797 255 255 255
-39.053062438964844 11.552970886230469 75.66490173339844 255 255 255
-40.70492935180664 11.590761184692383 80.32246398925781 255 255 255
-37.971778869628906 13.473155975341797 73.69835662841797 255 255 255
-40.7607421875 11.7802095413208 79.34520721435547 255 255 255
-40.41641616821289 11.03465461730957 76.33418273925781 255 255 255
-38.399600982666016 10.083467483520508 75.93787384033203 255 255 255
-37.1800651550293 11.96645736694336 75.4847183227539 255 255 255
-40.09763717651367 11.040145874023438 76.09928894042969 255 255 255
-40.57783126831055 15.314190864562988 72.46308135986328 255 255 255
-40.278289794921875 11.016913414001465 76.2090835571289 255 255 255
-41.29804992675781 15.366150856018066 72.40977478027344 255 255 255
-39.52765655517578 10.087060928344727 76.27787017822266 255 255 255
-47.634613037109375 14.229876518249512 64.99482727050781 255 255 255
-41.55529022216797 11.502599716186523 77.32843017578125 255 255 255
-35.69383239746094 15.185896873474121 72.17058563232422 255 255 255
-29.082870483398438 10.37710952758789 64.04598999023438 255 255 255
-38.993812561035156 8.087248802185059 62.10619354248047 255 255 255
-34.828025817871094 9.52818775177002 63.573875427246094 255 255 255
-29.395408630371094 13.174784660339355 63.53004837036133 255 255 255
-32.13283157348633 11.859926223754883 63.112884521484375 255 255 255
-30.585853576660156 9.872271537780762 63.726741790771484 255 255 255
-28.868488311767578 10.272726058959961 63.89912033081055 255 255 255
-29.311525344848633 10.48933219909668 63.733821868896484 255 255 255
-40.591434478759766 11.190468788146973 76.86949920654297 255 255 255
-36.94163513183594 13.330409049987793 73.00273895263672 255 255 255
-36.048622131347656 7.5183281898498535 64.01360321044922 255 255 255
-34.402042388916016 9.69632339477539 64.49718475341797 255 255 255
-33.84285354614258 10.316537857055664 64.89437866210938 255 255 255
-34.63115692138672 10.134716987609863 64.7436294555664 255 255 255
-36.983177185058594 7.44229793548584 65.86000061035156 255 255 255
-34.15016555786133 10.24190616607666 64.83661651611328 255 255 255
-51.752647399902344 6.909778594970703 62.08515548706055 255 255 255
-33.62550735473633 9.939831733703613 65.63565063476562 255 255 255
-33.73708724975586 15.27957820892334 71.94610595703125 255 255 255
-35.079227447509766 8.231707572937012 65.82089233398438 255 255 255
-33.98744201660156 8.603507995605469 65.78771209716797 255 255 255
-34.932552337646484 8.288052558898926 65.82685852050781 255 255 255
-32.815494537353516 14.266977310180664 68.24943542480469 255 255 255
-32.899261474609375 14.287373542785645 68.26023864746094 255 255 255
-35.402286529541016 8.166949272155762 64.7922134399414 255 255 255
-34.4521598815918 13.159860610961914 63.814697265625 255 255 255
-32.312232971191406 14.886789321899414 71.05977630615234 255 255 255
-33.98391342163086 8.371535301208496 64.35279083251953 255 255 255
-35.75052261352539 7.676178455352783 64.12699890136719 255 255 255
-34.19572067260742 8.357605934143066 64.38441467285156 255 255 255
-34.062767028808594 8.407916069030762 64.41709899902344 255 255 255
-32.124019622802734 9.136895179748535 64.64997100830078 255 255 255
-39.97640609741211 11.699438095092773 75.94730377197266 255 255 255
-42.866912841796875 16.412858963012695 75.47296142578125 255 255 255
-40.56108474731445 12.553600311279297 75.62318420410156 255 255 255
-38.872344970703125 12.600276947021484 74.46907043457031 255 255 255
-41.713348388671875 16.052692413330078 74.75012969970703 255 255 255
-40.458621978759766 11.140853881835938 77.4065170288086 255 255 255
-39.36567306518555 11.343868255615234 76.45020294189453 255 255 255
-44.115413665771484 14.643990516662598 68.24199676513672 255 255 255
-41.60327911376953 11.201251029968262 78.1362075805664 255 255 255
-39.456573486328125 11.519596099853516 75.89906311035156 255 255 255
-39.83620834350586 11.338068962097168 76.07002258300781 255 255 255
-38.75810623168945 10.55525016784668 74.7415771484375 255 255 255
-39.185604095458984 10.220057487487793 75.97840118408203 255 255 255
-38.9080924987793 10.298629760742188 75.74480438232422 255 255 255
-31.419342041015625 10.469618797302246 64.91596221923828 255 255 255
-34.224796295166016 9.907837867736816 64.85350036621094 255 255 255
-34.354801177978516 9.387372016906738 65.68338012695312 255 255 255
-38.389713287353516 14.885847091674805 70.19461822509766 255 255 255
-37.49222946166992 14.025813102722168 65.43824768066406 255 255 255
-39.457069396972656 15.417533874511719 71.68543243408203 255 255 255
-41.87242889404297 11.682747840881348 80.3591537475586 255 255 255
-40.29203414916992 15.70025634765625 73.94960021972656 255 255 255
-42.159912109375 14.675539016723633 68.9113998413086 255 255 255
-38.29506301879883 13.548964500427246 73.93661499023438 255 255 255
-37.976097106933594 9.712066650390625 76.45442962646484 255 255 255
-38.43603515625 12.251315116882324 76.03638458251953 255 255 255
-41.0903205871582 15.354196548461914 72.34870910644531 255 255 255
-40.20078659057617 11.371053695678711 76.54497528076172 255 255 255
-43.822261810302734 15.876896858215332 74.79316711425781 255 255 255
-42.46989822387695 17.2362117767334 76.44375610351562 255 255 255
-35.42139434814453 14.922033309936523 70.60021209716797 255 255 255
-39.60749053955078 13.509733200073242 63.208011627197266 255 255 255
-40.37696075439453 14.599733352661133 67.63530731201172 255 255 255
-35.19959259033203 9.996212005615234 75.01721954345703 255 255 255
-37.97011184692383 9.099607467651367 77.1001205444336 255 255 255
-39.91379165649414 11.452258110046387 76.41199493408203 255 255 255
-39.10233688354492 11.536276817321777 75.69696044921875 255 255 255
-40.82185745239258 10.929131507873535 77.25428771972656 255 255 255
-41.079566955566406 10.880820274353027 77.45140838623047 255 255 255
-39.82494354248047 15.813597679138184 74.69210052490234 255 255 255
-39.34928894042969 15.66252613067627 74.27323150634766 255 255 255
-37.72216033935547 13.427092552185059 73.51161193847656 255 255 255
-38.64633560180664 13.534699440002441 74.1463851928711 255 255 255
-38.864078521728516 14.098102569580078 66.8738784790039 255 255 255
-39.74977111816406 10.594152450561523 75.97303771972656 255 255 255
-40.60878372192383 12.178330421447754 77.31763458251953 255 255 255
-39.198974609375 12.312210083007812 76.19506072998047 255 255 255
-48.493167877197266 16.87528419494629 81.65570068359375 255 255 255
-49.88548278808594 16.185102462768555 76.0849380493164 255 255 255
-49.07091522216797 16.44398307800293 77.7807388305664 255 255 255
-49.367862701416016 16.8382568359375 79.63542175292969 255 255 255
-51.140785217285156 16.33344268798828 76.23878479003906 255 255 255
-49.97057342529297 16.839763641357422 79.7439956665039 255 255 255
-51.83383560180664 16.31398582458496 76.18915557861328 255 255 255
-50.935176849365234 16.12513542175293 75.8974838256836 255 255 255
-50.75526428222656 16.11991310119629 76.43358612060547 255 255 255
-51.47706985473633 16.194740295410156 76.48469543457031 255 255 255
-48.07313537597656 16.594776153564453 77.6035385131836 255 255 255
-48.68970489501953 15.883431434631348 75.57037353515625 255 255 255
-45.873741149902344 15.715070724487305 74.00360107421875 255 255 255
-38.6119384765625 15.292364120483398 71.80023956298828 255 255 255
-50.48479461669922 16.334007263183594 76.34432983398438 255 255 255
-43.15387725830078 15.806610107421875 73.44828796386719 255 255 255
-34.96902847290039 12.874676704406738 73.35595703125 255 255 255
-38.5377197265625 10.659934997558594 74.85759735107422 255 255 255
-38.71411895751953 10.613739013671875 75.00891876220703 255 255 255
-39.769309997558594 12.234651565551758 76.6277847290039 255 255 255
-48.53588104248047 15.779630661010742 74.41107177734375 255 255 255
-48.44647979736328 16.53121566772461 77.95869445800781 255 255 255
-48.930782318115234 16.6447696685791 78.2658920288086 255 255 255
-47.62346267700195 15.910164833068848 75.45023345947266 255 255 255
-48.160579681396484 16.728551864624023 79.8716812133789 255 255 255
-50.60908889770508 16.23078155517578 76.33897399902344 255 255 255
-45.91059494018555 15.361720085144043 72.46556854248047 255 255 255
-45.769134521484375 11.124542236328125 82.99156951904297 255 255 255
-40.47150802612305 11.933444023132324 76.88997650146484 255 255 255
-39.039306640625 12.544147491455078 74.60884094238281 255 255 255
-44.27202224731445 16.04103660583496 75.84941864013672 255 255 255
-46.339569091796875 15.72204303741455 75.0430908203125 255 255 255
-48.249267578125 16.779794692993164 79.94913482666016 255 255 255
-50.39497375488281 16.07828712463379 76.2009506225586 255 255 255
-51.558013916015625 16.29564094543457 76.57617950439453 255 255 255
-49.90302658081055 15.580184936523438 70.28974914550781 255 255 255
-44.545040130615234 15.550904273986816 73.53504943847656 255 255 255
-44.57292938232422 15.552865028381348 73.53553771972656 255 255 255
-46.328033447265625 14.792741775512695 70.0066146850586 255 255 255
-44.70675277709961 15.710591316223145 74.6178207397461 255 255 255
-45.80563735961914 15.97319221496582 75.18285369873047 255 255 255
-45.85055160522461 15.0599365234375 71.14073181152344 255 255 255
-44.40433883666992 15.222613334655762 72.84710693359375 255 255 255
-49.28238296508789 16.77271270751953 79.49199676513672 255 255 255
-49.00716781616211 16.932355880737305 81.468505859375 255 255 255
-50.04994583129883 16.54996681213379 78.02831268310547 255 255 255
-50.81163024902344 16.105667114257812 75.8162612915039 255 255 255
-52.36137008666992 16.364389419555664 76.8326416015625 255 255 255
-61.867523193359375 14.942051887512207 69.86033630371094 255 255 255
-63.306644439697266 14.568978309631348 70.25709533691406 255 255 255
-53.789581298828125 17.492128372192383 83.30445098876953 255 255 255
-57.921958923339844 10.445533752441406 75.52272033691406 255 255 255
-59.72539520263672 18.40410041809082 86.19886016845703 255 255 255
-54.406620025634766 16.06010627746582 72.73356628417969 255 255 255
-48.71700668334961 17.055587768554688 82.30889892578125 255 255 255
-48.93363952636719 16.404325485229492 77.70020294189453 255 255 255
-49.992530822753906 16.514183044433594 77.96784973144531 255 255 255
-50.157615661621094 16.115665435791016 76.13427734375 255 255 255
-49.91083908081055 16.795854568481445 79.66436767578125 255 255 255
-47.82415008544922 16.679290771484375 80.44093322753906 255 255 255
-48.43912124633789 16.855606079101562 80.92276000976562 255 255 255
-57.13349914550781 19.402381896972656 90.1623764038086 255 255 255
-57.69355010986328 9.40544605255127 68.3777084350586 255 255 255
-53.78569030761719 17.635032653808594 84.21218872070312 255 255 255
-61.57341766357422 8.513910293579102 67.86931610107422 255 255 255
-71.20751953125 13.96175479888916 65.3598861694336 255 255 255
-42.61154556274414 15.746166229248047 74.63748931884766 255 255 255
-43.31442642211914 15.390482902526855 72.8772201538086 255 255 255
-38.89241409301758 12.871804237365723 74.58110809326172 255 255 255
-44.981903076171875 15.808865547180176 74.80130767822266 255 255 255
-44.91673278808594 15.705642700195312 74.42733001708984 255 255 255
-46.256500244140625 15.406270980834961 72.55330657958984 255 255 255
-45.70669937133789 15.469741821289062 73.18179321289062 255 255 255
-45.06816101074219 15.737958908081055 74.50409698486328 255 255 255
-45.470462799072266 15.955578804016113 79.3250503540039 255 255 255
-48.46158981323242 15.818790435791016 75.4653549194336 255 255 255
-65.49139404296875 7.300536632537842 76.1449203491211 255 255 255
-55.96257781982422 10.879412651062012 74.90412139892578 255 255 255
-55.549007415771484 10.856457710266113 74.51587677001953 255 255 255
-70.64276885986328 15.092073440551758 68.07852172851562 255 255 255
-81.63211059570312 24.20295524597168 104.30225372314453 255 255 255
-56.091705322265625 9.616650581359863 75.11320495605469 255 255 255
-56.24069595336914 10.758967399597168 73.65605926513672 255 255 255
-57.125797271728516 10.936250686645508 74.17096710205078 255 255 255
-60.33080291748047 11.269232749938965 76.09288787841797 255 255 255
-57.2075309753418 10.849736213684082 75.16011047363281 255 255 255
-56.233116149902344 10.829463958740234 74.34382629394531 255 255 255
-51.174102783203125 16.19745635986328 76.05550384521484 255 255 255
-50.36854553222656 16.013355255126953 75.71287536621094 255 255 255
-45.04506301879883 15.75443172454834 74.47848510742188 255 255 255
-45.50852584838867 15.439371109008789 73.1194076538086 255 255 255
-53.32767105102539 17.55079460144043 83.83080291748047 255 255 255
-65.36872863769531 7.602975368499756 75.92839050292969 255 255 255
-52.25676727294922 16.972604751586914 80.98678588867188 255 255 255
-49.48979949951172 16.842126846313477 79.70685577392578 255 255 255
-49.96030044555664 16.053787231445312 75.77383422851562 255 255 255
-49.14069366455078 16.292194366455078 77.40227508544922 255 255 255
-51.08998489379883 16.161115646362305 75.90496063232422 255 255 255
-60.87318801879883 18.983022689819336 84.69624328613281 255 255 255
-57.112464904785156 15.980181694030762 74.0473403930664 255 255 255
-59.98252487182617 14.37705135345459 70.2842788696289 255 255 255
