7.498612880706787 2.7129054069519043 14.084646224975586 255 255 255
14.540807723999023 3.145421028137207 10.57448959350586 255 255 255
8.395712852478027 -5.930387020111084 15.721714973449707 255 255 255
5.212823390960693 -5.145946502685547 14.30499267578125 255 255 255
4.2914958000183105 -3.087416887283325 21.09128761291504 255 255 255
14.276052474975586 3.063417673110962 11.228201866149902 255 255 255
4.077416896820068 2.8431050777435303 17.748401641845703 255 255 255
12.737902641296387 -6.521444320678711 12.873082160949707 255 255 255
-33.0949821472168 -4.717573642730713 2.5915515422821045 255 255 255
-27.860265731811523 -6.5332417488098145 1.1527414321899414 255 255 255
19.530797958374023 4.56873893737793 17.487812042236328 255 255 255
9.064701080322266 1.809829592704773 0.5181160569190979 255 255 255
16.66949462890625 1.668998122215271 3.487600326538086 255 255 255
13.811136245727539 -2.0994210243225098 -1.317881464958191 255 255 255
-28.17522621154785 -5.623619079589844 -9.66425895690918 255 255 255
-35.40349197387695 -3.334423065185547 6.140955924987793 255 255 255
-18.48328971862793 -7.066884517669678 0.10825708508491516 255 255 255
-19.90744400024414 -5.3890886306762695 0.54439377784729 255 255 255
-28.416553497314453 -8.3243408203125 -11.411836624145508 255 255 255
-27.93543243408203 -9.205421447753906 -13.211482048034668 255 255 255
-37.87572479248047 -0.37517181038856506 -1.115657925605774 255 255 255
-30.520919799804688 -7.99228572845459 -11.68422794342041 255 255 255
-20.596940994262695 -7.886311054229736 -0.8329378366470337 255 255 255
-15.332072257995605 -6.906760215759277 2.9184679985046387 255 255 255
-21.9755802154541 -4.274632930755615 -7.81367826461792 255 255 255
-17.985658645629883 -0.1251404881477356 -2.7886736392974854 255 255 255
-69.6402587890625 1.1809083223342896 45.73606872558594 255 255 255
-41.709251403808594 -13.342754364013672 -7.6206440925598145 255 255 255
-20.678943634033203 -4.265430450439453 -1.8923742771148682 255 255 255
-3.957592248916626 -10.92840576171875 67.58905792236328 255 255 255
3.1670455932617188 2.3015599250793457 6.31807804107666 255 255 255
17.549938201904297 0.7337696552276611 -4.067763805389404 255 255 255
-3.3423449993133545 -3.9026222229003906 -12.129363059997559 255 255 255
10.488269805908203 -3.0083141326904297 13.008724212646484 255 255 255
12.43307113647461 -2.9514899253845215 11.862914085388184 255 255 255
9.67917537689209 -3.3695945739746094 -7.854712009429932 255 255 255
17.567230224609375 -7.152878284454346 4.843757152557373 255 255 255
12.552239418029785 -0.9669884443283081 -6.169962406158447 255 255 255
-10.614458084106445 -13.369206428527832 67.26318359375 255 255 255
5.992180824279785 1.2270796298980713 -4.558152675628662 255 255 255
16.862321853637695 3.1098926067352295 11.130537033081055 255 255 255
8.597151756286621 2.3533475399017334 14.762266159057617 255 255 255
13.185980796813965 -4.398592948913574 1.0186452865600586 255 255 255
16.16383934020996 -15.35628890991211 16.573062896728516 255 255 255
-10.060078620910645 -6.143057823181152 27.84282684326172 255 255 255
12.024934768676758 0.7940114140510559 11.099913597106934 255 255 255
-0.7393226027488708 -2.0505692958831787 -3.1126883029937744 255 255 255
-4.537776947021484 1.2425175905227661 28.28419303894043 255 255 255
-41.736690521240234 -4.573156356811523 2.2340097427368164 255 255 255
-38.994476318359375 -4.775002956390381 5.366253852844238 255 255 255
-41.85116195678711 -4.529508590698242 2.323551893234253 255 255 255
-27.8472843170166 -7.78727388381958 -10.869593620300293 255 255 255
8.795907974243164 1.9537148475646973 14.031466484069824 255 255 255
11.907668113708496 -5.293650150299072 0.5998986959457397 255 255 255
7.562187671661377 2.0430941581726074 11.66148853302002 255 255 255
10.880132675170898 -3.2072880268096924 -3.6642303466796875 255 255 255
4.288731575012207 -0.5389782190322876 18.91742515563965 255 255 255
4.699952602386475 -6.593960762023926 21.204957962036133 255 255 255
5.906184196472168 1.336459755897522 -4.206921100616455 255 255 255
3.9957549571990967 -0.57871413230896 17.967802047729492 255 255 255
-12.176774978637695 -14.282522201538086 58.97626495361328 255 255 255
-10.27253532409668 -6.912393569946289 35.41436004638672 255 255 255
7.854696750640869 -5.768396377563477 17.821630477905273 255 255 255
53.28792953491211 -25.237207412719727 17.495315551757812 255 255 255
-11.618437767028809 -13.4507417678833 58.93177795410156 255 255 255
-11.455384254455566 -37.96529769897461 161.4612579345703 255 255 255
14.151712417602539 -7.267422676086426 13.171560287475586 255 255 255
20.418088912963867 1.0217130184173584 -3.7142930030822754 255 255 255
19.479877471923828 -5.596925735473633 8.314057350158691 255 255 255
13.830584526062012 -3.0018868446350098 14.237289428710938 255 255 255
16.362565994262695 -5.968043327331543 4.236555099487305 255 255 255
-2.443432569503784 -0.7964573502540588 -3.422635078430176 255 255 255
87.30775451660156 -32.63838577270508 4.854501724243164 255 255 255
-0.8482776284217834 -2.1326587200164795 -20.622207641601562 255 255 255
-3.1142895221710205 -4.391197681427002 -8.799906730651855 255 255 255
-5.074386119842529 -4.5777692794799805 -9.774970054626465 255 255 255
8.587971687316895 -5.251255035400391 15.68337631225586 255 255 255
-28.602731704711914 -9.796746253967285 -12.492318153381348 255 255 255
-24.270570755004883 -12.37044906616211 -18.09619903564453 255 255 255
-28.594615936279297 -10.74653434753418 -13.098408699035645 255 255 255
-22.58432388305664 -6.605251789093018 -0.9752324223518372 255 255 255
-24.154863357543945 -6.785190582275391 -5.97523832321167 255 255 255
10.883371353149414 2.1194100379943848 0.18283745646476746 255 255 255
2.5098683834075928 1.7732727527618408 3.271178960800171 255 255 255
-59.952903747558594 -2.0559496879577637 9.580582618713379 255 255 255
-57.1145133972168 -1.4008212089538574 7.3389692306518555 255 255 255
-59.042686462402344 -3.751357316970825 9.153945922851562 255 255 255
-59.9843864440918 -2.6095082759857178 8.647589683532715 255 255 255
-58.32811737060547 -0.4700203835964203 7.376783847808838 255 255 255
34.53461456298828 -12.639171600341797 -45.016258239746094 255 255 255
45.95068359375 -12.342676162719727 -7.886630535125732 255 255 255
-38.232540130615234 0.13392643630504608 2.976388931274414 255 255 255
-21.74638557434082 -8.170199394226074 -1.7495317459106445 255 255 255
-36.89365005493164 -2.974734306335449 5.766979694366455 255 255 255
-2.1247456073760986 1.1021534204483032 -3.065234661102295 255 255 255
4.54922342300415 -8.719244956970215 22.89219856262207 255 255 255
13.188996315002441 0.84839928150177 11.373106002807617 255 255 255
-4.235936641693115 -4.719416618347168 -8.749383926391602 255 255 255
-5.884530067443848 -5.064787864685059 -9.715338706970215 255 255 255
3.6946282386779785 -9.161138534545898 -37.25687026977539 255 255 255
8.728572845458984 1.0254063606262207 10.217146873474121 255 255 255
-3.761096477508545 -4.018648147583008 26.119647979736328 255 255 255
16.035913467407227 -5.134347438812256 13.044756889343262 255 255 255
10.757650375366211 1.0331332683563232 8.025635719299316 255 255 255
3.820202350616455 3.892054319381714 19.279281616210938 255 255 255
25.0017032623291 -7.59221887588501 1.358368158340454 255 255 255
-1.0746424198150635 -1.6184027194976807 -2.1909966468811035 255 255 255
-1.1484618186950684 -1.8375475406646729 -2.760255813598633 255 255 255
10.012750625610352 1.0284342765808105 -7.920243740081787 255 255 255
10.072417259216309 0.6073434352874756 -8.88035774230957 255 255 255
22.66034507751465 -6.2836689949035645 -2.5044848918914795 255 255 255
6.523667812347412 -4.413124084472656 14.895851135253906 255 255 255
-5.377774238586426 -7.375178813934326 50.73044967651367 255 255 255
11.505593299865723 0.42373836040496826 14.103032112121582 255 255 255
0.007470930460840464 -14.594808578491211 56.27281951904297 255 255 255
3.647972345352173 -6.57422399520874 32.0616455078125 255 255 255
2.4300358295440674 -3.687344789505005 41.11896514892578 255 255 255
8.009357452392578 1.6275689601898193 11.910649299621582 255 255 255
-4.46035099029541 -0.9046406149864197 25.124591827392578 255 255 255
-3.5492663383483887 -5.623989582061768 55.770084381103516 255 255 255
-44.21085739135742 -2.151998519897461 -1.245182991027832 255 255 255
17.807212829589844 1.606221318244934 3.8162474632263184 255 255 255
8.26613712310791 -2.665583848953247 -5.819958209991455 255 255 255
9.603270530700684 -0.5109964609146118 -6.175626754760742 255 255 255
-47.38920211791992 -7.505612850189209 -7.1896891593933105 255 255 255
-53.34055709838867 -7.056090354919434 -1.8172352313995361 255 255 255
-48.454952239990234 -4.649275302886963 -14.773641586303711 255 255 255
-59.6477165222168 -4.818320274353027 6.457687854766846 255 255 255
-59.68302536010742 -1.3944716453552246 8.931045532226562 255 255 255
-44.32990646362305 -5.84654426574707 1.3291033506393433 255 255 255
-54.96829605102539 -0.9323542714118958 7.362851142883301 255 255 255
-43.55265426635742 -8.602228164672852 -5.332091331481934 255 255 255
-60.27109909057617 -1.234761118888855 9.444622993469238 255 255 255
-56.62306594848633 -8.016678810119629 -16.465938568115234 255 255 255
-46.7602653503418 -0.05368613079190254 3.3583765029907227 255 255 255
-58.36717987060547 -3.924240827560425 8.172473907470703 255 255 255
-57.010616302490234 -4.29599142074585 6.700399398803711 255 255 255
12.363890647888184 -4.794304847717285 12.295222282409668 255 255 255
10.531438827514648 2.454627752304077 3.1291964054107666 255 255 255
54.162479400634766 -0.6819441318511963 69.08485412597656 255 255 255
2.9872841835021973 -4.602938175201416 34.585357666015625 255 255 255
12.836820602416992 0.9209341406822205 12.278047561645508 255 255 255
57.04304122924805 -25.987091064453125 27.566667556762695 255 255 255
0.2330857515335083 -5.480819225311279 -38.190956115722656 255 255 255
30.09514808654785 -5.240457057952881 -43.56678771972656 255 255 255
-4.75050163269043 -5.598477840423584 -10.764854431152344 255 255 255
10.415986061096191 -2.3901898860931396 -31.093507766723633 255 255 255
-0.23794019222259521 -8.150623321533203 48.91360092163086 255 255 255
2.3442282676696777 5.643915176391602 43.619258880615234 255 255 255
4.0158586502075195 -2.0989434719085693 18.342376708984375 255 255 255
4.781148910522461 -3.2702629566192627 25.989185333251953 255 255 255
2.231407880783081 -1.9410465955734253 36.571571350097656 255 255 255
2.846808671951294 -2.4850244522094727 46.34675979614258 255 255 255
7.0093560218811035 2.6740047931671143 13.683311462402344 255 255 255
10.907186508178711 0.3807757496833801 13.30764389038086 255 255 255
0.6356409192085266 3.388906240463257 20.414867401123047 255 255 255
2.488725423812866 -7.695708751678467 49.75184631347656 255 255 255
10.446026802062988 3.4326725006103516 19.621583938598633 255 255 255
50.09552001953125 -16.072362899780273 16.093671798706055 255 255 255
36.24692916870117 -0.9144789576530457 -19.509164810180664 255 255 255
-4.995978355407715 -5.41577672958374 -6.606588840484619 255 255 255
-4.42540979385376 -3.98309588432312 -9.938274383544922 255 255 255
13.439006805419922 -3.2190816402435303 13.338323593139648 255 255 255
6.597017288208008 -15.555893898010254 18.246257781982422 255 255 255
13.932466506958008 -0.8761739730834961 -8.742189407348633 255 255 255
9.030917167663574 0.9078763127326965 -7.276476860046387 255 255 255
3.4087233543395996 -3.1712939739227295 24.214324951171875 255 255 255
3.9951233863830566 -4.190681457519531 16.879043579101562 255 255 255
9.432461738586426 1.1877453327178955 11.304840087890625 255 255 255
16.027923583984375 -5.140045642852783 12.98929500579834 255 255 255
5.94868803024292 1.3094247579574585 14.676813125610352 255 255 255
2.570474624633789 6.269482135772705 49.706626892089844 255 255 255
3.769822120666504 1.7504302263259888 45.041107177734375 255 255 255
25.899858474731445 -4.015273094177246 -2.4867477416992188 255 255 255
7.8356242179870605 2.748981475830078 12.094685554504395 255 255 255
62.56939697265625 -29.429458618164062 31.118404388427734 255 255 255
-9.388311386108398 -19.492576599121094 62.48107147216797 255 255 255
-10.415261268615723 -2.017420768737793 -21.938732147216797 255 255 255
-42.17462921142578 -10.363900184631348 -26.731327056884766 255 255 255
-59.90526580810547 -2.586481809616089 -3.3835341930389404 255 255 255
-28.76593780517578 -2.960052013397217 -10.059765815734863 255 255 255
-42.745784759521484 -0.6587051749229431 1.460863471031189 255 255 255
-39.53898620605469 -9.883599281311035 -8.973135948181152 255 255 255
-40.619625091552734 -5.366672039031982 1.700311541557312 255 255 255
-42.742942810058594 -5.81220006942749 2.865111827850342 255 255 255
10.454343795776367 -0.16143359243869781 -8.023269653320312 255 255 255
12.018474578857422 -6.478133678436279 -2.4818649291992188 255 255 255
-34.105464935302734 -6.133789539337158 3.4727120399475098 255 255 255
0.2144635170698166 -1.325888991355896 7.1591691970825195 255 255 255
-4.94083309173584 2.0414788722991943 38.92160415649414 255 255 255
14.08803653717041 -1.061922311782837 12.156705856323242 255 255 255
-8.875490188598633 -1.0446428060531616 -16.482269287109375 255 255 255
8.820602416992188 -10.597049713134766 18.48739242553711 255 255 255
7.77333402633667 -11.040144920349121 20.815879821777344 255 255 255
9.050654411315918 -1.7181470394134521 -10.12326717376709 255 255 255
10.32867431640625 -16.20295524597168 20.835987091064453 255 255 255
-7.824011325836182 4.966955661773682 207.8772430419922 255 255 255
15.729945182800293 -3.6526992321014404 5.623215198516846 255 255 255
3.4745352268218994 2.7995128631591797 18.374608993530273 255 255 255
20.102428436279297 2.178523540496826 6.453646183013916 255 255 255
9.484810829162598 1.7712039947509766 -1.1898987293243408 255 255 255
-2.736884355545044 0.5084572434425354 -4.095343589782715 255 255 255
10.060809135437012 0.3814573287963867 -7.828366756439209 255 255 255
-2.465501546859741 1.209383487701416 -1.1616312265396118 255 255 255
-19.601516723632812 -7.702332496643066 1.9655903577804565 255 255 255
-23.183490753173828 -4.826830863952637 0.2656766176223755 255 255 255
-2.469528913497925 -2.5238332748413086 30.35112953186035 255 255 255
7.584011554718018 2.135096788406372 12.914149284362793 255 255 255
10.309686660766602 0.8725513219833374 10.661255836486816 255 255 255
-2.3020424842834473 -2.3265299797058105 9.861515045166016 255 255 255
-73.38407135009766 -4.805954933166504 60.14856719970703 255 255 255
-69.3365249633789 -0.6173986792564392 59.44213104248047 255 255 255
-14.994500160217285 -1.1782222986221313 -10.400014877319336 255 255 255
-82.22875213623047 20.369211196899414 243.84022521972656 255 255 255
-14.346663475036621 3.478351593017578 32.81269073486328 255 255 255
-7.335248947143555 5.306300163269043 46.339759826660156 255 255 255
-4.288422584533691 1.6105207204818726 23.98401641845703 255 255 255
-8.487814903259277 -1.2636910676956177 22.23447608947754 255 255 255
1.4158624410629272 -4.859877586364746 43.2506103515625 255 255 255
-14.274282455444336 -0.5901482105255127 26.741352081298828 255 255 255
-6.784836292266846 -1.0502886772155762 27.54082679748535 255 255 255
-9.281716346740723 -0.23964641988277435 23.831363677978516 255 255 255
-4.673901557922363 2.164695978164673 18.71475601196289 255 255 255
3.9981532096862793 -0.5696172118186951 37.204490661621094 255 255 255
3.586228609085083 -3.2927725315093994 24.259994506835938 255 255 255
2.714900016784668 -1.8098626136779785 23.001874923706055 255 255 255
3.8871359825134277 2.1087889671325684 22.531278610229492 255 255 255
0.7195252776145935 3.289580821990967 16.569011688232422 255 255 255
5.844169616699219 -5.241310119628906 17.296201705932617 255 255 255
-22.2314510345459 -0.9769672751426697 37.731815338134766 255 255 255
38.96417236328125 -61.58292007446289 265.2606201171875 255 255 255
-5.783596038818359 -6.577117443084717 30.718896865844727 255 255 255
-13.67428970336914 -2.2641072273254395 32.910526275634766 255 255 255
-2.9849092960357666 -1.9029749631881714 26.980392456054688 255 255 255
27.739501953125 -48.08818435668945 197.05911254882812 255 255 255
-18.021446228027344 3.8978042602539062 53.28348922729492 255 255 255
4.592170715332031 3.764533519744873 17.186372756958008 255 255 255
-2.4185688495635986 1.6957639455795288 5.912815570831299 255 255 255
-4.004645347595215 -3.7516133785247803 21.535306930541992 255 255 255
-10.910255432128906 -1.6418120861053467 19.122407913208008 255 255 255
4.587505340576172 -7.679465293884277 44.75861740112305 255 255 255
2.11543607711792 -3.1332998275756836 13.989490509033203 255 255 255
-2.3152687549591064 4.132007598876953 47.70088577270508 255 255 255
-4.144116401672363 -4.4011430740356445 33.37730407714844 255 255 255
-4.4511823654174805 -0.05547942966222763 48.29594421386719 255 255 255
-4.464158535003662 3.2373006343841553 19.201749801635742 255 255 255
2.1767630577087402 -14.5012845993042 49.157569885253906 255 255 255
3.79661226272583 -0.424160361289978 16.457366943359375 255 255 255
-3.8969786167144775 -18.454561233520508 73.14614868164062 255 255 255
6.040655612945557 1.0076960325241089 14.025699615478516 255 255 255
2.0712759494781494 4.612143516540527 35.60696792602539 255 255 255
2.3138177394866943 -1.9208180904388428 38.29798126220703 255 255 255
-3.692988872528076 1.844784140586853 19.77638053894043 255 255 255
3.878105640411377 -3.7427003383636475 23.751081466674805 255 255 255
-1.8418227434158325 -4.420353889465332 47.93789291381836 255 255 255
3.9582066535949707 -0.46178025007247925 16.616682052612305 255 255 255
1.7930915355682373 -11.342066764831543 44.342864990234375 255 255 255
1.5215296745300293 -7.539996147155762 43.642730712890625 255 255 255
-7.54268217086792 6.362496376037598 54.0358772277832 255 255 255
-6.612011432647705 -10.893120765686035 56.690818786621094 255 255 255
5.9708147048950195 -1.4842941761016846 13.967533111572266 255 255 255
-4.4701128005981445 -12.453544616699219 46.918182373046875 255 255 255
-6.335330963134766 5.048639297485352 35.2518196105957 255 255 255
2.681640148162842 -7.650513172149658 32.334991455078125 255 255 255
-59.2453498840332 -7.758401393890381 68.3678207397461 255 255 255
7.449326992034912 -3.657651662826538 14.303670883178711 255 255 255
3.873488187789917 -3.9744515419006348 16.233989715576172 255 255 255
3.3457272052764893 -0.7006248831748962 9.544157981872559 255 255 255
-36.46806716918945 10.870174407958984 90.51995849609375 255 255 255
-13.937816619873047 -5.058104991912842 42.918487548828125 255 255 255
-7.580617427825928 -8.310833930969238 38.6496696472168 255 255 255
-5.839775562286377 -0.7778936624526978 23.560447692871094 255 255 255
1.2257187366485596 -4.697112083435059 42.144588470458984 255 255 255
3.8345911502838135 2.433725357055664 16.681758880615234 255 255 255
3.427752733230591 -3.27541184425354 28.793495178222656 255 255 255
-5.398316383361816 -0.7154178023338318 21.55988121032715 255 255 255
5.197697639465332 -4.024264812469482 15.292505264282227 255 255 255
-11.408737182617188 5.804290771484375 48.83713912963867 255 255 255
4.840441703796387 0.056510988622903824 14.463346481323242 255 255 255
-15.265414237976074 -2.261342763900757 26.38149070739746 255 255 255
7.928306579589844 0.47175395488739014 16.129623413085938 255 255 255
4.254629611968994 -0.1432482749223709 23.58058738708496 255 255 255
6.251435279846191 -5.1495442390441895 29.51242446899414 255 255 255
-27.816028594970703 -9.462808609008789 83.30236053466797 255 255 255
4.563173770904541 -1.099442720413208 15.52560806274414 255 255 255
3.577500820159912 1.355360507965088 15.585197448730469 255 255 255
-30.550575256347656 -1.4188461303710938 71.14985656738281 255 255 255
-8.972441673278809 0.12351515144109726 14.427075386047363 255 255 255
6.0978851318359375 1.0420634746551514 14.083098411560059 255 255 255
-96.64160919189453 21.792612075805664 280.9254455566406 255 255 255
2.3261771202087402 -16.88555908203125 64.45335388183594 255 255 255
-2.661821126937866 -12.700030326843262 51.82496643066406 255 255 255
-1.708032488822937 5.382490634918213 37.75442123413086 255 255 255
-7.633220195770264 5.400701522827148 47.36827850341797 255 255 255
-43.064308166503906 -10.918665885925293 101.97896575927734 255 255 255
-2.3592474460601807 -7.442017555236816 47.95205307006836 255 255 255
-9.596573829650879 5.611354351043701 49.8735466003418 255 255 255
5.20696496963501 0.28654614090919495 14.409695625305176 255 255 255
7.174530982971191 -3.8265810012817383 14.918425559997559 255 255 255
7.063827991485596 -0.5581913590431213 14.16417407989502 255 255 255
0.761519730091095 3.909660816192627 19.77877426147461 255 255 255
3.180510997772217 -8.651545524597168 34.310462951660156 255 255 255
1.598901391029358 -4.101612567901611 45.3292350769043 255 255 255
5.14685583114624 2.608201265335083 13.927328109741211 255 255 255
-5.318442344665527 -1.640099287033081 17.409303665161133 255 255 255
5.054983615875244 2.0450782775878906 14.162301063537598 255 255 255
-10.954484939575195 2.987394332885742 49.03934097290039 255 255 255
-41.605194091796875 4.1160125732421875 44.50259780883789 255 255 255
-65.89215850830078 4.433560371398926 60.8298225402832 255 255 255
-21.937381744384766 -3.066089153289795 54.301551818847656 255 255 255
-63.036441802978516 -6.9895195960998535 63.73931121826172 255 255 255
-70.31890106201172 -18.336851119995117 63.05876159667969 255 255 255
-27.71388816833496 2.783599853515625 40.38742446899414 255 255 255
-33.66410446166992 3.5976717472076416 42.605628967285156 255 255 255
-24.37301254272461 -0.9364949464797974 38.51605987548828 255 255 255
-32.01356506347656 4.939677715301514 41.74982452392578 255 255 255
-5.980469703674316 4.660263538360596 46.88697814941406 255 255 255
-5.885139465332031 1.926379919052124 34.75582504272461 255 255 255
6.073360919952393 -3.9621331691741943 14.81612491607666 255 255 255
4.658781051635742 1.5276803970336914 14.481104850769043 255 255 255
7.696447849273682 -2.9388487339019775 14.586246490478516 255 255 255
-7.638523101806641 -0.9153977036476135 37.296749114990234 255 255 255
4.035546779632568 -3.673445224761963 16.83954429626465 255 255 255
-2.929530620574951 -1.683295726776123 25.69564437866211 255 255 255
7.691768169403076 -0.6644598245620728 14.57262134552002 255 255 255
4.375941276550293 1.750759482383728 14.934210777282715 255 255 255
-14.961370468139648 -0.6172935962677002 27.941986083984375 255 255 255
4.027716159820557 -0.04345934838056564 22.835189819335938 255 255 255
-15.049798965454102 -21.752050399780273 87.76119232177734 255 255 255
-1.3332133293151855 -1.0321694612503052 26.702716827392578 255 255 255
3.381342649459839 -6.086154460906982 30.388198852539062 255 255 255
-53.60200500488281 3.1020312309265137 48.528724670410156 255 255 255
-49.36427688598633 5.287422180175781 58.54204559326172 255 255 255
-56.33087158203125 -7.502639293670654 69.36624908447266 255 255 255
-26.922168731689453 0.7704198360443115 40.706260681152344 255 255 255
-43.097877502441406 -4.12838077545166 65.71687316894531 255 255 255
3.123443603515625 -0.7614182829856873 34.1181755065918 255 255 255
-6.396940231323242 4.182781219482422 28.78221893310547 255 255 255
3.446725368499756 1.8546675443649292 23.064327239990234 255 255 255
3.7307662963867188 0.587077796459198 23.817415237426758 255 255 255
3.611828565597534 -2.4459309577941895 38.85122299194336 255 255 255
-3.1054632663726807 -2.0921292304992676 28.6204776763916 255 255 255
-2.6276166439056396 -7.87176513671875 48.08945846557617 255 255 255
-36.29676055908203 6.180084705352783 75.45390319824219 255 255 255
-11.522383689880371 3.1894938945770264 27.493854522705078 255 255 255
-0.1585710495710373 3.8595943450927734 25.73213005065918 255 255 255
4.337434768676758 -0.15583588182926178 19.09275245666504 255 255 255
2.6681153774261475 3.184061288833618 31.764341354370117 255 255 255
-47.24290466308594 6.655831336975098 73.22792053222656 255 255 255
-1.3824257850646973 -1.0692312717437744 26.71538734436035 255 255 255
-6.878779888153076 -11.903138160705566 51.82512283325195 255 255 255
5.345430850982666 -1.7683273553848267 15.260912895202637 255 255 255
3.5676231384277344 -3.017876148223877 56.670982360839844 255 255 255
-6.776645183563232 -11.689746856689453 50.9144172668457 255 255 255
3.9772603511810303 -0.5337045788764954 36.35661697387695 255 255 255
1.1570476293563843 -8.07286262512207 41.14271545410156 255 255 255
-1.4269152879714966 -1.2894682884216309 26.91547393798828 255 255 255
-4.452383518218994 -5.351115703582764 51.339298248291016 255 255 255
6.224148750305176 -1.0319650173187256 13.900546073913574 255 255 255
-11.466901779174805 -2.290337562561035 34.682952880859375 255 255 255
2.03861403465271 -17.267404556274414 66.41543579101562 255 255 255
-2.825922727584839 -13.209657669067383 53.55221176147461 255 255 255
-8.19068717956543 -8.994331359863281 41.6153450012207 255 255 255
5.447813510894775 -17.728313446044922 73.92854309082031 255 255 255
-0.42671695351600647 -8.85639762878418 50.63897705078125 255 255 255
1.9768056869506836 -12.551962852478027 69.5025405883789 255 255 255
-2.631303310394287 -8.628931045532227 51.06346130371094 255 255 255
1.4965022802352905 -0.31310251355171204 45.660701751708984 255 255 255
7.72605037689209 -3.7664921283721924 14.783729553222656 255 255 255
-5.547232627868652 5.081827163696289 33.0521240234375 255 255 255
-2.0839712619781494 -1.0629420280456543 28.906293869018555 255 255 255
13.213963508605957 -28.938335418701172 116.12187194824219 255 255 255
-7.029422283172607 -1.759884238243103 36.37562942504883 255 255 255
6.934762954711914 0.3957398235797882 14.00943660736084 255 255 255
5.996731281280518 -3.8955469131469727 14.668764114379883 255 255 255
3.7047977447509766 -2.4774155616760254 25.38978385925293 255 255 255
-5.712286472320557 2.589226722717285 46.52447509765625 255 255 255
-0.19560538232326508 -0.03854674473404884 49.126094818115234 255 255 255
2.3017261028289795 -7.083088397979736 39.91677474975586 255 255 255
4.14694356918335 -1.9924945831298828 17.57166862487793 255 255 255
-20.004961013793945 4.784051418304443 50.02263641357422 255 255 255
-12.938542366027832 -25.68714714050293 105.7430419921875 255 255 255
3.8964462280273438 2.4303388595581055 17.2928466796875 255 255 255
3.7627670764923096 1.389478325843811 16.056011199951172 255 255 255
3.588881492614746 -3.3893394470214844 23.777164459228516 255 255 255
-5.307252883911133 2.42423152923584 21.05630874633789 255 255 255
-20.569339752197266 7.179642200469971 52.72483825683594 255 255 255
4.031843185424805 3.2344653606414795 14.606797218322754 255 255 255
4.160506248474121 -2.2309792041778564 20.551557540893555 255 255 255
3.1589574813842773 1.8474920988082886 44.2205696105957 255 255 255
-4.420008659362793 0.3479234278202057 46.28907012939453 255 255 255
-4.831514358520508 3.0184614658355713 45.8359489440918 255 255 255
5.071999549865723 2.557215929031372 13.640908241271973 255 255 255
-4.53676176071167 -3.2642717361450195 19.8016300201416 255 255 255
-4.510223865509033 -3.117859363555908 42.83072280883789 255 255 255
-18.279027938842773 5.405628681182861 70.18602752685547 255 255 255
3.2263548374176025 -2.8101847171783447 32.188697814941406 255 255 255
3.0176565647125244 -8.608652114868164 35.91460418701172 255 255 255
2.8719165325164795 3.2688684463500977 15.541519165039062 255 255 255
-9.551534652709961 0.371075838804245 22.59284782409668 255 255 255
-12.23365592956543 0.49184688925743103 28.81873321533203 255 255 255
-10.335258483886719 -0.17684116959571838 31.628469467163086 255 255 255
3.197625160217285 3.1016433238983154 14.901742935180664 255 255 255
-17.068466186523438 4.5626020431518555 40.86699676513672 255 255 255
2.3032028675079346 -1.5726685523986816 39.0932731628418 255 255 255
1.5736920833587646 -6.18366003036499 54.79918670654297 255 255 255
3.6052756309509277 2.078217029571533 19.60051918029785 255 255 255
3.770983934402466 2.226139545440674 16.00445556640625 255 255 255
5.89194917678833 -3.8052470684051514 14.47014331817627 255 255 255
1.5847443342208862 0.01545683667063713 44.15804672241211 255 255 255
-16.88009262084961 -0.9974415898323059 51.893367767333984 255 255 255
7.404274940490723 -14.356965065002441 72.68053436279297 255 255 255
7.147894859313965 -20.205636978149414 65.88204193115234 255 255 255
-2.2528648376464844 -0.7506771683692932 26.66058349609375 255 255 255
6.139160633087158 1.0419844388961792 14.208215713500977 255 255 255
3.307633876800537 3.1856696605682373 16.60102081298828 255 255 255
-5.406408309936523 -9.4268159866333 52.81319808959961 255 255 255
-11.323092460632324 -1.1133441925048828 29.527929306030273 255 255 255
3.7900431156158447 3.3180558681488037 15.430964469909668 255 255 255
-78.19326782226562 -3.5020036697387695 61.86884689331055 255 255 255
-31.762109756469727 -5.051756381988525 58.52226638793945 255 255 255
-22.393428802490234 3.936544895172119 37.19840621948242 255 255 255
-2.296886682510376 -11.98438549041748 63.194576263427734 255 255 255
-11.296052932739258 3.1650962829589844 22.21831703186035 255 255 255
-4.617615699768066 -3.2405846118927 21.176807403564453 255 255 255
3.532846689224243 -6.300551891326904 28.044696807861328 255 255 255
-4.330170154571533 -0.7187952995300293 44.60254669189453 255 255 255
4.63164758682251 -4.757118225097656 29.383705139160156 255 255 255
-11.2984037399292 3.2411367893218994 59.94725036621094 255 255 255
-26.586484909057617 -8.09121036529541 53.87735366821289 255 255 255
-14.606310844421387 3.5531723499298096 33.046234130859375 255 255 255
-4.417026996612549 3.241617441177368 19.20746612548828 255 255 255
-12.667123794555664 -3.747558355331421 27.542627334594727 255 255 255
-13.44438648223877 -1.8684591054916382 28.700387954711914 255 255 255
-3.0469682216644287 -2.7940750122070312 18.596534729003906 255 255 255
4.136865139007568 -4.305625915527344 17.08847999572754 255 255 255
3.8177034854888916 -3.8724324703216553 24.171710968017578 255 255 255
4.480902671813965 -0.9617964625358582 15.048640251159668 255 255 255
2.4340689182281494 -5.670811653137207 40.88330078125 255 255 255
1.871070384979248 -12.14883041381836 45.09547805786133 255 255 255
0.8518031239509583 -13.821685791015625 46.19792938232422 255 255 255
4.203098773956299 4.231746673583984 24.8232479095459 255 255 255
-5.823984146118164 5.891363620758057 41.3988151550293 255 255 255
-5.637064456939697 4.60713005065918 45.69978713989258 255 255 255
2.1045877933502197 4.9435715675354 37.53268051147461 255 255 255
-24.634233474731445 0.3088926374912262 53.46999740600586 255 255 255
-62.05453109741211 4.658177852630615 71.79241180419922 255 255 255
-56.2150993347168 4.750768661499023 69.24073028564453 255 255 255
-69.76026916503906 -6.096543312072754 61.044715881347656 255 255 255
-61.64890670776367 -1.3721798658370972 66.46714782714844 255 255 255
-26.399330139160156 1.1704975366592407 40.91652297973633 255 255 255
-48.713714599609375 -15.698053359985352 69.03520965576172 255 255 255
-22.370622634887695 4.884384632110596 39.14613723754883 255 255 255
-88.73880004882812 -4.626029014587402 53.797061920166016 255 255 255
-31.19449806213379 -8.011371612548828 57.258853912353516 255 255 255
-18.948049545288086 0.3296612799167633 51.33615493774414 255 255 255
-10.109994888305664 5.592889785766602 47.942230224609375 255 255 255
-58.9608268737793 8.177794456481934 109.49195098876953 255 255 255
-30.357934951782227 5.263850212097168 55.01322937011719 255 255 255
-3.3140485286712646 -2.7181692123413086 13.9652738571167 255 255 255
-11.97629165649414 1.9473512172698975 37.18727493286133 255 255 255
-2.8347628116607666 -7.475712299346924 47.02116775512695 255 255 255
-3.4842240810394287 -2.772937774658203 20.314685821533203 255 255 255
-1.6382249593734741 -13.264382362365723 49.536136627197266 255 255 255
3.8532934188842773 -0.3868355453014374 35.236351013183594 255 255 255
6.377304553985596 -0.8275085091590881 14.665146827697754 255 255 255
-19.27497100830078 -0.6832103729248047 48.581512451171875 255 255 255
-99.43122863769531 -7.468732833862305 -37.14702606201172 255 255 255
-78.54582214355469 -7.308883190155029 50.08161163330078 255 255 255
-77.26939392089844 -7.2811479568481445 49.609622955322266 255 255 255
-65.21219635009766 -1.686137080192566 38.49195098876953 255 255 255
-75.26280975341797 2.7812154293060303 48.27301025390625 255 255 255
-64.6828384399414 -3.4636924266815186 41.727386474609375 255 255 255
-77.31230163574219 -6.4665913581848145 59.28611755371094 255 255 255
-74.60454559326172 2.6297922134399414 47.01094436645508 255 255 255
-78.503173828125 -6.6875386238098145 50.12781524658203 255 255 255
-77.95060729980469 -6.9113287925720215 49.555076599121094 255 255 255
-67.01986694335938 -5.2845234870910645 45.99071502685547 255 255 255
-68.45193481445312 -6.070958614349365 63.76218795776367 255 255 255
-97.00199127197266 -12.645049095153809 -26.70090103149414 255 255 255
-71.10963439941406 1.2797785997390747 23.20827293395996 255 255 255
-63.04762649536133 1.1831156015396118 20.19686508178711 255 255 255
-87.19800567626953 -14.949112892150879 5.441484451293945 255 255 255
-95.4382553100586 -27.594829559326172 -43.01520538330078 255 255 255
-65.23882293701172 2.1026039123535156 39.23509979248047 255 255 255
3.578608274459839 3.0307483673095703 19.470497131347656 255 255 255
-71.85956573486328 -7.516789436340332 47.962066650390625 255 255 255
-87.98137664794922 2.702915668487549 52.31040573120117 255 255 255
-71.00056457519531 -6.3763556480407715 45.999210357666016 255 255 255
-70.49043273925781 -5.1601643562316895 30.124727249145508 255 255 255
-69.61680603027344 -1.4260274171829224 46.38631820678711 255 255 255
-67.52938842773438 -2.5486748218536377 35.40826416015625 255 255 255
-70.42332458496094 -4.6998090744018555 29.34416389465332 255 255 255
-71.8918685913086 0.12171894311904907 27.02440071105957 255 255 255
-66.2834243774414 -5.117109775543213 38.0257568359375 255 255 255
-66.38790130615234 -5.24527645111084 38.01339340209961 255 255 255
-93.60603332519531 -7.25506591796875 -36.60676574707031 255 255 255
-85.82929992675781 -3.4720730781555176 -7.846480369567871 255 255 255
-102.0407943725586 -16.485857009887695 -36.985595703125 255 255 255
2.696181058883667 -0.11783946305513382 39.96689987182617 255 255 255
2.804858684539795 3.1540184020996094 35.94743728637695 255 255 255
-9.515917778015137 0.8238667845726013 47.613380432128906 255 255 255
-7.181442737579346 -2.397049903869629 41.99359130859375 255 255 255
-80.30313873291016 -21.410015106201172 -40.82328796386719 255 255 255
-104.73027801513672 -25.07592010498047 -20.746084213256836 255 255 255
-39.92416763305664 -3.230555534362793 64.8254623413086 255 255 255
-62.72180938720703 -5.476076126098633 66.11451721191406 255 255 255
1.036041259765625 3.359347343444824 41.97682571411133 255 255 255
-8.634767532348633 6.325912952423096 63.30727767944336 255 255 255
2.1603050231933594 4.502383708953857 35.70520782470703 255 255 255
-4.094074726104736 1.4130531549453735 25.957561492919922 255 255 255
5.950675964355469 -3.9207146167755127 14.251917839050293 255 255 255
-15.963467597961426 1.4604339599609375 46.70573043823242 255 255 255
4.516104221343994 -7.306501865386963 40.40542984008789 255 255 255
2.72536039352417 1.2480562925338745 31.949148178100586 255 255 255
-6.174883842468262 -5.3386759757995605 40.857452392578125 255 255 255
-9.538650512695312 -0.13643702864646912 25.03997802734375 255 255 255
4.037491798400879 -0.022397208958864212 23.026966094970703 255 255 255
1.4379934072494507 -3.8815441131591797 43.82084655761719 255 255 255
-2.4352939128875732 -7.3979902267456055 45.170265197753906 255 255 255
0.15201638638973236 -12.471074104309082 47.47374725341797 255 255 255
-7.60529088973999 -0.31902751326560974 75.98918914794922 255 255 255
8.569705963134766 -2.9445221424102783 14.817105293273926 255 255 255
-4.334446430206299 -11.70819091796875 50.05264663696289 255 255 255
1.9907668828964233 3.2086172103881836 15.72594928741455 255 255 255
-3.1526176929473877 0.30775704979896545 22.397619247436523 255 255 255
-8.045554161071777 -2.0487005710601807 32.51527404785156 255 255 255
-6.441934585571289 -10.868302345275879 48.62803649902344 255 255 255
-167.74948120117188 -31.749271392822266 488.6253967285156 255 255 255
4.37234354019165 -8.035310745239258 37.36693572998047 255 255 255
-2.6402313709259033 -12.00217056274414 49.19742202758789 255 255 255
-15.576655387878418 3.724984645843506 47.07416534423828 255 255 255
-5.895173072814941 -12.204017639160156 49.810916900634766 255 255 255
5.589391708374023 -8.788187026977539 36.56856155395508 255 255 255
-4.579407691955566 -1.1219077110290527 22.81589126586914 255 255 255
-6.618884563446045 -2.495642900466919 45.5307502746582 255 255 255
-11.856746673583984 -3.0527052879333496 47.12785339355469 255 255 255
6.620117664337158 -3.1293516159057617 14.946885108947754 255 255 255
-6.580160617828369 -3.387315273284912 27.862409591674805 255 255 255
2.2175076007843018 2.317366123199463 13.186861038208008 255 255 255
-88.27318572998047 -19.388689041137695 -45.422786712646484 255 255 255
-105.71098327636719 -22.935089111328125 -39.76791000366211 255 255 255
-65.13154602050781 2.102142810821533 39.28549575805664 255 255 255
-61.8821907043457 1.3483870029449463 16.889877319335938 255 255 255
-78.79522705078125 -29.606483459472656 -45.22654724121094 255 255 255
-69.16276550292969 -7.610366344451904 31.55042839050293 255 255 255
-80.68347930908203 -6.529487609863281 12.192036628723145 255 255 255
2.318732500076294 4.009089946746826 35.473209381103516 255 255 255
-0.7263502478599548 4.497444152832031 32.464778900146484 255 255 255
-69.0360336303711 -3.9064576625823975 32.15616989135742 255 255 255
-15.505352973937988 4.7025227546691895 46.96674728393555 255 255 255
-1.1693990230560303 4.600038528442383 32.51504135131836 255 255 255
1.8634696006774902 -1.310925841331482 44.69514083862305 255 255 255
1.6918307542800903 -1.426821231842041 43.6612548828125 255 255 255
-9.226625442504883 -2.673626661300659 47.82722473144531 255 255 255
-2.0216009616851807 4.236528396606445 44.157997131347656 255 255 255
-13.925039291381836 1.61844003200531 50.02845764160156 255 255 255
-11.732710838317871 3.626304864883423 24.743017196655273 255 255 255
-1.7090059518814087 -9.497247695922852 49.6795654296875 255 255 255
3.915571928024292 2.1168785095214844 15.57055950164795 255 255 255
-63.012001037597656 -32.46862030029297 -51.05133056640625 255 255 255
-93.62094116210938 -17.678611755371094 -56.87047576904297 255 255 255
-71.5091552734375 -6.332310676574707 28.627843856811523 255 255 255
-87.40972900390625 -2.230437755584717 2.221876382827759 255 255 255
-93.28633117675781 -13.207643508911133 -45.59077072143555 255 255 255
-12.708312034606934 5.988651752471924 50.60691833496094 255 255 255
-53.58039855957031 -0.5983079075813293 70.41600799560547 255 255 255
-59.74140930175781 -11.307012557983398 65.01187896728516 255 255 255
-8.322936058044434 0.23036381602287292 46.88050842285156 255 255 255
-18.163673400878906 5.630681037902832 46.14197540283203 255 255 255
4.590832710266113 -3.258673667907715 22.35784339904785 255 255 255
-5.145690441131592 -2.6818320751190186 22.621095657348633 255 255 255
5.191771030426025 0.5989142060279846 14.806724548339844 255 255 255
-12.117036819458008 -3.2104005813598633 52.68535232543945 255 255 255
5.911272048950195 -0.46062156558036804 14.478377342224121 255 255 255
6.21608304977417 -1.5393729209899902 14.536052703857422 255 255 255
-158.76104736328125 9.040233612060547 457.21759033203125 255 255 255
-5.032262802124023 -4.751121997833252 24.942752838134766 255 255 255
3.9123001098632812 2.8011550903320312 17.40351676940918 255 255 255
-3.7612695693969727 3.2284395694732666 18.890796661376953 255 255 255
-5.020874500274658 -3.5106687545776367 48.9325065612793 255 255 255
-3.4271953105926514 -2.930222988128662 23.520660400390625 255 255 255
-12.750309944152832 -1.113901138305664 32.600067138671875 255 255 255
-4.039824962615967 -4.034367561340332 23.71063804626465 255 255 255
-129.50448608398438 26.0720157623291 321.89288330078125 255 255 255
-8.67418098449707 -14.447370529174805 64.13497924804688 255 255 255
2.4614880084991455 -6.933163642883301 28.652992248535156 255 255 255
2.142157554626465 -7.6256184577941895 41.74989700317383 255 255 255
-2.9740405082702637 -5.293233871459961 24.000301361083984 255 255 255
-33.713958740234375 3.916886568069458 63.330501556396484 255 255 255
-9.246602058410645 3.806410074234009 39.651824951171875 255 255 255
-4.073310375213623 -1.5776965618133545 27.006736755371094 255 255 255
3.431450605392456 -6.089437484741211 29.169660568237305 255 255 255
-4.811642169952393 -10.770647048950195 48.06023025512695 255 255 255
4.498422622680664 -2.884697437286377 15.317411422729492 255 255 255
7.406664848327637 0.7236850261688232 17.222436904907227 255 255 255
4.110657215118408 3.2311935424804688 14.585734367370605 255 255 255
-3.377826452255249 0.018599940463900566 25.249404907226562 255 255 255
4.322812080383301 -3.5243260860443115 18.376110076904297 255 255 255
-3.8971593379974365 -1.5171977281570435 26.46613883972168 255 255 255
5.047538757324219 3.105492115020752 14.176772117614746 255 255 255
-75.4197006225586 -7.323831081390381 49.109554290771484 255 255 255
-75.62045288085938 -6.359393119812012 57.64459228515625 255 255 255
-67.8739013671875 0.9331617951393127 45.56856918334961 255 255 255
-74.72549438476562 -4.820224285125732 -33.37278747558594 255 255 255
-54.216575622558594 -9.773530006408691 -47.41915512084961 255 255 255
-76.60810852050781 -7.284705638885498 -36.79758834838867 255 255 255
-82.44705963134766 -8.377079010009766 -32.842041015625 255 255 255
-83.60489654541016 -6.136104106903076 -41.048133850097656 255 255 255
-66.70549774169922 -11.47937297821045 -41.28169631958008 255 255 255
-82.6491928100586 -5.162007808685303 -30.82798957824707 255 255 255
-79.90567779541016 -13.392175674438477 -43.193504333496094 255 255 255
-30.645095825195312 -2.7968130111694336 45.222049713134766 255 255 255
-14.346616744995117 1.0718218088150024 49.666053771972656 255 255 255
-69.1057357788086 -5.912125587463379 58.68752670288086 255 255 255
-1400.8814697265625 -486.1125183105469 741.6958618164062 255 255 255
-11.364596366882324 5.169522285461426 47.48018264770508 255 255 255
-9.447965621948242 0.15716713666915894 47.68284606933594 255 255 255
-10.371031761169434 -0.14572879672050476 47.986412048339844 255 255 255
-23.768526077270508 5.729508876800537 45.02437973022461 255 255 255
-71.39036560058594 -3.149700403213501 25.415664672851562 255 255 255
-71.67707824707031 -1.0167489051818848 27.476591110229492 255 255 255
-10.246310234069824 3.501387119293213 38.1224479675293 255 255 255
2.8538906574249268 -0.35540997982025146 38.88200759887695 255 255 255
-2.7431607246398926 -8.04154109954834 47.03156280517578 255 255 255
-18.007963180541992 3.921874523162842 45.80575942993164 255 255 255
-22.41242790222168 -11.01430892944336 171.5774688720703 255 255 255
0.48110124468803406 -20.670629501342773 67.5675277709961 255 255 255
-11.582184791564941 7.242875099182129 62.439266204833984 255 255 255
-9.913816452026367 0.3847627341747284 23.40262794494629 255 255 255
-4.105994701385498 -0.9991488456726074 23.45977783203125 255 255 255
-8.093484878540039 3.3648033142089844 61.84532165527344 255 255 255
-13.581827163696289 -37.49913787841797 117.52684783935547 255 255 255
0.3031601309776306 -13.804696083068848 46.50286865234375 255 255 255
-12.544251441955566 -0.7457276582717896 38.9964599609375 255 255 255
8.212859153747559 -1.4056508541107178 14.701085090637207 255 255 255
0.9327220320701599 3.499584197998047 40.572265625 255 255 255
-3.707448720932007 3.1870248317718506 18.736310958862305 255 255 255
-10.389620780944824 -0.16482265293598175 48.58285903930664 255 255 255
-50.48521423339844 -16.5726375579834 70.4203109741211 255 255 255
-11.427534103393555 -10.793095588684082 -50.53094482421875 255 255 255
-6.847383975982666 -11.033076286315918 -62.98225784301758 255 255 255
-6.329801082611084 5.343939304351807 45.09419631958008 255 255 255
-60.28958511352539 -3.8054070472717285 67.03473663330078 255 255 255
-9.992354393005371 5.385409832000732 46.682003021240234 255 255 255
-10.022598266601562 0.8719474077224731 48.54549026489258 255 255 255
-68.93663787841797 3.033740758895874 54.67475128173828 255 255 255
-55.647056579589844 -15.648919105529785 68.13402557373047 255 255 255
-91.45977020263672 -17.63179588317871 71.19631958007812 255 255 255
-48.285282135009766 -9.582673072814941 70.12037658691406 255 255 255
-22.07175636291504 -0.4479169249534607 39.021018981933594 255 255 255
-7.462321758270264 3.0410547256469727 46.8361701965332 255 255 255
-7.533709526062012 0.8432814478874207 47.0465087890625 255 255 255
-60.81759262084961 -17.013267517089844 66.35221862792969 255 255 255
-37.440086364746094 -8.913272857666016 61.71969223022461 255 255 255
-45.189334869384766 2.0500595569610596 66.27098083496094 255 255 255
-33.191627502441406 -6.459192276000977 58.98029327392578 255 255 255
-42.41206741333008 1.968643307685852 64.12073516845703 255 255 255
-54.352027893066406 -0.9036864042282104 68.46204376220703 255 255 255
-19.462106704711914 4.783030033111572 45.258323669433594 255 255 255
-18.564599990844727 -0.9903133511543274 51.10523223876953 255 255 255
-18.230297088623047 -0.8305829167366028 50.66151428222656 255 255 255
-51.722660064697266 -0.5106309056282043 69.62287139892578 255 255 255
-4.024561405181885 1.4081792831420898 8.003457069396973 255 255 255
-6.441514492034912 -8.909985542297363 52.82563781738281 255 255 255
3.8573944568634033 0.4327407777309418 22.69694709777832 255 255 255
-2.6490585803985596 -2.251755714416504 9.568857192993164 255 255 255
4.123436450958252 -7.902407646179199 31.0942440032959 255 255 255
-5.152497291564941 -0.6803870797157288 30.11623764038086 255 255 255
7.4142069816589355 1.1841540336608887 14.448010444641113 255 255 255
-36.97904586791992 8.520577430725098 90.23709869384766 255 255 255
-2.9737977981567383 5.675107955932617 40.21568298339844 255 255 255
-4.652550220489502 -3.72304105758667 48.33240509033203 255 255 255
2.7704546451568604 -4.303586006164551 40.61362838745117 255 255 255
-18.78203773498535 5.2715559005737305 46.16681671142578 255 255 255
-29.540348052978516 2.9761314392089844 40.69623565673828 255 255 255
-30.298038482666016 -1.6902799606323242 63.46730422973633 255 255 255
-62.62361145019531 1.7274178266525269 42.19449234008789 255 255 255
-95.95433807373047 -6.575833320617676 -32.79861068725586 255 255 255
-96.8083267211914 -17.034879684448242 -42.509403228759766 255 255 255
-66.46961975097656 -2.607778549194336 38.570274353027344 255 255 255
41.65413284301758 -17.422771453857422 -3.4783918857574463 255 255 255
11.481666564941406 -4.319360733032227 -41.29866027832031 255 255 255
30.913379669189453 -0.7601773142814636 -30.230113983154297 255 255 255
3.994917869567871 -3.6425423622131348 -36.27656555175781 255 255 255
-4.223435401916504 -10.09601879119873 -53.07566833496094 255 255 255
-0.4878073036670685 -6.429542064666748 -38.68875503540039 255 255 255
-39.97372055053711 -6.034126281738281 63.820674896240234 255 255 255
-37.034000396728516 -0.9554387927055359 60.11438751220703 255 255 255
-13.974448204040527 4.622377395629883 45.7668571472168 255 255 255
-44.419464111328125 3.1501312255859375 66.06704711914062 255 255 255
-19.49996566772461 5.6435747146606445 46.624942779541016 255 255 255
-66.76568603515625 0.4676635265350342 37.323890686035156 255 255 255
-63.54845428466797 -0.9654880166053772 40.42323303222656 255 255 255
-67.71349334716797 -3.282197952270508 45.8754997253418 255 255 255
-64.53794860839844 -1.2085974216461182 38.780120849609375 255 255 255
0.6973381042480469 2.7811362743377686 16.120624542236328 255 255 255
-19.92064094543457 -19.885711669921875 91.5106201171875 255 255 255
-5.669402599334717 -4.422239780426025 25.882492065429688 255 255 255
