30.225911127158035 -6.543599981390282 12.869977036111862 248 238 241 
30.64183662737272 -6.83469422585788 13.337578497435057 196 181 176 
30.735643766805055 -5.921741256314177 8.64599671368892 113 112 117 
30.25042895832282 -6.570046243779914 12.910698444153876 167 166 162 
30.288864004522825 -5.056851950876683 7.072969560944522 237 228 221 
31.062448773277467 -6.771699071422455 13.636516554027033 244 236 236 
30.4405265699029 -6.92356247372681 13.268819047260116 184 184 186 
30.772692590652124 -6.572189527360551 13.51166727195908 207 206 204 
27.035146552891234 -5.826628026373175 10.065453306199998 231 231 233 
27.078774257940566 -5.875242159498651 10.056381731398872 135 135 137 
27.301589095958718 -5.701503842509031 10.35238133876619 209 207 208 
27.130801733682667 -5.768973927091562 10.34913983393551 203 194 195 
30.696046365428202 -5.158829073363254 7.135914335425355 98 90 63 
30.68557272194503 -5.1785493873870205 7.137781385568765 52 44 8 
30.369101670973958 -5.142071450076615 7.153952436186348 106 106 93 
29.309235229189383 -6.145938701904625 11.906186575600014 211 210 206 
30.36735820312231 -5.14225264199863 7.157084106112407 106 106 93 
30.016510320968493 -5.179497059997687 7.133750528090719 80 82 57 
30.163992713587227 -5.181269590960546 7.172068980539162 149 148 144 
30.11913767442034 -5.218602268953977 7.1691928883271245 69 69 59 
30.19287970193959 -5.121126451211922 7.07733313013653 63 62 60 
27.24377119270363 -5.7545997145022465 10.226984644911173 203 194 195 
28.794665493264503 -6.196144425130173 11.528723978681292 164 150 142 
29.40565926689051 -5.525069754148798 7.380052110651423 237 237 239 
28.784922179884667 -6.19946360810698 11.551334574462405 164 150 142 
27.905332319790922 -5.1898636100026065 8.731647350510915 96 98 75 
27.25785492251353 -6.004640219020172 10.256160387189436 223 213 208 
28.721217407360864 -6.68506980838601 11.434898324229046 103 104 108 
29.97275653418012 -5.161981747956465 7.124613895975845 94 97 68 
31.491882004396338 -5.510733664363907 8.061119959188627 243 241 245 
30.09688714234638 -5.126647155424258 7.081374216659004 57 53 53 
28.739648733211013 -6.729325261987505 11.354937712351042 108 112 114 
29.469290761687 -5.360915884717782 7.512802323411066 215 209 209 
29.42260766055005 -5.54802050089222 7.463694099825091 228 226 227 
29.431428217479557 -5.545115245753792 7.454408272127093 228 226 227 
26.87345788123535 -5.888986916467669 10.01894280529072 142 131 137 
27.048900434337433 -5.824820040389971 10.050355269841972 235 235 237 
27.44754229254582 -6.060512227128892 10.478996240252197 231 223 223 
27.436625923618987 -6.103792443036158 10.448699677620183 74 63 72 
27.30113178212375 -5.798402271497667 10.350033990618815 143 134 128 
27.59452979889788 -5.845047930980835 10.498665694828336 160 154 148 
27.542527433457657 -5.856585556477546 10.484924782186656 226 217 208 
27.463785263633177 -5.830265667894038 10.47721344749516 156 144 141 
30.221259332382544 -5.149751207758904 7.254009121620694 63 64 44 
30.47984339995633 -5.296383166019133 7.203534027901508 54 55 58 
30.475480072426194 -5.225530453449003 7.193546126157553 92 87 27 
26.967337965850895 -5.9132213235366375 10.00237784436078 238 238 240 
27.615744742537462 -5.85292715492649 10.554285198047587 240 233 230 
27.46994065407516 -6.139537645240758 10.467945843118397 152 150 152 
27.4943150174292 -6.036636223281639 10.52091485620609 158 151 136 
27.412893281536455 -5.807994038092386 10.377845562406684 132 123 117 
27.216633329898833 -5.789367899144087 10.367281025559816 126 116 114 
27.223887801906663 -5.787581180936057 10.36000948526776 126 116 114 
30.653355943951617 -5.1093978558485995 7.111099833951528 124 120 113 
27.45132483852978 -5.937382191815389 10.531278556845717 154 138 124 
31.891290219781915 -5.4296430911652 8.26842647317897 75 73 76 
27.51136012643952 -5.848263290370781 10.449567715223104 243 234 230 
29.346526791393416 -5.656071232075503 8.931597855619085 109 102 95 
29.41094932763907 -5.410597976902731 7.405888665390201 246 236 233 
28.224649379758297 -6.028859538272061 10.949642768934265 166 160 149 
30.77687052479098 -5.122167285141232 7.112101120152431 109 101 107 
30.476843546147137 -5.2475174603598695 7.217889781928697 236 243 55 
30.47760361696914 -5.247958493951188 7.217081225569604 236 243 55 
30.48543924190109 -5.0972957294822265 7.23851658189335 60 59 55 
30.795640607765208 -5.099163307608096 7.110508787873336 65 63 64 
30.80266253153495 -5.125296944537934 7.118883498567165 71 64 70 
30.732077055000566 -5.0929514109689755 7.162639463388178 68 66 67 
30.803599288055764 -5.145200422463139 7.115666894092151 75 74 70 
30.665991662241904 -5.1510598550022 7.156591115138642 226 232 102 
30.488172892853676 -5.325375355194967 7.190339069875197 80 85 63 
30.81778924216561 -5.108189546711687 7.104474935023177 245 243 246 
30.6639569729981 -5.193000760092712 7.439423220537741 122 119 102 
30.362235738137684 -5.112545005807217 7.192225681465327 181 177 168 
30.560482905525035 -5.161679188931463 7.195190504679662 248 254 151 
30.566376045301624 -5.16132301990251 7.187158748001362 248 254 151 
30.48118049376952 -5.26544466888669 7.20462231271015 237 248 73 
30.48118049376952 -5.26544466888669 7.20462231271015 237 248 73 
30.95977812367981 -5.147740062082802 7.294420239799251 56 50 54 
30.735650564859753 -5.1461312587747745 7.107628998175233 229 234 149 
30.969694460239023 -5.154660735327034 7.305263245569584 245 240 242 
30.715994077443284 -5.094289743003333 7.1561089003451706 243 239 240 
30.750514085388588 -5.162682035874826 7.1245563133306895 125 120 130 
30.89512691600199 -5.168365545009344 7.345764236315219 80 75 79 
30.246267412536525 -5.070005548538846 6.956416309626356 199 196 190 
26.832102306474802 -6.035699776133413 10.150810997710273 188 188 190 
27.083076984337357 -5.852825415235522 10.129560332975903 149 148 150 
29.439819967760005 -5.297336453420315 7.502429662085579 112 106 106 
29.40632715930638 -5.338283032204753 7.454085580058823 219 218 216 
30.29846523143101 -5.204648491657118 7.258913444147101 99 106 89 
30.097889860330504 -5.233717026206867 7.166195982052397 88 90 68 
27.1280193122797 -5.903528203474612 10.21989312931673 136 124 119 
29.453670689327314 -5.393677836232016 7.4520476953159935 95 94 92 
31.755820663767494 -5.656960175005811 8.462388853092534 217 215 216 
30.39522113339106 -5.291344543848045 7.238415594283609 60 64 61 
26.878584995338194 -5.799861670028846 10.044564471017889 130 114 104 
29.481448643738865 -5.671691340932803 8.946853634031534 128 125 118 
29.412157691227577 -5.355804100539162 7.837314822405734 223 222 218 
30.43511232880035 -5.1402105544191 7.272172841083602 57 46 47 
29.476817872338614 -5.68311989530487 8.906163783437936 219 216 210 
30.559920404438962 -5.257626919687814 7.348020289110838 190 182 175 
30.453325175018563 -5.2511791208046965 7.1886747911702145 56 53 52 
30.716225086786963 -5.204324378694822 7.117512105129052 66 59 68 
30.493961264311878 -5.3149700837599125 7.184001661725691 222 227 216 
30.653898558677806 -6.218720946754349 7.906663417438654 75 75 84 
30.927297047654257 -5.2555808830039945 7.6629646594955005 170 164 152 
30.740919816194356 -6.248969755615172 7.7790158214667 91 96 92 
30.908204827846852 -5.241507040865549 7.319081699247324 171 169 174 
30.924189859734696 -6.2471785168344205 7.738867239883675 128 139 122 
30.640241046390095 -5.1557839300640875 7.16066351290112 61 52 67 
30.787387248574937 -6.243735314348975 7.783143584673226 83 88 82 
30.81120968932901 -5.463401813854053 8.020937451552541 54 52 41 
30.84022183730998 -5.435265852599107 8.063764291080211 104 102 85 
30.73446852131915 -5.146863914612217 7.108273868515216 233 237 156 
30.857462328210985 -6.221306924665069 7.805023556055183 81 88 78 
30.705769881346868 -5.226974267650002 7.124128552794726 239 231 221 
30.707302073686453 -5.131425462898296 7.139851881205971 71 64 48 
30.712651795145465 -6.157634228798303 7.863699811327965 134 142 132 
30.58270973089923 -5.2655750073215595 7.468666083206944 84 74 65 
30.70170123342431 -6.241323451068554 7.803591298834476 142 147 141 
30.817814355202586 -5.443146323325237 8.042058097466843 116 117 103 
30.781334240780886 -5.535746295243612 8.074386613097978 109 118 93 
30.674167422395513 -5.253959210943605 7.124270263681449 218 208 209 
27.525661257640508 -5.728304909521092 10.458031322355758 241 239 240 
27.579035245301494 -5.761429695703808 10.466505556065087 98 96 97 
27.52073992296413 -6.157037217000238 10.52625901696743 157 157 157 
26.98020129975796 -5.770144258718833 10.062893395457639 171 172 167 
27.385980844048717 -6.023705952233529 10.538937776120477 154 130 123 
27.16969348180701 -6.093216751142295 10.311720329232138 183 178 185 
30.10395118767766 -5.268085714312122 7.250621852277053 154 158 128 
29.442598663102324 -5.47883569849354 7.437026384217582 91 89 85 
27.392511754035347 -6.038677483285625 10.562069353283547 154 132 128 
29.43814264236231 -5.4787501989650655 7.439526225707791 82 80 78 
30.21169788241156 -5.180877950121644 7.153735882006618 79 78 74 
30.630254975503142 -6.273729138625494 7.821872478245165 86 91 85 
30.481679409683515 -5.211731611383728 7.219930748255884 92 83 36 
30.568065704529012 -6.309361904487722 7.813071031614086 150 156 144 
30.655321149796983 -6.247461905205497 7.805009213984093 131 136 128 
30.25509755307028 -6.286904840534777 7.870183030004586 70 74 59 
31.96657100222329 -5.486785839764877 8.588209461885725 222 220 219 
30.605001325156223 -6.294437967240023 7.828853961782851 88 93 87 
30.74904160980546 -6.152395418662071 7.8562351400874775 83 90 82 
30.68771726140855 -5.539359160701032 8.039748589516773 111 113 93 
30.883586048584824 -5.544051790440753 8.140775778460778 238 237 231 
30.89020818027644 -5.540789818006973 8.122377796324102 238 237 231 
30.497653114691538 -5.134397680250811 7.249199808615721 178 172 162 
31.124063688996316 -5.351619986026124 8.009908695577266 168 161 148 
31.07494439036462 -5.294329588048645 7.853628861382862 187 184 179 
30.70434374785442 -6.258801071217528 7.799675211798814 91 97 88 
30.960595414418474 -5.148205240949785 7.293707109709899 52 47 50 
31.008876721500002 -5.2886347723476055 7.7297719719933085 121 119 98 
26.85271399557543 -5.8450028096252495 10.054082039947534 148 132 130 
27.249638277338562 -6.020791261671199 10.33124809310743 137 127 117 
27.175599869495386 -6.068833568597768 10.347691509101121 88 78 80 
29.42346843460861 -5.62688478876055 8.916164507973054 213 209 198 
29.548767354819045 -5.71469983278895 8.917281430004444 87 77 68 
30.457240866577955 -5.208994928140284 7.2329642548994535 70 66 24 
31.46306033964812 -5.311199189585713 7.775325839779768 71 70 68 
29.4664790802152 -5.338581011991841 7.8469959733927155 96 97 80 
30.721700918699355 -5.119782627542857 7.120706258709479 79 68 77 
29.47897501022276 -5.673200980529907 8.94945298827232 91 86 81 
30.690953462125933 -5.158953320871847 7.142534271020484 98 90 63 
31.02249316356577 -5.275975399479094 7.709685374831068 178 175 160 
30.463377003666697 -5.128690476240001 7.257444167271686 192 191 196 
30.88322154142056 -5.532232790005565 8.162433661967892 121 122 115 
30.917411306356556 -5.355838029268656 8.05204382547926 91 83 59 
30.53020373290633 -6.313626235483759 7.808587415349251 91 99 88 
30.91398732677977 -5.190298683201079 7.328854424760241 188 186 191 
30.960518528987137 -5.133735757803535 7.291190580757682 168 161 161 
27.52544451116305 -5.875658338047084 10.580798109151356 246 240 230 
28.501353434081786 -6.572512337741794 11.348002180370013 183 181 182 
28.482315331809602 -6.344909544899779 11.284019073565563 85 88 96 
30.661872735936015 -5.25470921585055 7.142411475613585 213 207 208 
30.301245475211783 -5.1108926278021505 7.3193422182262395 180 176 166 
30.56795480452685 -6.309464046834361 7.813256921070895 156 162 150 
30.363938795267813 -6.278092411834348 7.883403780090813 82 96 73 
30.712379520270865 -6.135873153259042 8.617345524963369 61 59 70 
30.70526667715081 -5.525654080618855 8.057357913903466 104 107 82 
30.864800707782564 -5.514537284589082 8.234518457775007 233 235 223 
30.668694310265145 -5.236807235458919 7.141838516778442 63 60 53 
31.432520704815687 -5.287885326484437 7.7947529653739025 103 97 97 
31.459667265917638 -5.31068028119027 7.785630766420077 71 70 68 
30.961548412248554 -6.3894772892211265 7.7481284408871645 158 164 148 
31.345282651573694 -5.424268961054754 7.82956046304292 88 77 88 
31.445970756417637 -5.29835477221552 7.8077717884325075 72 67 67 
31.38104491542068 -5.295327358174372 7.879172393684151 160 155 153 
30.98904840775269 -6.3887112037229405 7.729055674837721 159 165 152 
31.395238790762992 -5.389079930383574 8.159540866362047 70 59 58 
31.391323430759105 -5.3701615207546 8.133506606230643 69 64 66 
29.343766891016585 -5.789151871500369 8.923050359527558 229 217 218 
30.22689469248145 -5.071539229275163 7.006105747494054 126 122 110 
27.896113997204694 -5.181902971913094 8.632703540664409 206 207 187 
30.7194273214036 -5.4033465338093905 7.976904632202988 77 68 53 
30.14663644878417 -5.36305121043183 7.3151967275590835 101 102 86 
30.38638267950012 -5.120048523622297 7.290773210281419 199 192 184 
30.88518312870089 -5.533184572576899 8.162593831301368 121 122 115 
30.85172954549639 -5.775135516800422 8.61493064360662 74 72 77 
30.668747484781917 -5.236707048924572 7.141567590038282 63 60 53 
30.703503603256927 -6.240142573852592 7.801455509102862 137 142 137 
30.776010601004945 -5.428375781927755 8.087362696860787 70 70 62 
30.88524325144889 -5.2342331876557 7.512775664034056 195 185 172 
30.88560363604821 -6.407203340968989 7.709239121719712 106 111 106 
31.33632028475258 -5.300443827430304 7.894564014534151 90 87 86 
31.012349314533125 -6.338321346765108 7.777486660517056 128 134 137 
30.943279901510635 -6.404641655774725 7.712748115268621 118 125 109 
30.92368710237581 -6.276203140081722 7.7754352881249 93 100 90 
30.957761982972194 -5.1611973401849935 7.306489413681284 58 56 57 
30.76423154635867 -6.169813410753296 7.903600025681271 93 97 90 
30.888295042194308 -6.304837827459846 7.75467395633752 148 153 147 
30.798154389997045 -6.134473773346805 7.8432370470358315 151 154 145 
30.866150892350674 -5.696240952272697 8.648550184836953 147 145 146 
27.224995826761308 -5.821626342810856 10.312312294950246 152 136 136 
31.414456131457655 -6.382265521316116 8.012029179556531 85 95 97 
31.679737415164894 -5.595699086550466 8.312593547134636 92 90 90 
31.524512988559174 -6.4005890353318415 8.61336367073536 93 96 103 
31.506915453145922 -6.480120842723376 8.692285920445723 89 100 94 
31.72273210187806 -5.561748924118369 8.328542875152799 244 242 243 
30.502606644006338 -5.127382908042814 7.22778197480433 65 60 58 
31.468878755269305 -5.504494962669666 8.086225450940745 84 81 90 
31.69113248204365 -5.688644561817787 8.430529536839508 88 86 87 
31.694697541518345 -5.687138365084145 8.41668050268931 88 86 87 
31.46117730779845 -6.374121345227372 7.985828145045193 172 182 181 
30.38714637625536 -5.281940460576784 7.238886644794853 152 155 162 
30.475380827367317 -5.2778818745710945 7.200360811637147 214 215 115 
30.4468901504165 -5.177264541002146 7.252845763799414 84 81 72 
30.88001687388946 -5.564748698069622 8.120563517108085 123 123 114 
30.961350884453417 -6.415953839365997 7.749385245149593 107 114 98 
31.390172769176825 -5.282490896115938 7.854705887177417 85 79 79 
31.463388930032046 -5.2907663731273615 7.7796225814683915 226 224 225 
31.39732515639547 -5.366416972138671 7.806820662815358 179 166 158 
31.423064974451016 -6.551513550354456 8.095310726925433 156 159 164 
31.370588893538883 -6.32274674648435 8.036291551775044 115 127 116 
31.31671163606267 -6.575164027999157 8.150444174713257 85 93 95 
31.860485821903595 -5.406801037661029 8.246825081054173 90 88 91 
31.937327440095103 -5.63483072169569 8.44482941972203 120 120 114 
27.51756805821551 -6.3230898341339765 10.43116454373084 162 161 160 
28.478739911321227 -6.606656054793661 11.298374259278457 177 175 177 
28.83715688921493 -6.341699734094126 11.523516660750278 192 194 190 
28.799638838205126 -6.601109061426242 11.470673242979206 180 181 185 
28.943627030501883 -6.2204701717508275 11.50681925950995 146 142 145 
28.86703308859534 -6.280933474341615 11.478865150945119 230 231 225 
28.86025071555942 -6.283220634346846 11.492772409476714 230 231 225 
28.963531301471125 -6.126520738635786 11.546987297729647 228 227 226 
28.96261508655013 -6.366854311624493 11.66982960154197 155 156 160 
28.88511447044766 -6.458198033802808 11.583458171238199 213 214 218 
28.98292000092873 -6.384319362946709 11.714714065918553 143 137 135 
29.04559071876971 -6.189657529159088 11.631254703724391 153 150 146 
30.496259054673153 -6.296352126953475 7.905770194317942 83 86 79 
31.14044438922266 -5.429941696165021 7.923565873748082 80 73 69 
30.651958484307407 -5.13447265596962 7.148175737973251 220 222 157 
30.757684671560895 -6.090879580908433 10.375745713406896 236 225 219 
30.70167798369623 -5.53873595685846 8.148226744027781 131 136 107 
30.837010995156092 -6.058202379713881 10.332281450565734 97 86 84 
30.727341972555244 -6.015016630569119 10.263038663234092 125 120 117 
30.708798858311894 -5.556668301715042 8.025241133072058 234 235 226 
30.735255616764366 -5.412425260300333 8.042329238907957 97 87 75 
30.70332034957312 -6.036503692171081 10.25516443170493 236 229 224 
31.060589785558218 -6.289560589631231 9.011060539959985 62 65 70 
30.887937635940848 -6.407409279791343 7.7081766402418594 101 108 92 
31.177149730419437 -5.375606221535885 8.013593747696792 161 152 138 
31.086287549442517 -5.390466678232847 7.998061386674067 70 58 55 
31.63734252160546 -5.351510140607798 7.909551832684361 90 87 96 
30.93817007359724 -6.373467426814341 7.740493005870203 85 90 80 
30.98471521899662 -6.389538791749614 7.779586191571106 122 130 120 
31.682058425808357 -5.652723439210169 8.468020156724279 236 235 233 
31.729836107223093 -5.6032483424500965 8.378274178489988 51 49 47 
31.18193765890735 -5.422442268316252 8.049777977790445 101 88 86 
31.28467864444869 -6.366052977907509 7.894544661512565 80 86 84 
31.428835629545556 -5.324453102809473 7.80634542865949 207 207 209 
31.387450500481464 -6.560584817627097 8.120355273509997 89 99 100 
31.750654997539783 -5.383075573965074 8.177033408375948 219 217 220 
31.29695548126339 -6.381155418121668 8.06178325633698 76 83 76 
27.51663551211733 -5.8765445641927 10.592246850406717 246 240 230 
31.61354863090687 -5.657815481435254 8.314328613929888 78 77 75 
31.382684953512367 -6.313505860009431 8.05114153743154 128 134 130 
31.323283974716873 -6.382272020813547 7.9684639482956925 141 146 149 
32.22298400219771 -5.525882171190554 8.733535416349426 110 109 117 
32.23217679265328 -5.520081811663277 8.725127874015584 51 50 58 
29.421922229149956 -5.924950267225697 8.925811143815846 103 105 109 
28.281946901167856 -6.04641019377156 11.269374941915434 235 224 220 
28.55461487238035 -6.377177364319208 11.004477915280553 101 101 113 
28.801867133485416 -6.225579351261068 11.436193138067463 181 162 152 
28.944775498786118 -6.496022944949689 11.533791441381688 219 220 224 
28.724085918876376 -6.405175357610388 11.510294879073026 91 91 99 
28.627667417672555 -6.362178198525517 11.353124283530573 94 95 101 
28.9613714030826 -6.159316260101749 11.723271121668589 242 242 242 
28.866021276076097 -6.167418856323274 11.514987468669734 237 233 224 
28.922597333787706 -6.725237554664459 11.627216517536873 157 158 162 
28.75624009563369 -6.174354796600655 11.60279512680708 236 223 215 
28.86795882182537 -6.638421488424431 11.637662723040886 161 162 166 
30.665234067177444 -5.141824011538585 7.1428737052615645 84 74 22 
28.550287856214286 -6.597011103030459 11.458511456072141 180 181 186 
28.925735380738676 -6.47075695878686 11.750517944458835 194 195 199 
28.86376973119762 -6.4316877726773765 11.576621815146655 94 95 99 
28.909484427821887 -6.131863619427362 11.814670660593606 88 87 85 
28.981719172636726 -6.248155225603646 11.746819285041575 123 118 110 
30.74785529620121 -5.317770333668524 7.923679875967032 81 73 66 
30.098203411570047 -6.238158018180426 8.06108878590139 83 89 75 
30.331032291339437 -6.263225072949426 7.851142680776071 84 93 72 
30.340236313425823 -6.258561297894279 7.841351778199005 84 93 72 
30.61233257686738 -6.243731106518837 7.876147125273679 91 93 90 
30.712930135802686 -5.310585070923716 7.791128649765248 140 137 114 
30.395639146291906 -6.2600326432740125 7.88930923298221 95 101 91 
30.795450868430645 -5.450873767252655 8.113981201368588 56 57 43 
30.52164287147658 -6.318466755029993 7.82218177431178 91 99 88 
30.511559484514326 -6.302228716279759 7.842385991107147 90 96 86 
30.530738735285496 -6.325735498883912 7.8271173871966475 149 157 146 
30.741826952790802 -6.017787669325256 10.288134898459486 176 171 166 
30.350415332368406 -6.2861016722131415 7.865605880721379 112 121 100 
30.397654529933696 -6.239263829259666 7.996568563872529 142 143 137 
30.526202439587365 -6.26051454737858 7.883430441162506 84 84 86 
30.88403698895935 -6.336918524296537 7.8117641558968565 84 89 85 
30.564071913226208 -6.337469441143758 7.854659855185869 87 95 83 
30.875724933224284 -6.042518414130478 10.456356823565315 235 228 224 
30.71547141077012 -6.14150673116939 7.882291667449856 85 88 79 
31.438672679404064 -5.508197970287019 8.126842787455608 212 209 218 
31.163759645981365 -5.415417571290736 7.958962725737955 78 72 67 
30.803978463005027 -6.149114040427503 7.864642158179809 147 149 144 
31.37436689355829 -6.487586369684071 8.857803235044887 76 80 85 
31.373457983624952 -6.39051287338719 7.9923125813883935 74 78 88 
31.138757448938765 -5.349903022565137 8.019843483226104 123 117 105 
31.506965444801903 -5.536935540062986 8.02860780017884 194 192 193 
31.4340493692258 -5.508792777255718 8.136938598272192 203 200 210 
31.41389257001446 -5.303279227171157 7.855353649635138 140 134 138 
31.275721424872195 -6.459612754186637 7.909624009136117 81 92 87 
31.403972951172136 -5.286475438220751 7.8706887676750625 57 52 58 
31.72196257878994 -5.6975674396596245 8.544474704608387 54 53 51 
28.830442620366057 -6.446730098754005 11.551894536681381 165 167 166 
31.288088738937677 -6.265078083676219 8.00099765688368 140 147 140 
32.4890853696327 -7.137159423183241 9.524214380790909 132 141 149 
32.084911523751614 -5.517499316607149 8.7571944490727 76 73 82 
32.03917538415173 -5.457981680792104 8.48575256904132 119 118 118 
31.602605201083193 -6.68125740052855 7.89670677436937 90 103 93 
28.89409941223701 -6.578072159136609 11.652115672241703 117 118 122 
28.54722138991334 -6.670075190371326 11.448543948819964 147 148 153 
30.48599292947044 -5.2848119266191205 7.197264350886101 72 71 33 
28.912340626163555 -6.483120078723139 11.714652780377556 207 208 212 
30.72843515284386 -5.162629565635196 7.112198022721383 227 230 183 
30.847188971240065 -5.701853738489683 8.61713348933652 129 127 128 
31.600875845600818 -6.683109403660249 7.875744334855639 174 186 173 
30.744698070259723 -6.382387614412773 8.885101396688974 79 80 85 
30.591243593992182 -5.416431718416048 7.862831090498304 114 110 91 
30.797547648382903 -5.558183894843831 8.0676570398081 113 115 105 
31.798213780304152 -5.63617080476071 8.45362682764901 84 83 81 
31.18578824880851 -6.379187883197905 7.915819034065546 82 86 95 
30.884095097575564 -6.353868449568807 7.808277390151151 90 95 98 
31.304004694377134 -6.347039561284097 7.971372647740814 95 102 95 
31.31243162918826 -6.371596956168653 8.061215924295475 141 148 141 
31.720273938843956 -5.6988636073214165 8.557414979013604 79 78 76 
31.99454035620272 -5.458320857815003 8.558444494796827 123 122 121 
31.47413183010992 -6.6216105705393815 9.051862959446282 82 88 84 
31.437133908744013 -5.333848438600912 7.798516161974021 199 199 201 
30.830050778487298 -6.042090944393547 8.619142288796606 140 140 142 
31.33366009490163 -5.466320826849402 8.248423033619744 135 126 128 
30.303043253360038 -6.287863501856748 7.846381871220693 108 116 95 
31.78260322404273 -5.67235097519894 8.55923437533328 235 234 232 
32.099596550252016 -6.64844303788165 9.443354891433891 62 69 75 
31.07404090181695 -5.306092427368039 7.838082667465258 126 122 107 
30.842749418053906 -5.352413336131717 7.360201729744379 56 55 74 
30.925568631829297 -6.258518210320503 7.76253661528721 141 149 138 
30.708925913932447 -5.38732303765457 7.981487110096786 121 112 103 
31.722226170566962 -5.560828897112453 8.332351899828776 244 242 243 
30.736275690105607 -5.55668238899292 8.123644547823812 231 234 211 
30.70878366413487 -5.387875569289546 7.979351101732156 119 113 102 
30.847121852837205 -6.085499787159751 8.755512192995557 72 71 76 
30.731210264262486 -6.2243813716011385 7.8445843131779185 67 70 75 
31.58708874077672 -5.473640286902591 8.200326040613426 77 75 81 
31.52297555203353 -5.336052397853153 8.064237097298328 156 156 159 
30.778234941671492 -5.856189865344493 8.680333483851786 70 69 74 
30.99289158605273 -6.504847780123907 7.751591535145714 82 90 77 
31.289831506918993 -6.483231149866581 7.9800858519302516 70 81 77 
31.904737177759436 -5.706712980548524 8.913265622685202 171 170 165 
32.73529829132795 -5.880411694799274 10.159083807167164 69 65 66 
32.192169453468196 -5.516280443477042 8.736991836733878 85 83 84 
33.028780618206724 -7.714425871726372 10.307756069991004 235 236 240 
32.77091122435836 -5.942183754870677 10.038549103628128 72 72 62 
31.881264086387553 -5.645115307858766 8.622547220777975 82 80 81 
32.83102721732751 -7.486841232841497 10.187558594525672 113 118 135 
33.044096958064436 -7.64454884541123 10.252472994594509 151 152 154 
33.151948892037666 -5.965188349055009 10.5566140413314 50 44 46 
31.618833987892327 -6.748824378731027 7.95926211695166 101 111 103 
32.183984514077956 -6.69316252264047 9.372388607144611 78 86 91 
31.53202272181472 -6.708494776426556 8.104734225943048 146 156 148 
31.57698768516167 -6.703337379880415 8.087249073806628 165 175 167 
32.96233253793179 -5.0758943914890615 6.26687882040115 172 172 174 
31.020473984524262 -6.742708189325538 13.663166556982201 244 243 241 
30.33275974317023 -6.2857661021068285 7.860037104839169 123 132 111 
30.800916314450433 -5.815077618055523 8.67136059129654 96 95 98 
30.46519212346106 -6.628016401048241 13.007005601426314 147 145 148 
30.592989800986928 -6.63877624419418 13.064606009157458 147 137 133 
30.573406772794144 -6.593722332576572 13.216694341399442 240 236 229 
30.59283525313026 -6.576132969421729 13.12666411187612 239 235 228 
30.65133797471347 -6.5009263172623655 13.05170651742245 242 240 241 
30.481120785191074 -6.883470490072272 13.237757390341457 96 97 99 
30.705700158169634 -6.91345964237197 13.28179412909629 147 138 131 
30.74065401955434 -6.66450175076275 13.259858775374571 178 168 155 
30.960043640825713 -5.289371008001308 7.942017193410919 207 199 186 
30.56154917831403 -6.6429820107296615 13.138559512044363 153 145 142 
30.873940796960976 -5.462132872918266 8.22175311991452 98 94 69 
31.13427526400291 -6.751937934998581 13.60344606288961 133 120 124 
30.89620675097715 -6.6842124713711 13.377491680090944 223 214 207 
30.81916925402238 -5.522018391321296 8.249311766258995 94 95 80 
30.92930762113879 -6.940357573040075 13.515816247737838 141 125 126 
30.957237768714183 -6.91260954255149 13.363492608410926 141 125 126 
30.535053459602683 -6.663453129554275 13.058195767899313 241 238 241 
30.956350086084665 -6.781033965823236 13.503557551618727 144 131 125 
30.793038927253452 -6.261010232882585 7.766752072594951 119 124 117 
30.99417548537013 -6.8921245832496325 13.428408491850352 188 173 167 
30.7245566782713 -5.991365051720793 10.41588895368676 216 207 204 
30.729347443469365 -6.176069508686601 10.351171737757198 179 165 165 
30.984229691965297 -6.750090199403477 13.55221976917706 251 242 240 
30.561072991704968 -6.290632455760292 7.814233821473291 78 85 77 
31.162314860857926 -6.809823275985987 13.312576150138288 167 155 156 
30.781382112098207 -6.141578135338637 7.872479380896937 138 143 136 
31.108826090253324 -6.40334751285294 7.74133873717005 72 78 83 
30.6219604936528 -6.245166169901678 7.8064996849481645 128 133 127 
33.614723476538245 -6.667671745706397 12.052542587127562 158 154 168 
31.89648076548135 -5.608183120207628 8.6119395492128 72 71 69 
30.80951980743267 -5.853230899709012 8.643568925603901 114 113 118 
31.807743671510288 -5.621681497300911 8.410974425072702 45 44 42 
31.338594012223624 -5.3632033457232975 7.821077372158616 55 47 54 
32.701337614793644 -5.9444383948548705 9.94843327661642 70 73 57 
28.2656830217678 -6.037701360608748 11.112365417517967 211 203 196 
30.906010939975033 -6.374058992494689 7.752557172017372 123 131 120 
31.082705249260133 -6.536314705421388 7.799786265477014 126 135 118 
31.555146754352805 -6.575986706297159 7.951871116907917 81 91 83 
33.24165032003219 -6.374739535422422 11.641844461767711 52 51 59 
32.03011106438932 -6.7092460380118775 9.43304562817535 71 81 81 
30.935316325783887 -6.607173054878509 7.659629146703669 85 92 86 
31.478042379180444 -6.407182322627907 8.33463808898409 143 148 151 
33.09339774522871 -7.838998533524038 10.42702946240242 217 218 222 
31.66267204100886 -5.550129768373212 8.401839575895476 48 45 46 
33.26610121050932 -6.401854286149583 11.58042612096662 224 222 233 
32.84038473551142 -7.522264988159372 9.849884532308835 230 233 240 
32.79058556146818 -7.63188339721711 9.996739362065917 147 153 156 
32.86463444754301 -7.6014180579123956 10.171767973616966 132 137 143 
32.80397886330674 -7.558410056523186 9.953998062323691 231 237 242 
32.80242468931151 -7.586000546845271 10.017729425284625 231 237 242 
32.852623493553054 -7.693636261478109 9.967474889617858 241 242 247 
33.023414196426074 -7.769766549859416 10.340432290100441 226 227 231 
32.89920151124847 -6.795707046431256 9.793593890186099 108 117 119 
32.80792775914037 -7.524055098994778 10.247673429673927 103 112 119 
28.604605678312083 -6.58448413081501 11.311106609869885 87 88 93 
32.15959883133836 -5.516274788279866 8.730775230364038 197 201 202 
32.167311508791826 -6.68806744351025 9.433450857801759 102 111 118 
32.42800828622163 -5.690621852825704 9.068575110430825 69 68 71 
30.49393293359836 -6.333993435608532 7.837913676143 92 95 87 
30.859979507342764 -6.274217701085844 7.795776951406726 87 95 80 
30.40736911273323 -6.6952110100154725 12.957556776215487 236 234 234 
30.565739547195328 -6.479916690842293 13.085339983038715 224 222 223 
30.510223666652102 -6.7841547793369505 13.155338535634392 159 155 159 
30.524884774172683 -6.772919226574477 13.093469579184568 159 155 159 
31.71242791896091 -5.654998114044064 8.490071281605601 90 88 89 
30.719875986572333 -6.2190907936562025 10.445824500982145 189 180 179 
30.75132657208494 -6.112708917332781 7.852704801168656 159 162 154 
30.91566287414269 -7.07155125951885 13.484003040520065 140 125 124 
30.763325873802565 -5.941831643174433 8.718599080018976 189 188 193 
30.74548412288663 -6.19490576324685 8.626999933717652 50 47 58 
31.38034152773056 -5.273994346167096 7.907439356651594 153 148 153 
31.337188083482374 -5.350156125876175 7.884230116841916 112 96 105 
31.186625354721855 -6.564173187281768 7.942914953631007 62 73 70 
30.913729867466998 -6.247545748840433 7.757540925779125 119 127 116 
31.040762080219217 -6.464975186381671 7.714519014158704 159 167 152 
33.21250443118706 -6.271465676328321 11.371476144823063 148 155 123 
31.48437306048187 -5.273553231939027 5.9083709480292725 215 213 213 
32.3993239936575 -7.7103757434404105 9.770380743048502 151 153 152 
32.67404859237064 -7.549756251746547 9.83403306461766 120 127 135 
32.97385366512472 -6.315861949768474 10.969087316335123 104 99 89 
32.02010677022453 -5.623760012513379 8.838897210960614 51 48 57 
33.08889030686344 -7.630171715601656 10.259561775463762 174 175 179 
32.46039715480457 -5.792798082704862 9.597328383954963 143 123 114 
32.632705705262566 -7.6223563194474675 9.521126337726525 178 180 179 
32.56191345383883 -7.554021402308427 9.450764806369868 169 171 170 
30.880642040104682 -6.339802237238567 7.817361691498235 88 93 87 
30.927356032823575 -6.299870081610018 7.768177402471334 128 134 127 
30.906018306521723 -5.284930472742736 7.283058474445546 64 62 67 
30.364417772632216 -6.7392659820877645 12.978803363271165 195 194 192 
30.398712523368165 -6.593398694330276 13.024924155605923 234 232 236 
30.626140842201497 -6.773914885904828 13.174072756684001 165 155 147 
30.74340735425063 -6.697061221198536 13.336501350818843 223 210 194 
30.735627429428483 -6.705468198087724 13.385048230720454 223 210 194 
30.2690251194895 -6.673055195670393 12.958648038913886 246 245 244 
30.302377175626535 -6.5987050209440525 13.006571242563737 242 235 232 
30.86116123702233 -6.114929438916457 10.459525205017442 227 216 217 
30.29063362215682 -6.643351534197771 13.029878731100979 239 233 230 
30.83421545717885 -5.359022151089921 8.042592847959643 130 118 99 
30.8016195712338 -6.458946426142885 7.73189165969961 146 155 138 
30.27991469557065 -6.630344533797396 12.896833648651569 164 156 152 
31.031687531518095 -5.326015911054735 7.94916686040925 104 99 72 
30.395508204781642 -6.7041433590599855 13.103637563463195 164 159 163 
30.345206666650398 -6.693300785333097 13.061621603068826 165 160 162 
30.803234329198986 -6.024769211786774 10.32829942516312 75 69 63 
31.077252996773517 -6.745984514195642 13.767356582858824 131 126 128 
30.7129754525132 -5.896985952280903 8.67259164249472 97 95 99 
31.556136721653896 -5.4268084963338366 8.241950731260157 29 27 33 
30.97440879752461 -6.382831124392578 7.721908569952674 146 154 141 
31.475406877058536 -5.555462719102461 8.300309672278239 70 70 69 
31.847784529572127 -5.442926349748151 7.919815157600951 68 66 68 
31.17650658301833 -5.376619141352692 8.014517637287472 147 137 133 
30.745352949277198 -6.233013159225412 7.805410163437852 108 113 105 
28.737099977476653 -5.923481749871192 11.473606010638843 233 233 232 
32.735717531942754 -5.284166317956196 5.036285402848826 209 224 243 
31.437921439562828 -5.3288379016220695 7.828735204492993 54 43 49 
33.515593694756625 -6.685127251950264 12.001454346120692 50 52 72 
33.58792350955569 -6.618415212863407 12.08048891457052 160 163 170 
31.59056711876066 -5.455596402932718 8.185623258074653 52 52 53 
31.41950622528109 -5.543998772774827 8.054038717031496 231 230 228 
33.58642419111132 -6.775685634057333 12.014537155459198 180 183 201 
33.2653681577317 -6.47523269282597 11.749592297626172 225 223 235 
31.56486744595771 -5.567094597636626 8.32986915625466 245 244 242 
31.555090087860105 -5.569893461737841 8.357659151548535 245 244 242 
33.5911133338154 -6.634580344749464 12.031542133371918 165 167 178 
33.632658434215756 -6.494189950635803 12.011115627815034 205 196 196 
31.470131510586192 -5.584086105235746 8.326851191078884 113 112 110 
32.81650218275016 -5.887241386552074 10.122021305824621 73 68 69 
31.481939087062976 -5.553153448852009 8.283994959873162 70 70 69 
31.312960902891525 -6.56815798431443 8.199153669397056 97 107 108 
31.422955143078553 -6.628310864821019 7.955978857860398 143 153 145 
32.770288368984595 -7.697183778359345 10.610440830868853 106 115 122 
32.296267533814735 -7.761577838593113 9.930883331094051 243 245 244 
33.59222539544345 -6.670025867151483 12.090469100464993 51 54 71 
33.59020619490009 -6.661976449794176 12.046605132005372 51 54 71 
32.158848806844816 -6.6914429599678 9.510771134007864 58 67 74 
33.55483790919358 -6.50914525478836 12.014001320728354 131 130 138 
33.55270377032407 -6.497063895808404 11.96068440502868 131 130 138 
33.09501448616397 -7.831296167654518 10.333772891920539 184 185 189 
32.81233311354638 -6.754939261251979 9.50086496231398 192 194 194 
32.5206974893421 -7.224475354241871 9.512585368522473 100 110 119 
33.34253029358739 -6.010486283235119 10.65718316478219 181 175 172 
32.630098113964586 -7.543504004048165 9.456993260778564 157 157 159 
32.90970693217949 -7.854255949349977 9.93313965493866 153 157 160 
32.246686555115254 -7.125961806379076 9.399613137498314 100 110 112 
32.92197481480627 -7.53693199727413 10.20473739176726 227 228 233 
32.28907520503326 -7.642673990652128 9.44256384602943 165 165 171 
32.63354241246433 -7.620179159999052 9.517635874278586 177 177 179 
32.83060961529331 -7.626958179339068 9.995955459452862 218 224 227 
32.932240203848465 -7.797368419932729 9.943895821674761 157 161 164 
33.04609073914813 -7.855513460318821 10.366811188200689 188 189 193 
28.886416808084334 -6.587323314323953 11.537578458728518 158 159 163 
28.51846601991791 -6.5644744797985455 11.31805206037011 183 184 188 
28.547796089738682 -6.28775222959774 11.567511311697075 177 168 152 
29.22053051321356 -5.784981698927367 10.00181770399433 226 225 225 
28.45490177048982 -6.636261406089251 11.241852845631868 81 84 84 
28.751004360676617 -6.434114085224244 11.518172769658062 168 169 175 
30.833885999972075 -5.978866482015772 8.749290012123815 85 84 89 
30.470436059690577 -6.911789202588913 13.004019058185882 173 173 175 
30.349086641200685 -6.554807542147074 13.130059673052703 228 226 227 
30.974473584940874 -6.377247854172273 7.747979021620559 135 141 132 
30.58847629445522 -5.594619211630837 8.243168610394761 233 229 225 
31.772806716495055 -5.491053826614923 8.435058492586883 85 83 86 
30.344545148369917 -6.593288544955086 13.065793192863694 143 138 135 
30.51881602423769 -6.639137118568106 13.213901416134384 234 223 223 
30.84196790141015 -6.988651676724701 13.574646014153213 87 76 88 
30.895128158564695 -5.576246977464024 8.25010039111158 203 202 201 
30.81885941579131 -6.675794525568063 13.367638380183624 209 195 188 
30.728141923450714 -6.060824254969956 10.250235617403202 106 97 92 
31.694975458605537 -5.359998295433627 8.12773284327778 39 37 40 
30.35704140338993 -6.615493015692809 13.162877296505958 230 225 222 
30.82866842677344 -6.275511759240562 8.720715756025413 56 55 63 
30.773078649911994 -6.026761885083752 10.534478954893245 233 224 224 
30.985156742801827 -6.365492006038231 7.752852689332599 60 66 66 
31.83165849890533 -5.630215101544648 8.40187085916184 60 59 57 
31.348128073364627 -6.625467495786956 7.582535753745308 91 101 93 
31.245057758582256 -6.5667743394824925 7.762317807133126 177 184 175 
31.53350510890189 -6.707595680980404 8.103034808482523 146 156 148 
31.480223117613995 -5.562510882419674 8.33136803512447 236 234 234 
33.050257179778086 -6.2655778942085725 11.040456504072527 148 142 136 
31.561119218462167 -5.471378987940274 8.217537496732668 205 205 206 
30.985768237503734 -6.401125778746252 7.734527638853699 76 84 69 
32.92854053403064 -7.70889421685752 10.413900965667704 141 146 152 
31.19797382619852 -6.554805772061736 7.91696073331434 54 59 63 
31.260538301600512 -6.38334891998749 9.298459226051381 48 58 54 
31.108385748994433 -6.390085159542994 8.995003662561256 125 125 127 
30.324259132262615 -6.89220423356672 7.807863963886582 82 89 82 
30.899706463166595 -6.415265916700484 7.72494653148669 77 85 70 
31.020204488423396 -6.368972869182994 7.845925209047888 76 81 87 
33.34912667707249 -6.7028714623368355 12.304657187954462 51 50 66 
33.654466937614934 -6.484561865732777 12.032456415501752 90 67 71 
31.612629401779095 -7.09685730172637 8.677032216832668 190 196 194 
33.208769446911575 -6.369838204749411 11.678130910971017 148 149 150 
32.92027534929663 -7.730893448035377 10.041994807462217 235 238 241 
32.92653564345947 -7.717861986121112 10.43393569395127 161 165 169 
32.20307328945211 -7.102129926510384 9.303334599960557 101 111 112 
32.170918803621184 -7.652222327043337 9.690239960288523 240 244 247 
32.03293328493885 -5.618998865096624 8.879647353102271 225 228 237 
33.61854109458215 -6.585450892029107 12.09172391277577 178 169 177 
31.58742334124697 -7.0706945003631665 8.736265451814429 105 111 107 
32.016742153946595 -6.894693837353705 9.461570613191128 120 130 130 
33.041737340531924 -7.789631401919041 10.415476145160188 184 187 192 
32.83218374502405 -7.934341423114576 10.030629847990625 177 181 184 
32.80278606881345 -8.030616285484667 10.126521077253216 141 146 149 
32.914086745299045 -7.996142959002844 9.997527549672661 240 242 241 
32.81531573464615 -7.981607361469125 9.95235772366253 156 156 159 
33.042931174725666 -7.693622961776266 10.381700530655657 152 153 157 
32.96580793909814 -7.878607368300892 9.844633712336833 239 240 242 
32.92435791280991 -7.822100447491362 9.951589794816705 237 241 244 
32.933667004143196 -7.787787028469282 9.922499975374325 159 163 166 
33.63103010105889 -5.343278453974526 6.091453719283145 42 50 27 
33.85360596401566 -5.270558635465101 5.903524846093305 31 40 22 
30.8560440325477 -6.570899136232842 13.440711659039497 207 206 204 
30.403818603516058 -6.616775998994587 13.096701321790743 118 113 110 
31.136432387077555 -5.442903109167877 7.95702684083588 51 51 49 
30.299967512048735 -6.640502060574637 12.949440540475749 245 238 233 
30.991973017383266 -6.323186052406734 7.893863613539125 47 53 55 
31.01817878620627 -6.318364874513338 7.8716138322981095 113 118 121 
30.874606812257397 -6.387519883105547 7.684650449864257 154 162 147 
31.664576030468332 -5.653443480985844 8.556676399363422 235 232 233 
30.914688143933823 -6.362800717563259 7.687989383920915 147 154 144 
31.475921333074822 -6.552829499550766 8.180082701535287 60 70 71 
30.882729933108315 -6.385189913266805 7.6769437745301445 141 149 135 
33.58810057808978 -6.782073081624419 12.04218709254198 184 188 200 
32.88904922243816 -7.758077571823359 9.863793902070373 139 139 147 
31.444629986098448 -6.552635554873953 8.188304154360882 63 68 74 
31.264277581740906 -6.564571702331009 7.675838880355151 77 84 78 
32.396348744873784 -7.682017432007603 9.805500304433078 163 162 166 
32.07512005994782 -6.652940520677492 9.528533443048094 86 95 101 
32.79137846114256 -7.080794293904911 10.275776925163367 174 179 185 
33.75922069809961 -5.387478808272259 5.995550591837489 58 65 32 
33.64045515479643 -5.233516354094253 6.66481019094099 193 183 191 
30.84138835565202 -5.242893718385822 7.576576176276287 152 143 129 
30.824517071373396 -6.8322739110256165 13.612192818056013 157 142 140 
30.31696032843764 -6.893565974365311 13.256044252832208 119 119 121 
30.84718190715086 -6.796405405807948 13.61208879218892 151 137 132 
31.27966456099023 -5.481653049490645 8.239216695854836 190 187 178 
31.12665765121541 -5.399778256718953 7.977049039175814 185 176 168 
30.775806771904925 -5.814930287992637 8.721073185783766 84 83 88 
30.247812627513525 -6.83788723307861 13.051816839090517 87 87 89 
30.494060006740984 -6.671401561137566 13.192094398629823 237 232 229 
31.02356625414084 -6.8077930158018685 13.706253310246932 170 159 159 
31.133365881224286 -6.629616351894932 13.67323803033862 135 134 132 
31.46040809021854 -5.522666758560586 7.922116411621584 236 235 233 
31.05866156227864 -6.879218287824692 13.664900385934864 179 165 159 
30.941641728757617 -6.73263506709739 13.639208601408782 188 182 172 
31.086180594596264 -6.770774941670741 13.94947571762258 97 86 85 
30.923952664070413 -6.1152079069119285 10.202434469334921 64 51 47 
31.79782530176731 -5.403518167159724 8.159736067611814 54 51 60 
31.386654478208307 -5.625179883629856 8.13601315710945 73 72 70 
34.51940689408249 -10.054670991712719 16.386818549715603 221 222 226 
31.419529802688473 -5.588633882128696 8.233752453547108 206 205 203 
31.410621661241162 -5.526375000629321 8.12059851056053 69 68 68 
31.421921428961575 -5.553477137587671 8.128080762298154 60 59 57 
31.38767002371612 -5.428033249811488 8.186496555157472 179 164 169 
31.484039424842585 -5.602254560214301 8.267824517385776 200 199 197 
31.30266525826054 -6.566815745035997 7.9502383878401375 81 87 83 
31.235288083900336 -6.583141691876389 7.747172627016791 79 86 79 
31.407987744391445 -6.57778172948763 7.542761673116406 91 101 93 
30.98289144736551 -6.738843034324511 7.916909012067485 92 99 92 
32.841780405227425 -7.855252964865852 9.935083990354755 230 234 237 
35.213649832990676 -7.399592144771265 15.628936973643754 88 88 89 
31.59796199752573 -5.575125594733637 8.283690659250727 67 68 64 
35.191876738302824 -7.497696301916892 15.683276281762694 101 99 102 
32.05662363502257 -6.667055394336482 9.471021501613095 90 100 100 
33.17180990341481 -6.410177399229406 11.676657406122906 160 153 159 
33.58563555237078 -6.605994538288809 12.013095635227561 169 168 179 
32.03730457949233 -5.698599804373874 8.858862940035952 80 83 84 
32.881827168455416 -7.9260403079498785 10.020776355676873 227 231 234 
31.37279712992037 -6.664262535416813 7.5903407878754905 113 124 110 
32.5372157547003 -7.172637734401921 9.705891149581849 122 132 141 
32.90214772299621 -7.787881105130477 10.000990373649572 230 234 237 
32.88004288328861 -8.000756603402882 9.893940161364814 245 245 245 
32.839322473725645 -8.043721494190311 9.961401299542882 159 159 159 
32.42293368485076 -7.710236552146237 9.83282560516442 231 231 233 
32.85720773456542 -8.061387257995182 9.922737390499503 174 174 174 
32.858799150207076 -8.042504884524872 9.886599616163547 174 174 174 
28.589319978915356 -6.386489038377391 11.330115397561105 171 173 171 
28.529519833641842 -6.363134098133281 11.260874005848706 171 173 178 
30.883034284811107 -5.573818334222946 8.135816611577265 228 227 223 
31.460197145131957 -5.443903840782366 8.112190556766834 242 238 247 
31.01322122288868 -5.291608827930913 7.883422993949225 192 188 172 
31.193033376609286 -5.33243543025153 8.020469768714744 142 133 127 
31.467383748348652 -6.366525703964615 8.277903630096592 71 76 79 
31.217769655094973 -5.836535400428603 9.748311608437863 46 41 44 
31.34749245401916 -6.321914980272271 8.059426500444218 118 125 118 
33.34233039095621 -6.708774037048199 12.405233227967148 63 62 76 
31.99056105020438 -5.739069963548926 8.932217899774695 117 116 112 
32.32872346640095 -7.620782194658191 9.422839918010048 246 247 251 
35.17537933440949 -7.412094989419277 15.589894954064114 227 227 230 
31.580737382025745 -5.596080328852565 8.320497609547136 182 181 178 
31.066080524124487 -6.5974601510729505 7.586288525207969 145 151 149 
32.72923139805932 -7.819836989886238 10.01725978540598 146 146 148 
32.88227034623027 -7.863051770512983 9.908632487869365 242 243 247 
32.8942728625747 -7.953726655003503 10.024130746955457 149 150 154 
32.96637779423748 -7.8866335622160815 9.972468526576872 185 186 190 
30.83661079422631 -5.615232632040028 8.668291929312598 81 79 82 
30.72850244291878 -6.0304283122908675 10.17237935978801 238 229 224 
30.409472678398867 -7.082011942196789 13.305722445669481 152 146 150 
29.758742225329513 -5.816773772476515 7.397847855804457 92 78 77 
31.19986062231621 -5.548382812433946 8.311158252521562 229 229 219 
32.028650092272336 -6.660249074155024 9.466698056132472 105 111 117 
32.18915240004863 -6.670362262598421 9.452264111438708 100 109 116 
32.6009588636827 -7.593866018703991 9.523455066187921 233 234 238 
31.50133515285829 -6.386014448487904 8.305626108359697 65 71 68 
31.754608442615258 -5.524583917881975 8.266662442204296 67 67 69 
35.26846912093009 -7.447779866485388 15.755775985410079 219 218 221 
31.798580289020197 -5.643627632755755 8.633044310936977 152 150 151 
31.554923595949504 -6.690714996476749 8.316354701013001 140 146 144 
32.14220502303466 -5.629180601399091 8.81787819882961 79 80 85 
32.130500650493225 -6.688207390614381 9.448427891377257 60 68 75 
32.78039376167057 -7.794131313534773 9.993881791048445 221 222 226 
32.78874978405382 -7.935202583817291 9.946139208511834 138 139 143 
32.8671339510482 -7.7686030662449355 9.9638967571817 149 150 154 
31.67136370871814 -5.633479445607809 8.362037364325793 234 232 232 
31.372223343742135 -5.51344814552635 7.936304129008107 237 236 231 
32.32301174111898 -7.026469726018201 9.534160983760735 86 93 111 
33.15818070734023 -6.162394071423503 11.035003175341313 73 73 68 
30.33364786035621 -6.753542300430968 7.887967252757374 93 97 81 
31.184984178162278 -5.553416861899172 8.32925043031415 237 236 232 
30.915684208496387 -6.176424111747567 10.259357263973683 57 46 37 
33.2937003315688 -6.39185614635292 11.629416336309266 201 200 205 
33.10403832871915 -6.279619554823924 10.965129436561732 166 167 159 
