63.95016228149959 7.980732546223674 -80.10099668452628 62 63 67 
60.44602317468306 9.554206415016203 -80.78320340905512 232 227 225 
60.53297880059305 9.575974999960458 -80.88789467999825 248 238 241 
59.93445455441175 9.41598362619396 -80.58366832906587 196 181 176 
64.52641983987039 8.152519363639037 -80.17040809061719 113 112 117 
60.48203253397337 9.564220965812742 -80.8728916759349 167 166 162 
66.36089636377393 8.338014325370668 -80.31992790708418 237 228 221 
59.63217822944622 9.487044902813698 -80.16674279395977 244 236 236 
59.98808942962727 9.363455623058517 -80.80164867391923 184 184 186 
59.86658538831952 9.682395281245448 -80.38178220658683 207 206 204 
63.79872078898105 9.83476823867219 -83.68581849385158 231 231 233 
63.780970824175434 9.777320118537919 -83.65873211324653 135 135 137 
63.55408178046997 9.995324825882058 -83.39711589634572 209 207 208 
63.55313146536687 9.981369215021246 -83.58024283122295 203 194 195 
66.20589915242383 8.168644495340917 -79.96292791298146 98 90 63 
66.1976066640549 8.155253352989956 -79.97886491652167 52 44 8 
66.24187025473985 8.27812552119504 -80.26987945485394 106 106 93 
61.692146560110174 9.747256093997681 -81.63242041234173 211 210 206 
66.23921350452063 8.279786456873108 -80.27162955915531 106 106 93 
66.29374139592198 8.331257465832971 -80.61717778472386 80 82 57 
66.23797896921145 8.306909652507821 -80.47746275140125 149 148 144 
66.23153723422139 8.285471013527696 -80.53143382189985 69 69 59 
66.34400791720378 8.310131330286456 -80.43083598305977 63 62 60 
63.653506726647024 9.910878063933312 -83.46690055985037 203 194 195 
62.08352387517922 9.678396029526795 -82.1342806515748 164 150 142 
66.01510125760493 8.302829539624842 -81.30621847367358 237 237 239 
62.063125113476936 9.687896022138482 -82.14480824050847 164 150 142 
65.14132107230651 9.57548035211146 -82.65047708649895 96 98 75 
63.523008232470126 9.704262207302186 -83.52895030431534 223 213 208 
61.97845657968113 9.236209906700232 -82.35033500110838 103 104 108 
66.31521786987658 8.354083092199954 -80.65354281725422 94 97 68 
65.1170179378582 8.052385453823273 -79.31948260244172 243 241 245 
66.35143253644199 8.332737315731912 -80.52408428386347 57 53 53 
62.02992748150162 9.158643224659588 -82.3452222102777 108 112 114 
65.95364166740569 8.484593422872525 -81.19757736137853 215 209 209 
65.92792127180587 8.314633959424285 -81.2978345574137 228 226 227 
65.93626017310278 8.31077510524867 -81.2884515046196 228 226 227 
63.837624939016216 9.804111737255894 -83.85827666536824 142 131 137 
63.811168706038444 9.826138496713135 -83.67199942822269 235 235 237 
63.27283643652747 9.701680708992633 -83.36718997762213 231 223 223 
63.28398420892015 9.65422383930235 -83.39029433621154 74 63 72 
63.51664635198719 9.910939864923247 -83.42665974875443 143 134 128 
63.32277945812117 9.856600212700776 -83.1624388631439 160 154 148 
63.33767600468325 9.85460598858444 -83.21535671558631 226 217 208 
63.366324028883476 9.894971174803004 -83.2824573093246 156 144 141 
66.16900590807809 8.354153317373335 -80.41423424634776 63 64 44 
66.11868489013108 8.137007396522861 -80.2111823268251 54 55 58 
66.15726718343359 8.194911848300588 -80.19393675559837 92 87 27 
63.82962478631886 9.751024815504064 -83.77585716838294 238 238 240 
63.266444873994374 9.868156842656791 -83.14516020910622 240 233 230 
63.247385200122196 9.622839890135602 -83.36947187697643 152 150 152 
63.23829452189821 9.727864851274877 -83.31584621880837 158 151 136 
63.47212329187563 9.884852544018091 -83.3232513484833 132 123 117 
63.5165144065031 9.948720103950977 -83.50470922887811 126 116 114 
63.52279656683122 9.945184859713088 -83.49717717933575 126 116 114 
66.25441777239244 8.211919848103015 -79.98851854433597 124 120 113 
63.27549424018493 9.829335092249579 -83.32711336217807 154 138 124 
64.90773378821945 8.105145747542995 -78.91637515557001 75 73 76 
63.377297010766185 9.85483334746422 -83.24220653147533 243 234 230 
64.57028127572798 8.875445065934814 -81.41830787086639 109 102 95 
66.03786357945565 8.411205975701332 -81.26702925855376 246 236 233 
62.75337513177933 9.724710025757435 -82.62151109296128 166 160 149 
66.23114632592656 8.168385307202193 -79.8745750026992 109 101 107 
66.12613106650154 8.18611033036581 -80.19950272018988 236 243 55 
66.12657453749355 8.185178451567698 -80.1989019533996 236 243 55 
66.16774968154222 8.32216021387234 -80.14635804362987 60 59 55 
66.23938172339055 8.182510272254213 -79.84974152284302 65 63 64 
66.22016846459404 8.161732741847885 -79.85098995233098 71 64 70 
66.2037249152696 8.227328610798764 -79.90904113023208 68 66 67 
66.2148023554541 8.142944223838327 -79.85604673062277 75 74 70 
66.19459791680143 8.192284976287574 -79.98947199060058 226 232 102 
66.11757691288709 8.104107402526605 -80.21181642557492 80 85 63 
66.23805894570566 8.166217160227681 -79.83126914714956 245 243 246 
65.92262295906978 8.278771462285592 -80.00699518060306 122 119 102 
66.22037324128117 8.32192012321271 -80.26795260242116 181 177 168 
66.1700880819374 8.22795419737026 -80.09369187309673 248 254 151 
66.17666007127764 8.223221474787891 -80.08788019779436 248 254 151 
66.13016661477093 8.16377885989647 -80.2006169872518 237 248 73 
66.13016661477093 8.16377885989647 -80.2006169872518 237 248 73 
66.03084885287991 8.17623218472588 -79.70974503738867 56 50 54 
66.23110521826752 8.156806935603367 -79.9210433133797 229 234 149 
66.01686247131883 8.172302710145754 -79.70248272106714 245 240 242 
66.21130102708051 8.22764880417861 -79.92471283324251 243 239 240 
66.20700686694775 8.14588549043641 -79.91202221538965 125 120 130 
65.9850803574249 8.197876456517427 -79.77814227433156 80 75 79 
66.46656157188498 8.28773926045676 -80.363280704376 199 196 190 
63.66444083670567 9.745651672365232 -83.94321189199786 188 188 190 
63.72353241569066 9.827074482580462 -83.64865841715425 149 148 150 
65.99308306933602 8.542765404215626 -81.2064588959208 112 106 106 
66.02459781996596 8.495554505544236 -81.25020258662 219 218 216 
66.13141939540088 8.288362422655087 -80.35716101236987 99 106 89 
66.23101069262155 8.276824248316803 -80.55621013120495 88 90 68 
63.61508479459927 9.810382960157796 -83.62199124744603 136 124 119 
65.99721547817465 8.434308086332669 -81.22168504644715 95 94 92 
64.65865316656985 8.029151809012792 -79.1159511775008 217 215 216 
66.1010304252424 8.178989504537412 -80.29073658627203 60 64 61 
63.85024097207985 9.890598736966025 -83.82686099455658 130 114 104 
64.53140333791558 8.83256265310713 -81.29449236491028 128 125 118 
65.67095811858965 8.644319261336104 -81.25393851334522 223 222 218 
66.12683377251324 8.31314090878418 -80.20760983339024 57 46 47 
64.56407537323813 8.806387485034945 -81.30191686145498 219 216 210 
65.9930885531821 8.211397555088794 -80.12468151070048 190 182 175 
66.15425056929821 8.176621402865251 -80.22272543339433 56 53 52 
66.20109584374643 8.11611435215766 -79.95716856018129 66 59 68 
66.12674367044505 8.108792933800466 -80.20310122655292 222 227 216 
65.08321795879236 7.599311487593436 -80.32988109250682 75 75 84 
65.65884691611814 8.251057824069404 -79.77701806844733 170 164 152 
65.17390590927963 7.494924674268915 -80.25464317912325 91 96 92 
65.97742863281354 8.119845556444353 -79.78737955787726 171 169 174 
65.18540813687245 7.430226840512987 -80.0789019115598 128 139 122 
66.19256825056038 8.196844606579752 -80.01549289401773 61 52 67 
65.16587168530685 7.488815405396709 -80.20879785936495 83 88 82 
65.26711143311755 8.257484128620483 -79.9539723690328 54 52 41 
65.23595767966616 8.29247092144221 -79.9182952843801 104 102 85 
66.23038811827853 8.156769452584413 -79.92239765401388 233 237 156 
65.14557739159746 7.498883684600471 -80.13545571696386 81 88 78 
66.18731917747243 8.102244025014603 -79.97401868096433 239 231 221 
66.21198866747373 8.190952842362616 -79.94399611787708 71 64 48 
65.13878856025673 7.617722561150097 -80.25503209904554 134 142 132 
65.87785452673491 8.250542792412848 -80.10660569330352 84 74 65 
65.16031008381584 7.5225877616776025 -80.29000458917264 142 147 141 
65.25542530863028 8.282291441917913 -79.94180588320876 116 117 103 
65.19347124650648 8.226191713147465 -80.00477610391458 109 118 93 
66.18054615836704 8.087487386494875 -80.01227174299197 218 208 209 
63.41672160747553 9.958033591667721 -83.19259147986713 241 239 240 
63.388125211957316 9.918904482572433 -83.15173787661938 98 96 97 
63.18058054712847 9.619374207132081 -83.32689995588454 157 157 157 
63.831750838823226 9.89699713461972 -83.72120990290009 171 172 167 
63.24236467892427 9.775698267353853 -83.41546416924999 154 130 123 
63.448919688896396 9.675449807041229 -83.6402424644384 183 178 185 
66.13996697837233 8.2820341664515 -80.56165000552846 154 158 128 
65.97748545949823 8.357401788627037 -81.25768889788432 91 89 85 
63.21447266365218 9.77103944614657 -83.41398012524718 154 132 128 
65.97588422924936 8.359743729380204 -81.26193908259046 82 80 78 
66.24805231926422 8.286602126919846 -80.43165689205239 79 78 74 
65.14049085549075 7.521623620743432 -80.3680762508163 86 91 85 
66.13824955349062 8.216536037621584 -80.18415334410733 92 83 36 
65.1424952190922 7.503718288648246 -80.43800523612651 150 156 144 
65.16296046560844 7.530288515439591 -80.33609669556077 131 136 128 
65.14361206591289 7.631246186571458 -80.7303248850436 70 74 59 
64.58548078084212 8.173848850995508 -78.8651231160083 222 220 219 
65.1292329989399 7.513532834180236 -80.39845958803144 88 93 87 
65.14261140305359 7.609302800702378 -80.21867440637037 83 90 82 
65.23623403069962 8.233112061042837 -80.09477866240145 111 113 93 
65.11599790932088 8.220402422053603 -79.91045572088312 238 237 231 
65.13300688401975 8.213504463420485 -79.90296622065273 238 237 231 
66.14124906264517 8.291542510120035 -80.14597690261807 178 172 162 
65.27932661286575 8.265546877979215 -79.62188726870707 168 161 148 
65.45053063503659 8.260563905216769 -79.64986410081771 187 184 179 
65.15632987921393 7.505132353409483 -80.2926979384971 91 97 88 
66.03118843534783 8.17530541992743 -79.70909796361832 52 47 50 
65.57374814998262 8.229641263046618 -79.70985722331505 121 119 98 
63.82679234701823 9.86271497310085 -83.86520529061639 148 132 130 
63.449817766553394 9.724949378321078 -83.542431490971 137 127 117 
63.42562312907358 9.710410281131761 -83.62765704161727 88 78 80 
64.58545271165394 8.873397930372962 -81.33599317901712 213 209 198 
64.5311474104812 8.764773063140542 -81.24291154286433 87 77 68 
66.13100522332641 8.231042155752116 -80.2067740874452 70 66 24 
65.46037933505454 8.108647988780586 -79.28397498992013 71 70 68 
65.66172592152986 8.648841167439844 -81.19705705241645 96 97 80 
66.23201880805021 8.18887818680366 -79.92656257840414 79 68 77 
64.5287849719019 8.833044012319935 -81.29733261266732 91 86 81 
66.20058432596787 8.172754085417935 -79.96789185140966 98 90 63 
65.5951512604793 8.228245164616826 -79.69285433180825 178 175 160 
66.14090470187679 8.309166483606372 -80.17703609208749 192 191 196 
65.10134554487846 8.240032163793277 -79.90747765300605 121 122 115 
65.26828655534005 8.335251423693641 -79.82067826627116 91 83 59 
65.15005233706147 7.508213223482243 -80.47534831086902 91 99 88 
65.98874714575578 8.166644986368803 -79.76657191701194 188 186 191 
66.03938471857695 8.186707516820238 -79.70479459955878 168 161 161 
63.24577360866234 9.88411381317079 -83.2383904045824 246 240 230 
62.133377708476054 9.354366131429206 -82.52526074705018 183 181 182 
62.286786241014575 9.527946131069958 -82.47431584015887 85 88 96 
66.1655833101817 8.097952883341708 -80.02441311651678 213 207 208 
66.11485896212197 8.394490022745565 -80.32695722037282 180 176 166 
65.14230118585886 7.503740111368948 -80.43814366219311 156 162 150 
65.12017954019116 7.615498423341263 -80.62401488547131 82 96 73 
64.46794635762495 7.961851553623976 -80.25667200639111 61 59 70 
65.22351751111063 8.247838537239561 -80.07410686607845 104 107 82 
65.04611821761209 8.291310782242231 -79.92048286041491 233 235 223 
66.17247215548365 8.111310490573725 -80.01251929623305 63 60 53 
65.45662790205786 8.145272730904036 -79.30629492025099 103 97 97 
65.45176766417313 8.114448708152128 -79.28716321202302 71 70 68 
65.11369038485068 7.301640460144728 -80.08615318541766 158 164 148 
65.3815839777348 8.066062642924944 -79.43086145510838 88 77 88 
65.43873748977637 8.138281501515179 -79.29675238390931 72 67 67 
65.38458667694235 8.189037182084618 -79.35851116180808 160 155 153 
65.12738909109197 7.286728700654202 -80.05949621031294 159 165 152 
65.09139804676083 8.225484952462072 -79.37610873893968 70 59 58 
65.12315877025316 8.231593688657643 -79.37388125075734 69 64 66 
64.52396513213642 8.757821502116713 -81.46086061022372 229 217 218 
66.42380495715292 8.31303605015631 -80.382739506642 126 122 110 
65.23510130144967 9.54209157653721 -82.65583489975123 206 207 187 
65.34412371796452 8.314720145160294 -80.02298478272608 77 68 53 
66.03696948323058 8.216687258360516 -80.55017210292817 101 102 86 
66.12506479093886 8.351547554010267 -80.24821609009426 199 192 184 
65.10053961693896 8.238757671905471 -79.90589476577365 121 122 115 
64.59826333402498 8.234453488318785 -80.01529617245885 74 72 77 
66.17275010549112 8.111265682767186 -80.01243561577186 63 60 53 
65.16246910176733 7.522202362334701 -80.28790822629286 137 142 137 
65.22640372513366 8.325730728669818 -79.97770873636415 70 70 62 
65.80888128454835 8.215847764767364 -79.809126844914 195 185 172 
65.15206425835399 7.28984856738629 -80.16350056753454 106 111 106 
65.3748209939757 8.203208379161328 -79.40286413831953 90 87 86 
65.10107171650526 7.344834067409072 -80.02263411868485 128 134 137 
65.14193928873318 7.2781777625159965 -80.10776268251081 118 125 109 
65.14062761975079 7.421135900685544 -80.08849202008608 93 100 90 
66.01474063938426 8.170384186799875 -79.71584057890675 58 56 57 
65.09065896001731 7.610685146693208 -80.20992271403912 93 97 90 
65.15256045160642 7.396946470092292 -80.13063539352996 148 153 147 
65.15484425016257 7.606027381842121 -80.16631184748107 151 154 145 
64.598192344424 8.31309685003368 -79.97817671308685 147 145 146 
63.55174576486779 9.894965550261215 -83.50585470202645 152 136 136 
64.8157269493025 7.30089255422681 -79.65483094160392 85 95 97 
64.8293750550282 8.037585419704214 -79.1685173299645 92 90 90 
64.25056177596578 7.515293284850904 -79.56170256030687 93 96 103 
64.14930221994749 7.485526335313788 -79.60322576172197 89 100 94 
64.8229002903491 8.062248930076434 -79.11747481878844 244 242 243 
66.16274785420696 8.287020023226493 -80.13891869138078 65 60 58 
65.10011737347978 8.07473686127511 -79.33980856578202 84 81 90 
64.68341656474601 8.00536280364777 -79.18683384895547 88 86 87 
64.6960290381545 7.999731354775406 -79.18283550493616 88 86 87 
64.83620323048157 7.2841315748310915 -79.60754999245997 172 182 181 
66.10557135749995 8.189450986637642 -80.29561493267407 152 155 162 
66.12973073761735 8.152770559428436 -80.20984243582205 214 215 115 
66.1274821338079 8.269727181769898 -80.20731464180862 84 81 72 
65.12626279544912 8.194796736107865 -79.91986958539925 123 123 114 
65.1017594524112 7.279421802513866 -80.09431491915026 107 114 98 
65.41063595385405 8.187101041826613 -79.34568965441795 85 79 79 
65.464811924068 8.128021153438151 -79.27756368759704 226 224 225 
65.4185221781851 8.09220689880696 -79.36359746097921 179 166 158 
64.67021732510675 7.188708106327536 -79.698380590745 156 159 164 
64.8242665830318 7.374357723615516 -79.6790269848066 115 127 116 
64.62558359309924 7.22051108034931 -79.80749754448362 85 93 95 
64.94083330925545 8.123724952195143 -78.93865812216225 90 88 91 
64.65834025035166 7.992199685987632 -78.9360143074521 120 120 114 
63.19890529677428 9.436092490540887 -83.37884873953756 162 161 160 
62.16732138179855 9.309559364230122 -82.55657032983032 177 175 177 
62.02281249827633 9.539388520016029 -82.1374638176319 192 194 190 
61.96962756584284 9.303068505791302 -82.25067956389253 180 181 185 
62.07265576162962 9.608225299438867 -81.99930249281945 146 142 145 
62.083783565629545 9.564501651013243 -82.09023283054611 230 231 225 
62.071245945728755 9.570343947260383 -82.09753486462091 230 231 225 
62.07207199923776 9.701204202645688 -81.95249669987142 228 227 226 
61.86313876427426 9.547386142650563 -82.02691785729904 155 156 160 
61.914458743182216 9.452080547067437 -82.12738292135842 213 214 218 
61.81269426724281 9.54629218943673 -82.0132761942816 143 137 135 
61.958858727350865 9.661274803525703 -81.89410627151177 153 150 146 
65.07416991607701 7.574105130677783 -80.50354880731437 83 86 79 
65.32291112854112 8.156419002827366 -79.62890500218154 80 73 69 
66.21091824461939 8.206690316805997 -79.99777974021359 220 222 157 
62.894001940935574 8.74753020161453 -80.21842334896684 236 225 219 
65.13670501727735 8.276746985267753 -80.08241763288383 131 136 107 
62.935552934747236 8.735755157513664 -80.13249027235459 97 86 84 
63.03089046026506 8.772347248760731 -80.22336758662826 125 120 117 
65.23931604904867 8.206309083038551 -80.07972506337224 234 235 226 
65.27920250582157 8.330913107089422 -80.011306963519 97 87 75 
63.03254301253981 8.756844722098519 -80.25265377042558 236 229 224 
64.00164523899775 7.9064379710250146 -79.97493628398634 62 65 70 
65.15261437292666 7.288589603133551 -80.16132542831846 101 108 92 
65.25882618864527 8.232301752875975 -79.57851043287296 161 152 138 
65.27937501556038 8.237042079949713 -79.6694682227538 70 58 55 
65.29863300516517 8.085338449924373 -79.13129633457488 90 87 96 
65.13036857243375 7.318379040614057 -80.10355498717692 85 90 80 
65.08207456797886 7.308983172658622 -80.06440869308598 122 130 120 
64.66554643857268 8.054918957062249 -79.18508205615382 236 235 233 
64.7600904415099 8.04606063593122 -79.12369943334181 51 49 47 
65.20637529414813 8.206285707801769 -79.58840587748418 101 88 86 
64.94634165599248 7.2987862271732 -79.77248758526223 80 86 84 
65.43173282120206 8.119750910638272 -79.3209252211895 207 207 209 
64.64886319265895 7.20120687933011 -79.73533588962503 89 99 100 
65.02873219348857 8.143355094499977 -79.03553468502915 219 217 220 
64.78761609267866 7.354683854240423 -79.76707805525429 76 83 76 
63.23630765271048 9.89064291108464 -83.24717815377225 246 240 230 
64.81160326931271 8.002475529105414 -79.25033360127544 78 77 75 
64.81297088605668 7.385501922399816 -79.66486908286296 128 134 130 
64.86767695663028 7.306414532348032 -79.74132382889827 141 146 149 
64.40281676431427 8.134457901007766 -78.63386959193078 110 109 117 
64.41149542979011 8.133373414305387 -78.62327037131561 51 50 58 
64.45510443916193 8.621142479553939 -81.42718220683574 103 105 109 
62.449851516076414 9.832305643043695 -82.57550544972523 235 224 220 
62.51569822009276 9.360184833577739 -82.41212794440732 101 101 113 
62.15395121596006 9.61117080032732 -82.13528945036964 181 162 152 
61.93551015859356 9.382127499276748 -82.08133538478447 219 220 224 
62.024484536974285 9.509163421201315 -82.26424203165436 91 91 99 
62.197214911546645 9.50410329857484 -82.34161497050545 94 95 101 
61.899958358042255 9.749613563950007 -81.96626966349804 242 242 242 
62.0977518535488 9.678174967359912 -82.0574494732042 237 233 224 
61.76060852665317 9.230866937064825 -82.17238145238846 157 158 162 
62.0309559877558 9.739398650865297 -82.16515376674155 236 223 215 
61.794265805197504 9.324764183901092 -82.19849768572882 161 162 166 
66.21085199193334 8.194524330724484 -79.98727354313642 84 74 22 
62.01689030428607 9.367897258093418 -82.4871202997671 180 181 186 
61.7529993432812 9.502528122835903 -82.09417567743982 194 195 199 
61.93442685638078 9.4776691187982 -82.13969679119205 94 95 99 
61.83594468844447 9.826568115625534 -82.00846038024332 88 87 85 
61.839572242202706 9.677798253184521 -81.97382131620523 123 118 110 
65.42317213635779 8.357897010835279 -79.96958573061767 81 73 66 
65.0131295022144 7.797524773377535 -80.86730264930385 83 89 75 
65.15992538846061 7.623165941078218 -80.65058811367723 84 93 72 
65.169385580362 7.620501986790387 -80.64030535193332 84 93 72 
65.10628860564991 7.575682229078633 -80.37672014253945 91 93 90 
65.55051763091082 8.316194416751046 -79.99933941685998 140 137 114 
65.11783552988769 7.6251486567576405 -80.5884153798616 95 101 91 
65.19049720580462 8.3126464739781 -79.96621279354532 56 57 43 
65.13699993484124 7.512194969594877 -80.48511082600685 91 99 88 
65.12681472481877 7.537598760902166 -80.49005758305928 90 96 86 
65.12831353167522 7.505634662118886 -80.47867352244512 149 157 146 
63.00511016335408 8.776926374328406 -80.21065050783422 176 171 166 
65.13483591841617 7.604523973886309 -80.6391327938576 112 121 100 
65.02930063682265 7.688804205780659 -80.58137679434734 142 143 137 
65.10481489203544 7.587350914088178 -80.46398307709995 84 84 86 
65.0885411671513 7.395082679978799 -80.14494139008313 84 89 85 
65.09404564640829 7.498516442488493 -80.45070172794316 87 95 83 
62.824676441845725 8.79249362492269 -80.0921586020682 235 228 224 
65.12822114785742 7.638891563126144 -80.24768982604189 85 88 79 
65.06616074438455 8.097139742055555 -79.37015574020664 212 209 218 
65.29368491681794 8.177990276698353 -79.60267519431613 78 72 67 
65.12874304616169 7.60109742415586 -80.16538415503652 147 149 144 
64.01535773197818 7.585912692631639 -79.7336189527292 76 80 85 
64.83583095243196 7.296217251120408 -79.69620227385516 74 78 88 
65.26902760943086 8.267393102638298 -79.6074623842126 123 117 105 
65.13353692230895 8.011749136829836 -79.31263363150987 194 192 193 
65.05745315326305 8.102218878482475 -79.37484985106025 203 200 210 
65.39825949335737 8.163137724212797 -79.32932539075956 140 134 138 
64.89573264655179 7.227068634647694 -79.8093170495513 81 92 87 
65.39267470224291 8.186883584262624 -79.33389468726105 57 52 58 
64.5727115588285 8.038629889119772 -79.16131235234788 54 53 51 
61.955207366906414 9.462928754439982 -82.17574264779164 165 167 166 
64.89113208561002 7.430832118797568 -79.73999655406375 140 147 140 
62.99393493002251 7.016352988349554 -78.87283508520517 132 141 149 
64.40407264741566 8.188742375297451 -78.76327474498069 76 73 82 
64.67959196842035 8.13506677989884 -78.78614487629267 119 118 118 
64.77138454972112 6.9432706771504185 -79.56407647928408 90 103 93 
61.802273717057766 9.376027031109446 -82.1555759522061 117 118 122 
61.99643486299887 9.301456618078502 -82.51190657086497 147 148 153 
66.1282171125988 8.142630448422167 -80.20177286431144 72 71 33 
61.78215420545986 9.479969162104341 -82.11028989045103 207 208 212 
66.22124054116482 8.146488802360148 -79.93293272391001 227 230 183 
64.62686747285925 8.299760326394718 -79.99761749684717 129 127 128 
64.7897752582546 6.933088125633751 -79.56606216347348 174 186 173 
64.12116229559038 7.856388769555742 -80.30277956600577 79 80 85 
65.45946235916769 8.28841602628086 -80.1479656776118 114 110 91 
65.18811685644614 8.19962622897239 -79.99598882150525 113 115 105 
64.66917048911287 8.031969225972318 -79.06917936980936 84 83 81 
64.93551141615355 7.323043337514952 -79.87096985474555 82 86 95 
65.08474826029853 7.378957011119213 -80.14994529366581 90 95 98 
64.88213443517205 7.343173847954364 -79.74914804132408 95 102 95 
64.78988715769519 7.3585448406647185 -79.74943908365753 141 148 141 
64.56074413688576 8.043549270619367 -79.1634484973764 79 78 76 
64.62008301103364 8.178063733683313 -78.82957848172757 123 122 121 
63.77167362457728 7.52756799605775 -79.68080956012257 82 88 84 
65.4338014314879 8.10606119221508 -79.31575372360669 199 199 201 
64.48833146638567 8.012031458902454 -80.1162748529417 140 140 142 
64.9881973555466 8.213728892340583 -79.45899176460732 135 126 128 
65.15803206831727 7.607350714186676 -80.6846381199176 108 116 95 
64.56128933942573 8.050545002856765 -79.09605454232684 235 234 232 
63.320749953867704 7.506506905719531 -79.0965000998308 62 69 75 
65.45986934717013 8.243959026138754 -79.65409879300059 126 122 107 
65.90408301842184 8.059499717075003 -79.88357908562149 56 55 74 
65.15923116013364 7.430304587949601 -80.08124509582197 141 149 138 
65.34799939636922 8.333307626748592 -80.02823047562879 121 112 103 
64.81991099350257 8.06482084459857 -79.11772075179044 244 242 243 
65.14673729333761 8.24143898634447 -80.05455970316972 231 234 211 
65.34971989335571 8.331947502292183 -80.02850979941834 119 113 102 
64.34521054176383 8.028934767962554 -80.11447894245704 72 71 76 
65.12616489601672 7.547005034266561 -80.25719978742073 67 70 75 
64.99340391914313 8.119025779034885 -79.21899732035834 77 75 81 
65.18130670217695 8.195949031420835 -79.23734441107027 156 156 159 
64.51633582796083 8.212456978161637 -80.11044282545006 70 69 74 
65.05904697950092 7.195359869550687 -80.09098428710796 82 90 77 
64.82056203187643 7.233366146789362 -79.80370214144881 70 81 77 
64.21095400441652 8.141156180195097 -78.9936306782905 171 170 165 
62.900922348553706 8.30757300454255 -78.2668614810261 69 65 66 
64.40790272569697 8.152447135390023 -78.6604063473099 85 83 84 
61.976255069802285 6.713118981034438 -78.53993085686723 235 236 240 
62.979443590837654 8.192813944649881 -78.25020277615727 72 72 62 
64.50162006448355 8.07501070484459 -78.99444101781603 82 80 81 
62.205171849078596 6.9101146809172915 -78.6588373663411 113 118 135 
62.052561869605626 6.745379247417986 -78.50373438719978 151 152 154 
62.44985199235385 8.294918626817948 -77.89917785447112 50 44 46 
64.68508328997247 6.907721094161646 -79.56957098096447 101 111 103 
63.35476158779844 7.414820094143497 -79.02871995451865 78 86 91 
64.58241020549389 7.028431931203698 -79.64176523124122 146 156 148 
64.59404758876977 7.013328201905739 -79.59714874170744 165 175 167 
66.7090329297507 7.26016294464149 -77.7675499239148 172 172 174 
59.62582042887389 9.534730858523815 -80.19833732428852 244 243 241 
65.14244720200598 7.6071213566181255 -80.65581111660337 123 132 111 
64.5380887993441 8.237955553389412 -80.07635741521335 96 95 98 
60.34164857462131 9.498524118444887 -80.6865177819013 147 145 148 
60.26755256891957 9.48000867638632 -80.56848036118333 147 137 133 
60.1515099067556 9.589704127010966 -80.57520969144753 240 236 229 
60.23720979877581 9.560814238773126 -80.55044650798278 239 235 228 
60.3274460935752 9.577648826459576 -80.47125494735134 242 240 241 
60.02686214733196 9.37376001099866 -80.75055470695371 96 97 99 
59.943702333427744 9.306991453449033 -80.5458573600498 147 138 131 
60.060419566604764 9.50271248231363 -80.43744312732615 178 168 155 
65.38878474838828 8.333653620589496 -79.75888084735384 207 199 186 
60.20349307380168 9.516697136771368 -80.6005064958693 153 145 142 
65.07778857840725 8.328516339164054 -79.8958766352312 98 94 69 
59.66011477264485 9.470628526945184 -80.09195460956784 133 120 124 
59.92466241861221 9.494989665806939 -80.29625847390068 223 214 207 
65.03605133395794 8.303428216078812 -79.96640529020046 94 95 80 
59.69057737954711 9.325151660172342 -80.34315474827771 141 125 126 
59.83543797184276 9.27585768896435 -80.30657465916548 141 125 126 
60.271288893636424 9.471440738170758 -80.63108468455566 241 238 241 
59.76301846196051 9.449926405301113 -80.26933561076973 144 131 125 
65.1728092310157 7.465346641256212 -80.20842934422382 119 124 117 
59.78013187357731 9.311671279075917 -80.26587160665125 188 173 167 
62.903078300310455 8.859446984621467 -80.22051987796645 216 207 204 
62.885272109421365 8.671080705185236 -80.27080186786613 179 165 165 
59.72790646871261 9.490153632790996 -80.23395578798332 251 242 240 
65.15007459722473 7.522224899682783 -80.43905527205092 78 85 77 
59.89491622376415 9.28771575823245 -80.07955924823176 167 155 156 
65.12789205694921 7.617004269142479 -80.18475053332685 138 143 136 
65.0936971924577 7.247452544007834 -79.9497963423982 72 78 83 
65.1671861613387 7.54181336840726 -80.36723748946257 128 133 127 
60.74909508193832 8.211815061089366 -77.68476647948862 158 154 168 
64.52417492438978 8.098194027786967 -78.96871406875145 72 71 69 
64.54636334515324 8.190788097840912 -80.0793310300636 114 113 118 
64.71224310304447 8.023500177129794 -79.05528634309313 45 44 42 
65.41513039879175 8.116804038723533 -79.41879178197328 55 47 54 
63.06946384337662 8.170541302826768 -78.31628413516775 70 73 57 
62.59729016111961 9.776378253026188 -82.58674709926414 211 203 196 
65.12370969818343 7.33165940609474 -80.1345291344766 123 131 120 
64.990242164139 7.165079251093177 -80.0152980813042 126 135 118 
64.77125497723844 7.070455619964727 -79.5782669762741 81 91 83 
61.291095610461404 8.386515536689664 -77.94817109102092 52 51 59 
63.31483662373713 7.468209702261886 -79.18093887770493 71 81 81 
65.10815394072294 7.082860865423098 -80.17568978672169 85 92 86 
64.50572390018807 7.401704411447949 -79.60507274094226 143 148 151 
61.808770870402064 6.640017668373625 -78.51701338522092 217 218 222 
64.76987637739758 8.119927644336679 -79.1720300431723 48 45 46 
61.33201381493429 8.330115486964335 -77.93235916487991 224 222 233 
62.49396681951639 6.7313394711361765 -78.65701362192382 230 233 240 
62.32360301700356 6.713564637474609 -78.73900647023032 147 153 156 
62.16790516268332 6.795603003258542 -78.66106826743409 132 137 143 
62.390334630536195 6.754850503803396 -78.70369457778445 231 237 242 
62.32178552422127 6.7590007516898645 -78.71414178305385 231 237 242 
62.316139159862736 6.6311658886000275 -78.6981005212883 241 242 247 
61.92490102789161 6.680970614151609 -78.56203031498775 226 227 231 
62.833622256999774 7.317393023277453 -78.38189079251349 108 117 119 
62.13894149800806 6.9101618182522 -78.6926870805943 103 112 119 
62.14742778660674 9.300568634373988 -82.43000275875009 87 88 93 
64.41803412385113 8.158461162210005 -78.69140119225848 197 201 202 
63.30408218567705 7.4500171271858795 -79.04373072489518 102 111 118 
64.00479986838438 8.082407970057497 -78.49139326103203 69 68 71 
65.12030902560741 7.513002040367132 -80.5163706533633 92 95 87 
65.13193605447918 7.448629406544934 -80.1488654955861 87 95 80 
60.36680625734801 9.434712696390083 -80.76134448550368 236 234 234 
60.31758254178529 9.633114344532846 -80.54692536610959 224 222 223 
60.13776679116996 9.41599416748485 -80.69207434088108 159 155 159 
60.19612979802649 9.395057366535283 -80.67406400811807 159 155 159 
64.64051046080887 8.054372094272097 -79.1570350184143 90 88 89 
62.78362277354002 8.677394780790742 -80.29376392529916 189 180 179 
65.16170401741319 7.641365532198719 -80.20452647480856 159 162 154 
59.667529167348754 9.202016508814562 -80.39527623965398 140 125 124 
64.44887669169154 8.159158645319566 -80.1508116466855 189 188 193 
64.43050725772777 7.906317574295625 -80.24295044008973 50 47 58 
65.36790980305757 8.219807997329227 -79.35306537840061 153 148 153 
65.36369703665459 8.155680978924725 -79.41687384653613 112 96 105 
64.83532525487779 7.175120684866155 -79.92607198412364 62 73 70 
65.1698667872586 7.440762350590404 -80.08918409435773 119 127 116 
65.10214153735838 7.2009387657816575 -80.03295386073876 159 167 152 
61.581232758610966 8.366578820961191 -77.94207548819985 148 155 123 
67.15677636625676 7.32954083435784 -79.2327049683996 215 213 213 
62.550003133203575 6.652645247335269 -79.13336319691699 151 153 152 
62.52011756976246 6.745201185597622 -78.82374337803805 120 127 135 
61.95916227426787 8.218327569578992 -78.17878913905155 104 99 89 
64.29593101994895 8.149743065487408 -78.8578836871575 51 48 57 
62.045827186458055 6.7488727791526735 -78.45676799380676 174 175 179 
63.481601991727715 8.213954940533785 -78.49678237036906 143 123 114 
62.77841230354993 6.558614174710738 -78.88170889311093 178 180 179 
62.879643676266674 6.6060179740857725 -78.92793744392348 169 171 170 
65.08278461498952 7.395920076148848 -80.14910490818927 88 93 87 
65.13698871086582 7.396630988511931 -80.09203218026585 128 134 127 
65.99247124277332 8.067463573932354 -79.80214130610399 64 62 67 
60.335593585330585 9.417386019037638 -80.81577467843164 195 194 192 
60.34886891175632 9.553829523600868 -80.73969853286101 234 232 236 
60.108962450649564 9.401967809092586 -80.57864497154259 165 155 147 
59.977595200586855 9.507004577684409 -80.44541200171709 223 210 194 
59.931449624439566 9.522791819411612 -80.455869443441 223 210 194 
60.394086587253604 9.491196071857763 -80.88663050894644 246 245 244 
60.37662781069771 9.567045509496019 -80.83297387442725 242 235 232 
62.79423579907352 8.735354115629054 -80.12785128069032 227 216 217 
60.338981790851975 9.541769905659232 -80.85784138827616 239 233 230 
65.28705952666024 8.350631796794014 -79.90087829560049 130 118 99 
65.12213681568979 7.277455082916386 -80.25938898379974 146 155 138 
60.465792340889166 9.498410315066444 -80.86275462319924 164 156 152 
65.35740749490256 8.286043712878001 -79.70164802765777 104 99 72 
60.23303836675289 9.493236176105736 -80.77687714837123 164 159 163 
60.282352420018626 9.497867506684955 -80.82114713718522 165 160 162 
62.957502796824585 8.771858847864964 -80.1546088438446 75 69 63 
59.52262045511973 9.561727341665303 -80.14626872854161 131 126 128 
64.51569969970053 8.191379359323326 -80.18486329684957 97 95 99 
64.97930300187181 8.185606522935528 -79.23487324694834 29 27 33 
65.13827212333672 7.292617398054296 -80.07161471689173 146 154 141 
64.88527260982316 8.121485467729965 -79.3511567896805 70 70 69 
65.22278500456389 7.954835428745951 -78.9581944165107 68 66 68 
65.2576680184371 8.231999391776782 -79.57943803414653 147 137 133 
65.15600689707485 7.518883683983784 -80.2458955341966 108 113 105 
62.252707369042454 9.904911301284123 -82.10662449881464 233 233 232 
67.76532000515186 6.610005574280202 -78.03334786785494 209 224 243 
65.40848350612933 8.123212235850502 -79.31381393759145 54 43 49 
60.80180159680563 8.201178368764015 -77.7840153193229 50 52 72 
60.74774674329025 8.273472844050296 -77.69580989440331 160 163 170 
65.01355980285118 8.127298863418265 -79.21010063139482 52 52 53 
65.11985290246521 8.039981351817726 -79.3984324902097 231 230 228 
60.74314354615463 8.10989128645678 -77.74382961222737 180 183 201 
61.14953008662381 8.340102997255478 -77.95689774925117 225 223 235 
64.84143492949079 8.100346443640637 -79.2696480361461 245 244 242 
64.81658188389841 8.112539511301307 -79.28010610787302 245 244 242 
60.78484415040635 8.237565124406792 -77.697113303815 165 167 178 
60.854898359288995 8.338629755581724 -77.6150697011509 205 196 196 
64.85036249567568 8.109686104126002 -79.36507239701751 113 112 110 
62.92028629347059 8.264018515700474 -78.19108280786406 73 68 69 
64.9000254860452 8.11468982731807 -79.34406137493963 70 70 69 
64.58503346223473 7.248574025682154 -79.80948023636753 97 107 108 
64.76450977707943 7.062422437954257 -79.72010963303819 143 153 145 
61.746174028572604 6.927614376224984 -78.78444747110913 106 115 122 
62.398606077308514 6.705309946304891 -79.24872704143445 243 245 244 
60.71704690951363 8.232161629733667 -77.70732887792006 51 54 71 
60.76018280553013 8.22070284456153 -77.70637337876605 51 54 71 
63.23413531313743 7.482741837418869 -79.0536290935158 58 67 74 
60.85698502450962 8.347757792624737 -77.69381208133646 131 130 138 
60.91031171949127 8.335723562500831 -77.69165462394453 131 130 138 
61.89581146480273 6.605969522849525 -78.51217546921991 184 185 189 
63.12638685414648 7.249350428581769 -78.44940120863912 192 194 194 
62.964336929474854 6.927659801651244 -78.86881647314436 100 110 119 
62.314161918981156 8.248434284457897 -77.73210049970162 181 175 172 
62.86885953992937 6.599571649010793 -78.85981464294517 157 157 159 
62.27351593529352 6.462710759675477 -78.69159045327848 153 157 160 
63.144553797756345 7.036910184960848 -79.09932916786747 100 110 112 
62.15657128815909 6.850096163606988 -78.58734293286183 227 228 233 
62.888674204596285 6.598904994590746 -79.21470445839434 165 165 171 
62.78233460246268 6.55876021780107 -78.88021968971259 177 177 179 
62.32076715531788 6.706788458380838 -78.6993473949467 218 224 227 
62.28394376407464 6.510357740743189 -78.653110865236 157 161 164 
61.86290249089942 6.612419971502572 -78.5664612024839 188 189 193 
61.90286884035833 9.320666856578042 -82.16447996405333 158 159 163 
62.16130272147614 9.343797270421115 -82.50620942184577 183 184 188 
62.045358193859734 9.682088187610557 -82.3976641863566 177 168 152 
63.56974750031265 9.25994629843591 -81.5884752395265 226 225 225 
62.209508370590946 9.266014442095255 -82.58761088231927 81 84 84 
62.001810314423125 9.480444380588928 -82.24735370707707 168 169 175 
64.39625661629643 8.121663394807944 -80.09497710059337 85 84 89 
60.2275960081865 9.251318955179983 -80.76680131606298 173 173 175 
60.27670558759068 9.645707308094021 -80.77652851292756 228 226 227 
65.11703065981611 7.308664123172713 -80.07014839205328 135 141 132 
65.04393733770719 8.299786877220651 -80.20817494229283 233 229 225 
64.74877610147537 8.155776959494737 -79.04958508862222 85 83 86 
60.31957079705401 9.586021540186852 -80.79175330432004 143 138 135 
60.1430404632049 9.56393561637794 -80.64089624774431 234 223 223 
59.62989459065013 9.332241232560385 -80.44158676019323 87 76 88 
65.00262363049745 8.236769803092713 -79.91027697849698 203 202 201 
59.947729742763826 9.518632590255656 -80.36738852468868 209 195 188 
63.023599452433636 8.727136679575484 -80.23624210732885 106 97 92 
65.09036554644916 8.156819562569826 -79.08117862790813 39 37 40 
60.22118943341784 9.605459382754777 -80.78753223926086 230 225 222 
64.30147333819608 7.8551137340589765 -80.18883865409653 56 55 63 
62.77490387398427 8.867185709982932 -80.18613421559462 233 224 224 
65.11595782559375 7.318046245255804 -80.05647694814726 60 66 66 
64.7136453675795 8.005835166588382 -79.03494920698935 60 59 57 
65.11290050424391 6.923648485778046 -79.78668992015707 91 101 93 
64.98904543252624 7.079331397025386 -79.86922977492024 177 184 175 
64.58410484144905 7.028077485369064 -79.64006333369034 146 156 148 
64.85370821339542 8.127533072223821 -79.34900916779726 236 234 234 
61.904739464940434 8.272070757373028 -78.09155718651041 148 142 136 
64.98240933241225 8.135334247661497 -79.24326496976018 205 205 206 
65.1178332469149 7.279268870929811 -80.0664143889393 76 84 69 
61.89669198227704 6.790454318764978 -78.63498041553868 141 146 152 
64.86098984329284 7.168960592045005 -79.91216004697529 54 59 63 
63.67631239596516 7.896314937012851 -79.81546833770966 48 58 54 
63.96839403815341 7.8001329598659845 -79.95940810442798 125 125 127 
64.94274907705328 7.064324544025363 -80.84569440603931 82 89 82 
65.13264218747382 7.285917543616372 -80.15264013440267 77 85 70 
65.02571901485594 7.345867375333957 -80.02507761249339 76 81 87 
60.54417344053186 8.361191125839085 -77.95129350003307 51 50 66 
60.83655797633185 8.350317221380081 -77.59160107588063 90 67 71 
63.89623644791753 6.919310050246314 -79.68766939353692 190 196 194 
61.2649345378003 8.415176916838425 -77.97843674913025 148 149 150 
62.224298864838104 6.613173672108396 -78.64556712970335 235 238 241 
61.87523290096357 6.791910034981928 -78.63979920024133 161 165 169 
63.24719390378148 7.027526901125767 -79.13274504211884 101 111 112 
62.67777412727404 6.729118906771012 -79.33286204679831 240 244 247 
64.25934086280694 8.168011905144713 -78.84464826952394 225 228 237 
60.746839499619846 8.298555208637906 -77.65681798993936 178 169 177 
63.85700481881939 6.974148196730342 -79.70446474058032 105 111 107 
63.215144611053134 7.324296707307726 -79.24974304898399 120 130 130 
61.84654721406607 6.691355818285638 -78.55131717066608 184 187 192 
62.163601538236975 6.4564745178080445 -78.79062510560172 177 181 184 
62.041829173969 6.422754474395407 -78.84861401164933 141 146 149 
62.15682156048572 6.367075636029781 -78.73074855922272 240 242 241 
62.21721926827679 6.3864633858957145 -78.82009937635087 156 156 159 
61.91609888297572 6.759185134515328 -78.5209587468689 152 153 157 
62.335602499495735 6.388552767273372 -78.64447894599769 239 240 242 
62.267986720223966 6.494471753635838 -78.66814457324617 237 241 244 
62.306961684404286 6.508997525313328 -78.64864459919436 159 163 166 
66.66510996592821 6.77558382300251 -77.20837208641713 42 50 27 
66.83344950426056 6.697724243813493 -76.97226757838467 31 40 22 
59.91954208760448 9.630634713915066 -80.3011578669805 207 206 204 
60.27386049582006 9.563305528821845 -80.74261189000534 118 113 110 
65.28798766381888 8.160764542355416 -79.6369797531065 51 51 49 
60.41140495801509 9.507013594796941 -80.84723756371652 245 238 233 
65.00511829945208 7.413546907188007 -80.03873955421825 47 53 55 
65.02352019684069 7.401103341281754 -80.01206429801229 113 118 121 
65.18381699227172 7.299130408674252 -80.1678117039131 154 162 147 
64.58771257967443 8.097232069951268 -79.20290311487554 235 232 233 
65.18534704909304 7.311174248173642 -80.12219031817186 147 154 144 
64.58587820479238 7.210058998984187 -79.64925942829362 60 70 71 
65.19059314690449 7.295643614887009 -80.15928334046433 141 149 135 
60.715359534136745 8.115874953220684 -77.74444192629511 184 188 200 
62.378254465473155 6.521164696185535 -78.68164635193526 139 139 147 
64.58288607344412 7.22212593438131 -79.67912942704221 63 68 74 
65.06528032553575 7.038771916232536 -79.8493289173436 77 84 78 
62.53033296545265 6.69303369532176 -79.12804392805981 163 162 166 
63.245479535834185 7.545930614292234 -79.12209039952229 86 95 101 
62.29711395457107 7.308650640779806 -78.57549938622718 174 179 185 
66.71574534105791 6.661890397003541 -77.09840009412645 58 65 32 
66.19151815543617 7.115131483113155 -77.17241116981927 193 183 191 
65.75388181671977 8.247628399553873 -79.8542247895805 152 143 129 
59.66238452808854 9.48785028224765 -80.41160915794818 157 142 140 
60.02903072896808 9.416765932702742 -80.91033841606404 119 119 121 
59.67399634955719 9.51266311308786 -80.37920927736465 151 137 132 
64.99772910590478 8.21095426032373 -79.51499896946231 190 187 178 
65.28891625177499 8.209174766809307 -79.63354675394768 185 176 168 
64.49679501339315 8.266241856842804 -80.10078215039634 84 83 88 
60.24560437486495 9.395043251962914 -80.95739639645922 87 87 89 
60.15295588018671 9.533328631186782 -80.67397654643399 237 232 229 
59.559918098536315 9.496422478293272 -80.21540891882192 170 159 159 
59.647299994506405 9.606396398837468 -80.05677971508007 135 134 132 
65.24188779256994 7.99050310659577 -79.35162499147835 236 235 233 
59.563143812146464 9.407661978086123 -80.20297848537933 179 165 159 
59.66249279465744 9.554108115013186 -80.27023760991322 188 182 172 
59.346976990352275 9.616594114472441 -80.14712240860302 97 86 85 
63.0172964644105 8.607384961448204 -80.06534951575846 64 51 47 
65.02942764260888 8.105685302456953 -78.99651359077583 54 51 60 
65.01728376544595 8.014181785363245 -79.45503125025164 73 72 70 
55.32929789889712 6.922777727958162 -77.88585082080118 221 222 226 
64.93950187338754 8.079086744430814 -79.41371873529121 206 205 203 
65.06825578766339 8.086268277095666 -79.4023066488144 69 68 68 
65.04885765310358 8.063129324003246 -79.39975718758168 60 59 57 
65.05220943699426 8.205575507502097 -79.39532154898379 179 164 169 
64.8942447673925 8.064840820651764 -79.35665052810573 200 199 197 
64.81152933763452 7.145035858683087 -79.816278709854 81 87 83 
64.99737081496448 7.061298297602204 -79.8833085139397 79 86 79 
65.15996171792823 6.931593902589866 -79.71484825417245 91 101 93 
64.81565429231402 7.067761733609984 -80.17260949733571 92 99 92 
62.280784840435224 6.4808192800128 -78.75669070267759 230 234 237 
57.002022095198065 8.698146223098405 -76.41755281678094 88 88 89 
64.87520927170351 8.064661489278093 -79.24001553808552 67 68 64 
56.91592250594466 8.642879501720293 -76.46838348603947 101 99 102 
63.29415153584787 7.513880103331857 -79.14336906644243 90 100 100 
61.25490236175665 8.389645926145718 -78.02579670666887 160 153 159 
60.8139301833135 8.255696082409003 -77.69354913786582 169 168 179 
64.24493697226771 8.089284660866586 -78.86419289344765 80 83 84 
62.16899105324677 6.446125168451637 -78.74068194235969 227 231 234 
65.08657460224525 6.887005497492105 -79.77490930828354 113 124 110 
62.80887826130732 7.051356952443636 -78.83951056515187 122 132 141 
62.240501932867794 6.551208186807373 -78.67955726807324 230 234 237 
62.253095873081776 6.327473184304693 -78.76351357961354 245 245 245 
62.180334335856195 6.330438565026805 -78.81597428033666 159 159 159 
62.49045798412872 6.673418050568584 -79.11146174834504 231 231 233 
62.20550305036247 6.293754387694872 -78.80382223177432 174 174 174 
62.24559774573426 6.294001307297422 -78.79624767211182 174 174 174 
62.213353072401844 9.483458164121558 -82.38525323747194 171 173 171 
62.293658331176054 9.489654287145626 -82.43453380716836 171 173 178 
65.1083777771693 8.192760359570693 -79.91987906923131 228 227 223 
65.10267474290119 8.1404706012409 -79.33014433765354 242 238 247 
65.4333382186968 8.29224149114691 -79.70822336619834 192 188 172 
65.2680690368638 8.268229355498967 -79.55045557988458 142 133 127 
64.57499940664613 7.415092300685899 -79.6024178619404 71 76 79 
63.500050631496556 8.57307356837261 -79.6965860939454 46 41 44 
64.80694577125703 7.391224475076089 -79.70104669529455 118 125 118 
60.45198570802077 8.401331806236405 -77.9606068768243 63 62 76 
64.16871544469707 8.098551145223276 -78.92170963361254 117 116 112 
62.90991078345545 6.598673258564812 -79.17010367985011 246 247 251 
57.03743882407045 8.680734483817652 -76.45739909969923 227 227 230 
64.83583408918233 8.067089954483116 -79.26312922946477 182 181 178 
65.16012301498 7.02467459281695 -80.04729163695761 145 151 149 
62.23676834812332 6.576843773677718 -78.85424235433712 146 146 148 
62.29583395924053 6.451875713267785 -78.72014295340531 242 243 247 
62.15291824574095 6.420395235700546 -78.73717188395244 149 150 154 
62.21693689918803 6.436663763294699 -78.64769241432401 185 186 190 
64.61760630597419 8.399303817823112 -79.98220094373512 81 79 82 
63.10620170057625 8.719625444359256 -80.22594132090082 238 229 224 
59.894333498633166 9.251142371658243 -80.87928969026953 152 146 150 
65.83077002945342 7.964928957533168 -81.05737844786157 92 78 77 
64.91663620599883 8.205806951381888 -79.61192476683777 229 229 219 
63.30471751659907 7.525344303884363 -79.1679550662185 105 111 117 
63.291319362767176 7.467564692868933 -79.01777627196935 100 109 116 
62.792367306789956 6.592641046306277 -78.9034440739195 233 234 238 
64.53731283380375 7.4012047613072225 -79.5761898426673 65 71 68 
64.88948470665072 8.059055194486756 -79.07525091053927 67 67 69 
56.86030346925325 8.696743498268116 -76.38109382328679 219 218 221 
64.50423912557464 8.102890371606414 -79.07295784786419 152 150 151 
64.39562157242909 7.128984700845847 -79.61680434977967 140 146 144 
64.29572269186824 8.10341384153148 -78.74284995871031 79 80 85 
63.29562639284757 7.4661854140867945 -79.07903596417484 60 68 75 
62.261261603800115 6.575248162266563 -78.79747577383469 221 222 226 
62.24548868550379 6.430854459830929 -78.83141783447381 138 139 143 
62.28670247220369 6.561152712781713 -78.70676327865813 149 150 154 
64.7704938052646 8.028608329744792 -79.18838155016027 234 232 232 
65.2451024007753 8.028105371993579 -79.43310245785521 237 236 231 
63.05327401228617 7.160345615035077 -78.9980417454215 86 93 111 
61.936861108904914 8.329823728732372 -77.95755343212194 73 73 68 
64.92588457986278 7.215874718954869 -80.79589411675808 93 97 81 
64.90032451390286 8.213248904315803 -79.6278157842585 237 236 232 
62.94207311159799 8.581414225445062 -80.09223794251888 57 46 37 
61.28808145164199 8.352511076414238 -77.90354756044191 201 200 205 
61.959476020540336 8.213103994692382 -78.04369700353062 166 167 159 
