-12.7756539645 1.00281345859 21.6244231252 74 74 66 
-12.7054703374 -1.48292762151 25.8612544075 98 95 99 
-12.6746464271 -1.45432264782 25.8101328079 98 95 99 
-13.6175752144 -3.81647656247 25.9389911736 63 63 67 
-11.9033718675 -6.28118938467 19.6989458957 107 114 98 
-16.9593536565 -4.58797402953 54.4753196209 140 133 132 
-12.410592531 2.69467820548 14.1850976867 100 99 104 
2.33480970004 -15.9064898874 38.3795115881 231 235 238 
-11.848612845 1.44525011968 21.5466575822 114 101 86 
-14.1747375408 -4.7112512828 20.9867611227 75 76 80 
-13.0149419227 2.38482695974 16.2212665716 155 147 133 
-13.8906246357 -3.99509644481 25.5078780241 67 66 75 
-11.5454429027 1.9677635435 18.3722004285 204 194 186 
-8.38046932472 -7.34847142473 29.142527056 90 96 92 
-17.489249384 -5.16563643974 21.5225912563 119 125 105 
-12.0280067823 -3.30387361011 25.6137957443 70 70 78 
-14.8684519844 -4.88869510624 20.4486532498 84 84 86 
-15.3832623988 1.00544638558 19.7824124719 103 110 91 
-8.77918810908 1.11753196347 19.7932880201 88 78 86 
-15.1928697251 2.58369047743 15.192289691 81 88 62 
-10.8798232498 -6.17699099273 59.7974360289 170 159 159 
-12.9502658085 1.73094493135 20.4469454595 80 73 66 
-7.88310690833 0.615350399554 21.7857320775 217 213 224 
-14.0271579713 2.0514860214 18.339724791 94 86 78 
-12.4301065723 0.00567496790856 20.4918084128 233 234 229 
-10.2060104767 0.691429761472 20.7003402022 51 51 49 
-12.1738436353 -4.62069580757 58.7295143426 207 206 204 
-12.5314522119 -4.51519686113 58.442519429 207 206 204 
-12.7492756303 1.6579448923 20.7845900923 78 69 61 
-11.8786104653 -4.66048846984 28.8227681001 62 63 67 
-15.6043334892 -4.59291913216 54.8246470276 232 227 225 
-14.9918465636 -6.85820990546 56.978814755 176 172 177 
-7.77460564227 -5.97118211591 25.6804253944 93 96 103 
-15.3393378524 1.36523504605 15.3160034527 81 83 72 
-26.8022864884 -4.74847777028 44.0648425887 135 135 143 
-12.8797050442 -2.68880560943 37.6000137343 236 226 219 
-8.92585952884 -5.65893355201 21.7412376631 119 131 119 
-8.6967608823 -6.14769568586 21.713608431 88 97 101 
-25.527299258 -1.94853914437 43.7331294395 169 155 147 
-12.5196301293 -5.17676024 19.8684509373 87 95 80 
-14.4608023521 -5.24242094787 20.2996641394 88 95 85 
-14.4312310145 1.95397840161 14.4361004093 68 67 69 
-14.226603572 1.98085077741 14.6019121399 233 244 82 
-14.0710681124 1.96467568928 14.4148456519 233 244 82 
-13.2313986439 0.32788240016 21.2803163885 112 116 87 
-23.2176722704 -0.0346913481226 34.2622948588 230 227 222 
-13.5927451883 2.48829452663 14.3726487727 243 245 173 
-13.4713824006 2.47081772308 14.2210221175 243 245 173 
-13.9492093985 2.96102949544 14.5000336573 70 64 63 
-12.5384002986 -6.24680162019 19.5565906426 103 109 99 
-27.9997489541 -4.88834466662 42.0114439732 91 92 96 
-13.9949028275 -4.33026017718 20.2421823988 71 73 72 
-25.5840595093 -2.1995338408 43.2577554659 179 166 157 
-12.2139583531 2.43171942512 14.0440659618 91 88 86 
-13.1422496137 -2.14676845657 36.9668651703 123 116 115 
-17.1242111836 -4.68435858901 22.2382508535 79 82 73 
-11.9592684114 -6.11955690009 19.766032786 158 164 147 
-12.1365950692 -5.06852530424 19.6172675925 132 140 130 
-11.9460247789 1.35098836851 20.9406602793 95 85 68 
-14.85383822 2.08796920249 18.7178532637 69 59 49 
-14.0675018065 1.81560229272 14.3498949571 231 241 78 
-14.0675018065 1.81560229272 14.3498949571 231 241 78 
-13.2186734743 0.281350861067 21.8590738217 130 135 105 
-16.3827424134 -3.24398143923 14.4117044825 122 111 109 
-12.796150611 2.14982095134 14.1762475667 79 75 73 
-11.7588942234 1.93313882466 16.0267141258 196 194 198 
-11.6852693769 1.91363720384 15.9088091649 196 194 198 
-13.1452589654 2.511866557 14.2481324429 77 70 67 
-16.2792621676 -4.84343353873 20.2880595328 85 94 73 
-16.3000806553 -4.8513676566 20.3092474457 85 94 73 
-12.1996323903 1.19182904521 16.251613246 53 53 61 
-18.2123088903 -4.12460145777 17.2504330027 121 109 107 
9.29877306883 -0.16868348942 6.28786792228 31 40 22 
-12.4738063069 -5.67288141814 20.1820454201 86 91 86 
-12.4123219285 -5.63889690757 20.0727069145 86 91 86 
-14.1845389327 1.62792716145 14.4635932515 59 57 49 
-12.9821032731 -6.63169958273 19.5036150545 126 132 118 
1.63904155889 -15.9359169676 35.5084848814 237 241 244 
-12.26490529 2.8541259541 14.16303814 69 66 69 
-1.85430487162 -14.9966798962 34.6855857214 233 233 235 
1.92804836606 -16.2922765077 34.5828933054 239 240 242 
2.53217812473 -14.8952597775 38.5628986997 152 153 157 
-12.0759504542 -5.97318458701 19.6406167178 88 93 84 
0.820677251962 -17.0115830029 35.5648814502 156 156 159 
1.51764928989 -16.9987720966 35.5728556464 240 242 241 
0.725115245703 -17.1610281011 36.5128153351 141 146 149 
0.9516673403 -16.5815464755 35.9765768137 177 181 184 
4.70069142149 -5.36730358239 46.6156134939 221 222 226 
-12.3028059408 2.68703400005 14.3272264732 71 71 71 
-13.1560542618 -2.4920077495 36.9050543062 124 119 111 
2.50536536054 -15.9266698917 38.2117186725 188 189 193 
2.49353508617 -15.5655627055 38.8781711041 184 187 192 
-7.54193791179 -10.6486372204 26.7075654679 105 111 107 
-19.9729884884 -2.13574792903 47.6821164428 221 220 215 
-0.568604109682 -14.4363249825 32.504133816 238 238 240 
-12.0220830543 -6.19336814037 19.3759321962 116 123 107 
-4.27000813386 -1.52678217024 26.7390448358 237 236 234 
-5.80948072165 0.0032946153371 22.9080317507 67 67 69 
1.64947339518 -15.3012673941 36.2826316787 235 238 241 
-7.40897434132 -10.9023784263 26.3699441159 190 196 194 
-8.12077616109 -0.124142706982 21.7480562703 60 59 57 
-8.11643469596 -0.603342954649 22.2847095773 37 36 34 
-7.65052505105 -0.190922180638 22.5198581023 225 224 222 
-8.1221845912 -0.337501367094 22.4787171207 206 205 203 
-12.7661899239 2.95102562822 14.587380213 79 74 78 
-14.1774639182 2.21615625121 14.58332978 92 90 55 
-12.4639014382 -6.06054091391 19.161087858 141 149 135 
-7.82479495421 -8.35931913013 22.1121325604 145 155 147 
-16.438789191 -9.28614942124 20.0346866708 82 89 82 
-9.9858508085 0.957687991974 20.891691982 73 69 68 
-7.75542061901 -8.21050693012 21.9676503576 80 90 82 
-12.4870236431 0.919488306928 21.8277830747 109 109 94 
-7.79051156145 -8.34213565424 22.0348948506 146 156 148 
-12.4833765821 0.706954926392 21.065213203 52 53 39 
-11.4362816058 -5.65923978915 59.5272057405 188 182 172 
-27.7077079249 -4.44424439674 42.7084745236 185 186 190 
-10.6432292412 -6.66772813145 59.4541484337 179 165 159 
-4.0025240812 -15.0377302839 34.0026299739 246 248 252 
-10.3296906671 -6.24851160125 20.3505637064 64 69 75 
-10.8441118819 -7.91055104551 59.3276683731 182 170 159 
-12.4042177935 -2.09969751077 37.6041662489 233 224 224 
-14.7446313748 -6.68461501156 56.8533574432 96 97 99 
-27.8572645355 -4.47679145648 42.9341351022 185 186 190 
-13.0671485217 -4.94702534678 19.8372773043 80 85 79 
-12.4420592065 -6.21192299087 19.4089960062 101 108 92 
-15.1369280578 -5.12965614545 20.6883039394 81 84 77 
-13.3223760826 1.3478837187 20.7602673641 69 64 52 
7.65923050045 -0.516101066222 7.8326088244 42 50 27 
-12.1915410379 -5.2882546763 19.9588757825 91 98 89 
7.77656260895 0.549769248603 11.8488724574 193 187 190 
-25.7291729264 -1.52801002581 47.51466528 92 93 88 
-25.235734101 0.391906866611 35.9553547857 234 235 230 
-27.6889644968 -3.09666584554 42.4936806316 173 174 182 
-12.3913930165 -0.573515649757 25.3008434684 144 143 141 
-13.6998349488 -4.28388478412 56.5569393863 242 240 241 
-12.5367599901 2.51753415969 13.9372253134 222 226 171 
-12.5567578624 2.52106654053 13.9635199878 222 226 171 
-3.9182417298 -7.55639313603 32.1531181092 86 95 101 
2.48717864086 -16.0427045442 38.5162405274 188 189 193 
-17.9430471154 1.08654950286 19.685180192 223 224 216 
1.69166891485 -15.8415587938 35.6729328722 157 161 164 
-2.01302169211 -14.7429120999 34.2827125107 163 162 166 
-9.43595958819 -6.01857433145 21.7950998349 86 97 90 
-4.35469704005 -9.19039272415 31.4593639566 120 130 130 
-3.68587955904 -0.519146610544 26.6460524488 225 228 237 
1.05716884 -14.4956422826 35.7513044245 218 224 227 
-2.73351534462 -14.5138839872 31.5814620299 165 165 171 
-12.3123051055 -1.2453335926 25.4091409403 80 78 82 
-2.74340868191 -10.8198670626 30.742959892 100 110 112 
1.48130543713 -16.3640533032 35.9319930318 153 157 160 
-3.60010111214 -14.5066645194 33.5116455289 240 244 247 
5.3511761294 -2.99852160678 39.3117612936 181 175 172 
-7.25554423167 0.418411890763 22.7796932724 162 162 164 
-9.32544925116 -5.96248526549 21.8064309251 145 155 157 
2.65520348063 -15.7682524952 38.6216269673 163 164 168 
5.17203990871 -7.22983234394 52.0787392012 51 50 66 
-10.151920498 -7.23741027142 20.7476089407 54 59 63 
-2.76821833636 -15.247068401 35.3284112938 243 245 244 
-7.63740973699 -0.0783166689383 22.7128437183 70 70 69 
-7.74546209093 -0.051980509761 23.001756248 70 70 69 
-11.4193220486 -5.47527459268 20.2958503978 50 55 61 
-16.2218109822 -21.1439838992 52.5310264573 218 221 228 
-11.3802468866 -5.89238079572 20.2373382254 76 81 87 
-8.72995845827 -8.45257547648 18.1250810693 191 203 186 
-12.3693362101 -6.2763829848 19.5635596615 77 85 70 
-12.8505417339 1.99772352326 14.1810139957 224 224 221 
-10.7012315332 -5.55147768159 28.3420092253 125 125 127 
-13.5549679486 -4.15779658177 20.53441833 86 89 80 
-8.15865700917 -5.85857936105 23.2660612334 71 76 79 
-6.0659911798 -1.09952182236 24.8539448769 54 53 51 
-10.9930794367 1.78866908523 20.0339931239 190 180 172 
-12.6235942855 2.63644219859 14.0173149627 80 77 48 
-11.9622969466 0.253142858102 22.0366125735 95 95 88 
-13.3286838822 -4.84491000201 19.9445981822 108 113 105 
-10.3229286101 1.01441824723 20.9505227737 179 166 156 
-13.053991844 -3.20031362909 36.7650479844 90 83 74 
-10.9198866943 1.56706071863 20.5978564475 104 99 72 
-12.6677677207 0.0614650715332 21.5135917629 111 113 101 
-16.3422220152 -6.34596892641 55.5077963304 94 94 96 
-13.6460968764 1.88847963689 19.9786120717 57 49 37 
-12.8043457591 2.46398700349 14.1320408661 88 84 33 
-25.7362819854 -1.75144035599 44.1296891924 230 216 209 
-16.0450902045 -5.2432899844 54.5274985118 246 245 244 
7.39291874934 -0.639396763248 8.26638846435 41 50 29 
7.03902135451 -7.18497862182 49.9312007695 158 154 168 
-1.03108755332 -1.11168384147 28.4859863149 79 78 82 
6.64545203529 -5.89681936517 48.5496894624 131 130 138 
6.90720981706 -7.18284391114 50.4345038975 51 54 71 
4.30038778029 -3.07912564147 39.114004275 59 58 64 
6.92169860782 -6.94962224702 50.1081536254 165 167 178 
4.88904190693 -5.24441147848 46.4837945144 201 200 205 
-9.69866275454 -5.42162960471 30.8069326812 48 58 54 
-0.958469160685 -11.6950799859 31.9973027894 100 110 119 
-13.2560383426 -2.29293332334 36.7457914879 240 234 231 
-8.47627194476 1.68444741872 20.2120523021 67 56 62 
-9.69765718275 -7.3266404085 19.4016229139 177 184 175 
-9.08603994131 -7.92434911016 18.3353628711 91 101 93 
-14.6243475745 -5.29343751978 20.0691505222 126 131 124 
-16.3583729649 -8.2890240914 20.5903901668 93 97 81 
-9.78222052274 1.17923012518 20.8470372521 147 137 133 
-15.0259802852 -4.87819066097 55.3038472001 118 113 110 
-20.960367591 0.504242497758 25.8576591156 81 73 65 
-15.241181897 -4.77715720634 55.3368328591 230 225 222 
-12.9777831797 2.52723526397 14.230510055 232 229 160 
-14.0510738275 -4.91025407771 20.0667305571 130 136 124 
-14.810835072 -5.35498255088 20.3228996312 128 133 125 
-16.3781807888 -2.08061079914 42.0896467108 222 221 217 
-14.2864455481 -5.04208721173 56.2740429555 234 223 223 
-12.6781174367 -3.90522402205 25.664719002 152 152 162 
-12.9061211474 -2.39502487678 26.0501482366 189 188 193 
-13.7502214976 -4.9140019217 20.1167954303 142 146 142 
-11.1366049474 1.86552953134 19.3320291856 208 201 193 
-16.4526548943 -4.99818328058 20.1695016675 107 115 94 
1.76009450666 -13.6931511047 36.8547049564 226 229 238 
-2.98394304032 -0.640984570737 26.4994068355 67 65 67 
-13.1482949343 2.65173532119 14.2628982942 217 216 161 
-0.5245516899 -13.5128820868 30.8853276415 173 175 174 
1.76064780979 -14.7535852645 38.2134747854 133 138 146 
-2.01213435479 -14.9791303932 34.1128528796 151 153 152 
7.09457195806 -6.56785419409 49.9959977078 169 167 172 
-9.96552508487 0.873175610765 20.6120258994 76 70 69 
4.93279254138 -7.28030919403 51.8231992787 189 188 201 
-6.58822637895 0.0629601166824 24.3371245511 197 195 196 
6.28689295804 -7.14182027292 48.6312609299 50 52 72 
-13.1332234264 1.27006712606 20.6680632964 120 112 102 
-12.1652289654 -5.45017739193 19.8819660303 127 133 126 
-9.12419353425 -8.14920301059 18.209696105 176 186 178 
2.85695810867 -15.8324332848 38.0567598323 184 185 189 
-12.5103243803 0.847950484616 21.546271115 55 56 45 
-7.66803039546 -8.22054405697 22.6897837458 77 88 82 
-11.7936194796 -3.35493971285 36.7829260813 57 46 37 
-11.7936194796 -3.35493971285 36.7829260813 57 46 37 
-9.70572764268 1.48721205396 20.9855700793 142 133 127 
2.84818672338 -15.8545351141 38.8078728819 237 238 242 
-10.1466857484 -7.22907550389 20.7494769081 62 73 70 
-10.2523720232 -5.74535384675 60.6133655831 125 117 116 
-11.3148626698 -6.65968495985 19.380236939 159 167 152 
-12.4688349779 -1.73802843853 25.3035595453 134 133 138 
-16.3409992294 -4.41093711557 54.0923623238 244 235 238 
-13.1347507115 -5.14687293368 56.4286412485 180 166 155 
-13.0768914003 -3.4637896783 37.8024982724 195 186 183 
-12.2058335831 0.17143317479 22.2842730792 223 223 212 
-7.91879215304 1.34073485085 19.5098204955 54 43 49 
-13.100155899 -1.92684619438 37.8209769684 216 207 204 
-11.1964499056 2.1332828178 15.5677737382 82 76 80 
-12.4205516047 0.852091547177 21.1798812423 120 120 111 
-15.026870579 -5.36448097171 20.1841072845 91 99 88 
-27.7690726678 -2.5146846148 44.9404889558 188 179 167 
-8.40546339122 1.77436266561 20.2422372225 153 148 153 
-7.54208020748 -8.39077422158 22.0838431533 165 175 167 
-3.26231339337 0.0342185053855 26.0795783042 216 216 221 
4.70821015254 -5.91012960485 48.5602071693 226 225 236 
-7.13555599865 -8.66963511506 20.8652701908 101 111 103 
4.02776786406 -2.65514450419 38.8992525505 50 44 46 
-11.6788319754 -6.08306351555 19.4907981997 157 164 149 
1.1374675556 -13.3970995416 36.9412626137 113 118 135 
-14.6492901886 2.87579391469 14.8822390413 200 194 180 
4.41921218639 -4.53330149166 45.3056568277 148 155 123 
-9.3357370997 -7.30131833143 20.823864488 76 83 76 
3.57781026824 -4.65062146767 41.6909805625 171 163 163 
-18.0511740741 -4.83053283984 15.7321952933 110 99 97 
-8.70359103629 1.23338640436 20.0421832376 112 96 105 
-11.8897802725 -6.06366773184 19.8366026673 139 144 136 
-12.8851729561 -1.77122308083 25.9923022858 52 51 56 
-11.7040683831 -5.93022675833 19.660699171 72 78 78 
-13.6671239471 -5.02887158262 19.9803080455 67 72 65 
-9.19235203575 -6.6828165511 62.9951459697 96 84 85 
-15.0484987199 -5.16729347354 20.3672676213 142 147 137 
-13.5269992736 -6.32539862828 57.2141941024 196 181 176 
-15.0861122429 -5.2335375197 20.321750323 89 95 85 
-10.7197068385 -5.99638400035 59.8345927053 244 236 236 
-13.1366670958 -2.31130656919 36.3491736783 238 229 224 
-4.76935427839 -1.07543433234 27.4909332487 171 170 165 
-11.8693223605 -8.0178023212 59.1083739173 140 125 124 
-25.0504163398 -3.52676934957 43.9466049195 100 101 105 
-14.4154343617 -5.29602109308 55.9786690882 244 236 234 
-12.1437155801 -6.22187082276 58.5857061131 157 142 140 
-12.2424100572 2.5643015746 14.2193275393 86 86 83 
-13.1795110976 2.79547674781 14.507237659 70 64 43 
-13.4751793511 -7.06151926435 57.298039312 185 175 166 
-12.863110624 -5.48574503175 57.4832580562 223 210 194 
-24.8452697249 -1.91917428875 43.5364863537 159 155 152 
-9.19237359587 0.475812699454 22.7157263377 190 187 178 
-3.73401418737 -7.58431613459 31.5563619697 62 69 75 
-13.2488649402 -3.96927994838 20.2376538644 160 163 155 
-9.21803255081 -7.20005430333 22.5224266361 106 116 118 
-7.32487988318 -8.31043223878 20.4456330757 174 186 173 
-7.44919628882 1.34385919798 21.5142670863 176 176 180 
-8.63103124769 0.560637178671 22.3592335514 135 126 128 
-7.98261395877 1.27082110866 19.4186323154 199 199 201 
-13.4240996523 -4.73620389837 20.2214821385 67 70 75 
-12.4803799139 -5.81903474313 20.2173492167 90 95 98 
-15.2213535802 -5.45782733736 20.3011257441 92 95 87 
-11.9537205284 -2.24162920758 37.6733000179 234 232 227 
-12.922045682 -0.0198396240004 22.3308806124 215 217 207 
-14.2048770248 -5.06695718805 20.1645040877 76 81 72 
-15.2062776833 -4.3274287444 54.7469426139 228 226 227 
-14.0285377594 1.06498870912 19.9021297938 116 112 94 
-10.8029527447 -6.21846086238 19.5254943007 101 109 106 
4.89302734481 1.26442702101 11.3426066563 156 156 158 
-12.8205645068 -7.68914360499 60.4611802544 145 138 151 
-7.75652328343 -0.271087919286 23.0828083528 113 112 110 
1.70505097037 -15.838995317 35.6520293786 162 163 167 
-0.812571991452 -14.1219650778 31.9508529231 169 171 170 
1.399014445 -15.6724653683 35.340168621 139 139 147 
-0.330996951832 -14.5732870831 32.3788170765 178 180 179 
-0.335908429012 -14.5934695964 32.4335944691 178 180 179 
-0.414171805822 -14.3092146676 32.581196861 161 163 162 
2.89050940808 -14.4104426021 37.3026200319 174 175 179 
-7.24425550515 -10.8506795333 26.3196715956 150 154 157 
-4.06186004597 -1.28675156289 27.2553999782 122 121 117 
-6.09661930044 -0.0785331648339 22.8018129295 48 44 45 
-7.17203325375 -0.211973984144 23.352356285 245 244 242 
3.19370191564 -4.52307648243 42.4115472986 146 142 136 
6.82679605136 -7.93816883867 49.7812435547 180 183 201 
6.91649646842 -7.17494499864 50.3229355241 53 56 69 
1.17761289447 -15.1059580588 35.88463008 241 242 247 
4.52859216579 -5.08678685105 46.6027211133 57 57 63 
2.57767734446 -14.5462747611 37.4297172941 147 147 149 
1.28987874391 -2.63881597334 35.9825413511 66 67 60 
0.868756746205 -14.2802155729 36.137256242 231 237 242 
0.909087329692 -14.0087385236 35.3717415144 231 237 242 
-9.37843967319 -6.65584883504 20.9032836055 67 74 67 
0.747777329373 -14.658356118 36.1842332448 147 153 156 
6.88654943092 -6.79632396318 50.1189426504 160 163 170 
1.17606494699 -13.8283061519 34.6541302014 230 233 240 
-8.14408607002 -8.61018376199 23.8270795815 76 86 79 
2.66057365195 -4.89558851004 42.0335738027 104 99 89 
1.09036488227 -2.10122680791 36.5280933191 62 60 61 
4.31157170552 -4.96388799443 46.3992180309 150 150 149 
-3.2824607222 -7.93057612414 31.6401041164 107 116 123 
2.45446483912 -15.7161749124 38.6809450635 217 218 222 
-11.721368735 -6.19815892278 19.5779827178 76 84 69 
2.39978540756 -15.4079260494 38.2659526839 228 229 233 
-7.9255613873 -6.01627936949 23.2246368748 143 148 151 
-11.8501648682 -7.51588953495 18.6446803106 85 92 86 
-4.23841843754 -7.96683268819 31.4312636824 71 81 81 
2.45761283784 -15.2797217812 38.6742008398 235 236 240 
1.32932977359 -14.2591066587 37.0220554859 140 145 151 
-8.23743173499 0.0769187824866 21.7492045375 77 76 74 
-7.64676732061 -7.53413478072 21.0241319002 81 91 83 
-15.4931502228 -5.77410287758 54.930123954 195 194 192 
-10.9133478007 -7.07881376309 19.8023979296 126 135 118 
-9.32992057178 -5.15223078474 21.0322993531 161 172 158 
-8.48800664981 -7.77568757852 20.8742398475 123 133 125 
-14.1818073576 2.78474379313 14.7053623104 183 177 177 
-7.11744945334 0.603995417208 22.2251437458 234 231 239 
-12.6647402382 -3.90033178706 25.628163344 152 152 162 
-7.01038244539 0.369827077454 22.4283180189 34 32 37 
0.826676388022 -2.65656434233 35.2387689628 70 73 57 
-5.67379257519 -0.930675000792 25.0635601675 235 234 232 
-12.2095438987 -3.89234097088 37.3985584033 240 234 238 
-5.49896448326 -0.72776661089 24.1290967373 71 70 68 
-12.37919405 2.39366259667 13.9732509728 144 140 153 
-11.6243268766 -6.88563331392 19.5944581929 81 89 77 
-14.3355002259 1.50218396525 14.6232956205 213 214 206 
-11.9136024053 -0.0373672597272 22.7169338651 236 235 233 
-12.2136243955 -0.703097272024 25.698221764 122 120 123 
-15.4121814911 -5.33842187817 54.9280387738 166 162 162 
-4.07592932521 0.484043036234 24.9959528437 123 122 121 
-15.2581251182 -4.77983573354 55.3917137775 230 225 222 
-10.5195445781 -5.74422677557 60.2593710339 131 126 128 
-15.6435859312 -6.5891188492 56.2361613581 110 110 112 
-11.8505597687 -5.46242903603 58.0900456774 217 209 202 
-12.4976587146 -5.40797941078 58.4694822533 209 195 188 
-12.2535149055 -0.13790402028 21.3877002249 232 228 227 
-12.908593523 -3.19610952656 26.20831883 148 147 152 
-16.0840727517 -4.78378059406 54.2686500751 217 207 206 
-16.1028588662 -4.78598814103 54.333516545 217 207 206 
-11.614604233 2.70724228473 16.196157666 157 155 158 
-11.2374334 -5.85488939733 59.1890837864 251 242 240 
-16.0809727996 -5.01603494533 54.5849348821 164 156 152 
-16.0966680703 -4.56297330604 54.0272683354 157 147 148 
-12.2939969415 -7.40596222322 59.3418289487 87 76 88 
-11.9867722109 0.16649166167 21.892651574 223 223 212 
-5.28951654943 -0.736709523048 23.8614131612 58 57 55 
-11.332450117 -6.92428254545 58.870743496 188 173 167 
-11.2626581425 2.38102357676 15.7169331598 53 51 54 
-12.9817189339 -5.07079439084 19.6481469705 119 124 117 
-15.8454851968 -5.02614054647 54.9257795027 239 233 230 
-11.7125371271 -7.18432708054 59.1192125635 141 125 126 
-11.713998205 -7.16987244312 59.1425922087 141 125 126 
-15.8387378387 -4.78538885979 54.9895574459 242 235 232 
-12.2315901043 0.393182921162 22.3187167426 94 95 80 
-10.2912170324 -5.94697850515 60.101013111 133 120 124 
-10.8607920242 -5.71310158544 59.3677987183 244 243 241 
-16.1692512063 -4.96104251906 20.1652140785 123 132 111 
-26.273667958 -5.71195176747 43.0416677048 120 118 119 
-8.08732664352 -0.599602754543 22.2244766951 84 79 78 
-25.5587171357 -3.52341693015 43.1758195986 171 172 177 
-26.8029409061 -3.09854998338 42.7441198483 94 95 99 
-25.5482040345 -1.0509953858 43.4095321265 90 83 83 
-26.2265470907 -3.34783812585 43.8757814843 90 90 98 
-27.6989145744 -2.92279962613 42.114140698 83 87 94 
-17.4928732915 -5.24178058557 20.9962406783 155 158 141 
-25.9619851699 -1.98497588473 44.4524950262 169 155 147 
-15.5352937247 -4.71693664937 55.4565827152 154 152 155 
-12.6255142778 0.232684071907 21.2855769386 107 111 84 
-12.954046227 1.80994771689 14.0469765568 203 198 192 
-7.37453229721 -8.35182623003 20.7623201638 90 103 93 
-3.74102228711 0.445770338891 24.4669716502 119 118 118 
-3.18393931409 -8.00842604441 31.2835276675 73 80 86 
0.604992009336 -1.98242333673 35.7779536539 55 48 50 
-4.08428961422 -9.50499803848 30.0477982307 79 88 93 
-4.87175667382 -0.747659982749 25.2272521495 71 70 68 
-1.17638394946 -11.1772804232 32.3719599633 132 141 149 
-11.447046495 -6.06583999436 58.8762563757 144 131 125 
-11.9033577469 -6.11467665984 19.639567141 172 180 160 
-14.185520476 2.22565850205 14.4909550508 73 76 27 
-8.32506820986 0.795514439799 22.1215269746 200 189 186 
-6.05363967189 -1.09221150621 24.7789832027 54 53 51 
-3.40686326867 0.122324458759 26.2915538983 93 90 99 
-8.18622970025 1.65164137727 19.8807175357 57 52 58 
-5.80838338804 -0.865186167642 24.2248923712 217 215 216 
-4.23747955159 0.311531298873 25.0176648282 222 220 219 
-12.9689089297 -3.19165502223 37.0569055237 179 165 165 
-12.4241982977 1.46258971491 21.4453704969 130 118 99 
-9.51708404935 -6.56384830258 20.5312204181 81 92 87 
-8.96537857918 -6.1899830381 21.516185227 74 78 88 
-16.2202947032 -5.03111886252 20.4620309376 112 121 100 
-25.4807924116 -4.69021299351 44.6569511509 160 161 165 
-12.7646495019 2.92472317898 14.4160480479 221 216 219 
-8.33299504809 1.04136257714 22.1167833142 70 59 58 
-25.1904577221 -2.3928795879 46.9162242327 120 114 111 
-15.0989253544 -5.39670867555 20.3000610971 91 99 88 
-24.7909390335 -1.77620763581 43.1957566497 244 235 233 
-14.1361930448 2.80339232249 14.7613861672 72 63 64 
-25.5911282729 -3.26602606843 46.8698960428 160 160 162 
-14.1089223851 1.977880585 17.1467438006 91 80 72 
-12.6793794175 -4.84192585575 20.2004813353 85 90 84 
-24.5646459263 -1.55532391827 44.1585213623 233 234 229 
-25.0732223985 -1.74659958031 46.2939206415 240 241 236 
-25.2595934674 -2.59584985666 43.7183509928 248 243 236 
-25.2133016249 -2.58777190856 43.6290741317 248 243 236 
-24.7099766596 -2.20533310661 43.8625900545 150 151 146 
-25.7186691441 -4.69822311892 43.5863224351 181 182 186 
-17.8884008628 -4.46023869951 21.7166616031 83 89 75 
-14.2641928029 -5.19186170596 56.7169773257 153 145 142 
-15.8704505984 -4.85564232335 20.5946569751 97 104 91 
-12.8962461849 -4.25033074793 20.3628432295 147 149 144 
-12.1674717745 -5.1627651849 19.8227276474 140 148 137 
-13.8097316871 -4.94132356234 20.212282797 142 148 141 
-12.9099353074 -5.48716592919 57.5648024022 223 210 194 
-8.06007854939 0.175303687078 21.8882987701 212 209 218 
-13.0580362747 -5.33866224825 57.7414198604 178 168 155 
-13.0057966841 2.58661162628 14.1734341353 93 90 35 
-11.9920804702 1.63099317334 16.0845440006 64 62 67 
-14.6358563838 -6.11518082189 56.7408388803 159 155 159 
-14.650424861 -6.13363507972 56.7651130307 159 155 159 
-7.60170725286 -0.107295317877 21.2655900242 202 201 199 
-15.2646138827 -5.53136844563 55.1024296797 236 234 234 
-12.9291066055 1.56757231975 16.9022783377 64 60 59 
-13.8468790297 -4.7087574773 56.0049358536 240 236 229 
-13.8147793804 -4.68098303417 55.7622165055 240 236 229 
-14.1977311049 -5.28741791803 56.8093815498 147 137 133 
-14.8766046928 -5.08645470542 55.5487167997 147 145 148 
-12.5230409211 2.41144144916 13.892168024 218 218 174 
-6.14578176855 -0.817672933195 24.5101263328 72 71 69 
-7.76709704182 -6.20029131935 25.7633129105 99 104 107 
-4.79001726328 -0.505635329166 25.2807846 72 71 69 
-7.09830318291 -0.200388714558 23.1359627335 236 234 235 
-8.19151629163 -6.16663344174 25.1337732138 92 97 101 
-2.35216271916 0.0281892299456 26.0036077336 51 50 58 
-9.40561542995 -7.37810488193 22.6119517625 65 75 76 
-2.45933997968 -0.00286249455903 26.3964450217 110 109 117 
-10.1784918899 1.3908840259 21.1595462491 123 117 105 
-8.84035874548 -7.28167058976 22.2716036369 89 99 100 
-8.12540177922 1.37204646521 19.6833193441 207 207 209 
-9.5337402421 -5.9800568666 20.6583399693 80 86 84 
-8.79318941431 -6.37271400242 27.2724806771 76 80 85 
-5.63224197356 0.291058735807 23.9915536495 85 83 86 
-15.296259595 1.46664410328 18.0767869631 79 81 60 
-13.331740613 0.0873173919531 21.2635550577 234 235 226 
-14.3815931683 -4.85843293491 20.6013773344 91 93 90 
-13.9110284719 -4.43632266984 25.155702332 72 69 72 
-21.4411917765 -0.747622442625 33.1466963698 243 232 229 
-13.116305571 1.26641287389 20.6206767508 119 113 102 
-10.2726217236 0.793578671447 20.5906915562 75 69 70 
-12.9327043308 -3.45828593226 37.0244812071 105 96 102 
-13.2612630601 1.74118159757 19.5544338283 141 135 114 
-6.62979474335 1.12482958803 20.4514320845 90 87 96 
-11.4865212616 -3.55701401454 36.0751777406 111 109 111 
-6.84529525058 -0.876808937441 23.232202076 78 77 75 
-12.3537945477 -5.9916064166 19.8057590714 151 157 147 
-5.78869600012 0.957974315621 22.2433649632 219 217 220 
-4.79363691745 0.612361452821 22.8925246411 75 73 76 
-6.83818732922 0.525613592089 21.9854258963 72 70 76 
-5.00276164719 0.783710944753 22.72276996 90 88 91 
-6.00566445793 -0.506253496564 23.7121430732 51 49 47 
-12.2685112527 2.51115980038 13.8272507893 61 58 68 
-11.5198596855 -3.58505267264 36.1700972716 111 109 111 
-8.77307650503 1.60375128525 20.3003497101 105 102 98 
-12.923835827 2.31187469773 14.323414764 92 89 62 
-13.210639593 -4.3693347315 20.6896245487 93 97 90 
-11.2543442351 2.46325003865 15.6954283084 58 56 57 
-11.5559717524 -5.74768615694 19.9339831817 128 134 137 
-13.0360140373 -2.18442705742 37.1524528573 178 173 168 
-11.6248615538 -6.02848729999 19.6966073654 122 130 120 
-6.36644536092 -1.09978536475 24.3502152544 88 86 87 
-12.3547230301 -5.97213964238 19.4525577019 172 178 163 
-12.4165088399 -6.0063619071 19.5429519238 172 178 163 
-8.34094654307 1.18039248675 21.8512733982 69 64 66 
-7.95920666621 1.52332559112 19.5768619972 72 67 67 
-15.9756046421 -22.8821718776 52.5857559786 107 105 116 
-11.2510164756 1.8389603482 20.2132042681 207 199 186 
-13.0288010339 -4.17678730645 20.3680953153 142 145 135 
-12.957280574 1.96060671893 21.1509663858 197 184 176 
-15.698166482 -4.62226160846 21.1486219399 142 143 137 
-11.7725050267 -2.95882597201 36.5381523685 91 81 76 
-12.2689364814 -2.46873698478 37.1120895319 97 86 84 
-12.4515109224 -2.19053823094 37.0322949395 96 89 83 
-13.5359440839 -5.01457992275 20.0344061716 85 90 84 
-10.4943317241 1.10647602563 20.8577090403 70 58 55 
-14.8877544134 3.01415556476 14.5883819518 226 221 211 
-14.9666190224 3.02592997845 14.6843113245 226 221 211 
-8.12309094451 1.51859190905 19.7696631018 155 149 149 
-8.08432098451 0.179344303475 21.948368737 212 209 218 
-8.30446041814 -6.09433688116 21.3668970803 172 182 181 
-6.33797611741 -1.08928783335 24.2084560257 88 86 87 
-7.93056081035 -6.00809807648 23.2073440299 164 174 172 
-6.04082933304 -0.233192673381 23.3363449301 244 242 243 
-5.99775119881 -0.220191715942 23.1401524154 244 242 243 
-7.91779069257 1.43671291401 19.5644817785 69 68 65 
-6.44528851839 -0.482833987457 23.5728475409 92 90 90 
-6.33907150628 -0.799094582754 24.2868907882 223 222 221 
-13.2889823564 -7.02168936182 57.4640863084 147 138 131 
-8.09446722857 1.60925905165 19.6214291391 103 97 97 
-8.37095052474 1.06406832297 19.7071204309 170 166 158 
-23.394749215 0.0518330899995 33.7159570618 212 213 207 
-7.89925833718 -6.47357138416 26.1745788718 89 100 94 
-11.9192172186 2.08400683341 17.4085214212 195 185 172 
-10.6323423385 1.72967447981 19.958559994 194 184 179 
-9.70997427699 1.18147016739 20.6513888456 161 152 138 
-11.7382816976 2.29432018689 16.1211882412 188 186 189 
-7.87666719157 1.42760421177 19.4642332422 71 70 68 
-13.0385534204 0.110795938523 21.8143916684 233 235 227 
-13.513498484 -4.32032850615 20.7038199294 93 95 90 
-11.2837247996 2.55074398115 15.7024881335 62 60 61 
-11.2890057758 2.55094148854 15.715752557 62 60 61 
-12.1346886832 0.414610266655 22.6292733417 236 237 230 
-8.78258076934 0.675854497699 19.9225753354 88 77 88 
-7.89425603004 0.163524569443 21.7466936979 86 83 92 
-11.2672564619 2.27368433941 15.6917597672 81 79 80 
-7.71748555712 0.100507735391 21.5197785073 243 241 245 
-11.0671018886 1.7364332001 19.0168848125 113 109 99 
-8.46110765996 1.61145133032 20.2079870004 160 155 153 
-13.0513563055 1.11394560715 21.2669149588 97 87 75 
-12.0417278007 0.254588881273 22.1714006582 119 121 108 
-8.67833940805 -5.49096360341 21.3624293573 139 150 145 
-12.0752081197 -3.65181349487 25.6727830082 44 44 54 
-10.1093468707 0.827919735395 21.8006265442 77 75 78 
-14.5046458005 -5.26542790663 56.2265130813 237 232 229 
-13.4261389662 -6.86032519588 58.2697238174 229 221 227 
1.05933751048 -17.6347877917 35.5318157334 174 174 174 
-13.2170043676 -5.78130100906 58.7484504343 164 152 140 
-10.7308658393 -6.18618056385 21.6980979759 63 68 74 
-4.80145653382 -6.07571151614 60.5905234894 145 144 143 
-8.318817617 -0.606782784704 21.6446298969 73 72 70 
-14.9902169414 -22.140823726 54.0992877102 118 118 128 
-10.733925811 -7.16232780566 61.5497092928 73 62 60 
5.71579162082 -7.03516762864 51.8953573 161 160 169 
11.8928770209 -28.532655798 79.1977779092 221 222 226 
11.2630591448 -29.1929887485 83.4349901361 146 146 148 
-7.83575525263 -0.467155068274 23.0843097805 200 199 197 
1.04927414148 -16.1576297602 35.4787654795 230 234 237 
17.7710302708 -11.0799069212 73.4142876526 88 88 89 
-7.01964110926 -0.294172803193 23.2377612159 67 68 64 
17.6587161777 -11.7951171861 74.2271024894 101 99 102 
-3.93608345934 -7.59953667021 31.2204807273 90 100 100 
4.01459269778 -5.26948209768 46.6955588988 160 153 159 
6.87471014329 -6.79226174066 50.0921179617 169 168 179 
-3.84675462145 -1.10243864922 27.16393664 80 83 84 
-8.87131323105 -8.17187010398 18.2848307697 113 124 110 
-0.846404485121 -11.3259567091 33.5951416972 122 132 141 
1.50251051148 -15.6527514325 35.813448803 230 234 237 
1.24802599364 -17.1773428715 35.2091265449 245 245 245 
0.966880620561 -17.3956638959 35.597802937 159 159 159 
1.04437625162 -17.6682978081 35.6251513815 174 174 174 
-12.9602988039 -6.48604008126 19.4150072595 146 155 138 
17.5193877972 -11.1776943281 73.1747054921 227 227 230 
-12.9770412137 0.445320091101 21.6101175755 61 65 43 
-14.924395142 -5.54935317077 55.7369827668 169 166 168 
-12.410663508 -0.16867544892 25.8061355049 48 46 49 
-13.8350598175 -23.6993203791 55.4367899482 103 104 110 
-12.3934666515 -7.10010069788 59.167121347 219 219 225 
-7.98405652038 -6.01893629778 23.5952932468 65 71 68 
15.7475778854 -27.8172092993 79.428758365 127 135 146 
-9.29834347074 -7.29787891361 19.7416990346 145 153 137 
-9.15044243115 -7.21939092122 19.457707057 145 153 137 
-5.56112577061 -0.714391760198 25.6403881589 152 150 151 
-7.42901556867 -8.02928691116 23.1023705487 140 146 144 
-3.51115284005 -7.8459197147 31.4287342078 60 68 75 
0.615659698513 -15.7140484396 35.9772057996 221 222 226 
0.58677416676 -16.8213034392 35.9336797111 138 139 143 
-11.904281398 -2.70610694579 37.1263457833 223 214 217 
12.8845395858 -25.1292284383 79.4162439638 95 103 111 
14.6726936586 -9.82748713743 73.5676235175 93 86 99 
-0.624250345361 -11.9996460362 33.7754046011 113 122 130 
8.66826122673 -7.98860936127 51.8853820047 49 51 62 
1.34513049051 -16.9075572573 36.3768911724 149 150 154 
1.12658590843 -15.1532795285 35.9606825036 237 238 242 
0.101286593958 -16.3810992122 36.6284345642 240 241 244 
2.29680674307 -15.8191007749 38.8009434645 150 151 155 
1.34589057035 -16.1630374753 35.0815677185 240 241 245 
-12.1175974912 0.0281197173785 21.9421461729 117 119 105 
-9.08933751052 -8.64735608857 71.9089821198 163 151 153 
-14.3816142822 -22.5885294438 53.7803309595 213 215 224 
-11.2714924894 -7.73379640993 18.5354628453 138 145 139 
-2.95280912919 -14.192584951 32.3456835774 140 141 145 
-3.20210000852 -9.89706736392 30.1167340391 91 101 101 
2.22786019674 -14.8788590737 38.7029818941 218 219 223 
-13.0214349367 -7.22760005138 58.7670068627 86 84 97 
-12.7777723596 -7.67036945642 60.2910491466 125 123 134 
-3.64394797919 -1.78998282103 27.8479373491 49 48 48 
-7.65285305953 -10.6688620086 26.3192997052 96 99 92 
-17.5283299752 -22.2051857696 50.6104159527 167 170 173 
-8.44015788713 -0.111052528925 21.9561595223 236 235 233 
-17.2381783705 -21.6838296583 51.3094983588 214 217 226 
-15.4675246897 -22.4669060872 53.1244817075 214 214 222 
-15.2289429732 -22.3694365854 53.890156608 208 208 218 
-15.6540147872 -21.7026104163 52.9959216116 200 200 210 
-11.3860326981 -6.37222083272 19.1599914482 143 151 136 
-15.2198369863 -7.16686261901 56.3252966289 173 170 173 
-15.8615987215 -21.8097964285 52.7942967166 122 122 132 
-16.2197424012 -7.27866066699 55.9550992863 160 154 158 
-17.3712276231 -22.4036339421 50.7288914569 94 98 101 
-15.7518562516 -22.0941466848 52.9775748079 215 215 225 
-2.72328347811 -10.3774133395 30.1145021946 133 143 143 
-17.4918762754 -21.5679307607 50.9172471668 213 216 225 
-7.57878698961 -8.00847863214 20.2940990678 80 87 80 
-14.8841300906 -22.4896630265 54.2611248887 219 219 229 
-15.2201443889 -23.4303079116 53.3528558702 230 227 237 
9.00942253141 -1.05924114197 6.78581971144 54 64 28 
-14.2294407199 -25.9538207224 53.3800026985 224 222 235 
-15.0201783788 -22.1742008324 54.0717225376 118 118 128 
-16.8254424861 -21.8676742207 50.9527461039 216 219 225 
-17.2251281161 -21.3177180676 50.9900880169 114 117 126 
-17.3817371746 -21.080856509 50.8088254983 200 203 211 
-16.4533054897 -22.3386479563 53.5865764143 212 213 222 
-3.79247564587 -10.3866269677 30.237913768 94 100 98 
-15.1001552711 -5.43130084884 55.3087962179 161 162 166 
-13.2707671205 -7.49591583552 58.4424232055 136 129 144 
-6.89349927691 0.0845439731474 22.0321143768 217 217 219 
-15.1239021107 -23.2051439481 53.6992932736 106 104 109 
-14.5040150975 -26.2573292999 52.6855790461 168 164 169 
-14.5983320291 -25.5078850494 53.4571562951 106 105 119 
-15.3349939442 -26.029283069 52.7465674995 157 148 155 
-16.8801140906 -21.8987647728 51.0561261632 210 213 218 
-14.0121115763 -26.3415647976 53.7167344071 170 169 177 
-16.4277974561 -5.06834323351 54.0364034137 239 230 230 
-14.3962002192 -22.3351281992 54.9626211818 117 120 130 
-16.5119388886 -22.3725902031 52.750008085 213 216 221 
-11.9382201419 -1.85569188136 36.9061293937 221 216 217 
-7.36848666554 0.0276823580702 22.0567254713 214 212 215 
-17.1440277863 -21.2013305427 51.29364486 198 201 208 
-18.1697601959 -21.0272148655 50.2949221503 99 102 110 
-15.4228655077 -4.71552972633 55.1981381998 125 125 127 
-20.343998849 -2.75667636815 46.4315839834 238 228 226 
-21.0807520693 -2.53230440675 47.104760345 173 167 164 
-21.0445088853 -2.82225475892 47.8296699082 245 238 230 
-15.1503397157 -23.7805778169 53.6001494896 161 157 162 
