-129.2908699561167 1.207685266344873 -135.32788364451974 74 74 66 
-136.14257757730357 -1.3642611707527124 -135.50616155603572 98 95 99 
-136.06559274556304 -1.326187219877884 -135.45764596374002 98 95 99 
-136.73355047927296 -4.974971663523565 -136.2587292785528 63 63 67 
-128.6030941116165 -9.51052279769549 -131.80854399425505 107 114 98 
-177.92477559303748 -0.3331595136255583 -147.0344807067342 140 133 132 
-118.06457672102911 2.0049448870429334 -133.63047567535122 100 99 104 
-160.78862470348085 -14.946300432073514 -112.69472282254517 231 235 238 
-129.21356711762297 2.0928050199916104 -134.07605871523447 114 101 86 
-129.6724975562845 -7.590134217082458 -135.78100596501483 75 76 80 
-121.01121711019084 1.8638511854507236 -134.8666338677101 155 147 133 
-136.1084165401529 -5.412157234729495 -136.51794558999427 67 66 75 
-124.50179550085784 2.1872217825710116 -133.0872465478609 204 194 186 
-143.23054264945688 -7.824612499327841 -128.44441683963845 90 96 92 
-130.01939131252166 -9.066600836422218 -140.59670075588454 119 125 105 
-136.38820809663855 -3.8575425278477304 -134.00902174564766 70 70 78 
-128.82071738731153 -8.170911964470616 -136.62876871984182 84 84 86 
-126.17113754664557 0.03369880536251024 -138.7223635543518 103 110 91 
-127.26448296118083 2.084019676872895 -129.15802888154485 88 78 86 
-119.0941333079107 1.2870036468290085 -137.8606229983675 81 88 62 
-187.12208882525127 0.3606410007105545 -138.9408816146332 170 159 159 
-127.35057609742887 1.9320261153511264 -135.51311114784298 80 73 66 
-130.45115179782908 2.0835003754032133 -128.15629372503435 217 213 224 
-124.01558593447079 1.5917216261064056 -136.7070789105714 94 86 78 
-127.96951855359197 -0.3993335526902726 -134.33132174527512 233 234 229 
-128.46081079713346 1.274745419494426 -131.31782052114988 51 51 49 
-184.9296400327133 1.9865325084292493 -140.98509126925177 207 206 204 
-184.42332604913307 1.9692155701151606 -141.46979372348494 207 206 204 
-127.89556870272983 1.9634386205426981 -135.27501842818842 78 69 61 
-141.45161825376402 -5.0186396382515035 -134.13707293342955 62 63 67 
-178.66196410444948 0.12880182612457958 -145.13940263715483 232 227 225 
-182.5131031793717 -2.459753814528847 -144.13912860852443 176 172 177 
-137.91972998598297 -6.477506105028283 -127.17003374733763 93 96 103 
-119.57904001325146 -0.4845940533982862 -137.79224777625416 81 83 72 
-161.16144938520722 -5.823595999640368 -159.06364270960543 135 135 143 
-153.52863391185784 -0.3945600921225818 -137.97041373666778 236 226 219 
-131.90752609404768 -7.281771572292925 -128.0773552014827 119 131 119 
-132.03785638064164 -7.928378568629153 -127.61515599558086 88 97 101 
-160.13553476341738 -1.4957323768305173 -157.847195280686 169 155 147 
-128.44793474062004 -8.05239506915547 -133.0191165975139 87 95 80 
-128.7678199741586 -8.600137731053358 -135.91524758483112 88 95 85 
-118.29125787989338 0.4177060188540267 -136.43297965587058 68 67 69 
-118.55970836750636 0.5539211260331296 -136.17799867057758 233 244 82 
-118.31783960930618 0.5310039892947369 -135.90785029531364 233 244 82 
-128.89591669640492 0.022351547153672158 -135.74585066405564 112 116 87 
-146.21795424386778 -0.3003886411639378 -152.94525711378256 230 227 222 
-118.19510149162247 1.4135315572760572 -135.33608471032736 243 245 173 
-117.99944564197158 1.3873095225435677 -135.12285140317383 243 245 173 
-118.19296300598593 2.0240863001248144 -136.00066205409016 70 64 63 
-128.2800333854291 -9.67570486127618 -132.70934507340638 103 109 99 
-158.00904593074495 -6.850283141795359 -160.32805565660613 91 92 96 
-128.51571528244355 -7.163885750560411 -135.4563722212025 71 73 72 
-159.50181202123045 -1.98603220632363 -157.76440654435305 179 166 157 
-117.96333033675702 1.6483528041573035 -133.2481621104083 91 88 86 
-152.41633017034718 0.16402863567425996 -138.35305427878467 123 116 115 
-130.99238471504177 -8.099348003318525 -140.34124189855896 79 82 73 
-128.6476903062055 -9.277392268874845 -131.94494808077633 158 164 147 
-128.11725625952954 -7.845831913095406 -132.4361133406476 132 140 130 
-128.34049534547603 1.7864286680578498 -134.06391837394338 95 85 68 
-124.41753109340652 1.4972156725998715 -137.99839734858554 69 59 49 
-118.26418008757844 0.30156071359868797 -135.851105351692 231 241 78 
-118.26418008757844 0.30156071359868797 -135.851105351692 231 241 78 
-129.75318599821432 0.09490114017770246 -135.83964011396463 130 135 105 
-119.33349780031637 -7.64866973975391 -137.95046867464924 122 111 109 
-118.13430269000287 1.1062479733049688 -134.05116188651502 79 75 73 
-121.06078571013839 1.5247842381195014 -132.8859847111713 196 194 198 
-120.90676143929615 1.4899355889149692 -132.748824468953 196 194 198 
-118.0825227041869 1.546071744898045 -134.66520665987227 77 70 67 
-128.33803081131936 -8.546230784341855 -138.65552991668898 85 94 73 
-128.3675287405067 -8.558647106098519 -138.68831384174564 85 94 73 
-121.51465317560769 0.38170898879934967 -133.38732500056946 53 53 61 
-123.39727052720728 -8.774862003041143 -140.99458442243625 121 109 107 
-110.98347360807128 2.2144228554529555 -99.67378796153153 31 40 22 
-129.04626476617793 -8.681731164787305 -132.89446095388854 86 91 86 
-128.8882166362037 -8.64082454617364 -132.79028173517722 86 91 86 
-118.46080214407682 0.023959925441580765 -135.99812020517564 59 57 49 
-128.2325275128947 -10.37047822018172 -133.24544658876738 126 132 118 
-156.5002200142067 -15.862544840960702 -113.08290149811279 237 241 244 
-118.01379894618556 2.2715280395392483 -133.45434560756405 69 66 69 
-154.46234926033895 -15.697848588834201 -118.21916873581308 233 233 235 
-155.29755312564467 -16.51205829206984 -112.37466357009973 239 240 242 
-160.81535169795882 -13.38709039083033 -112.70262828199817 152 153 157 
-128.40596886562724 -9.128912587810657 -132.12455956513008 88 93 84 
-156.73581892727577 -17.63572987575706 -114.01234665982595 156 156 159 
-156.8608795010131 -17.41632352011985 -113.00466941153195 240 242 241 
-158.1401908980028 -17.65585650174223 -114.31659165909649 141 146 149 
-157.24089134853924 -16.880755057640098 -114.01885379965117 177 181 184 
-170.32666946482027 2.8793888776621994 -113.6837586240084 221 222 226 
-118.29163533449662 2.058110714988203 -133.50240192962875 71 71 71 
-152.41735536681932 -0.3528055575760849 -138.27268371718472 124 119 111 
-160.5784166522355 -14.966177474825493 -112.40587080186226 188 189 193 
-161.44904030723964 -14.291587689548198 -112.65706797625097 184 187 192 
-140.71848396220568 -12.921525674551955 -125.87094301898189 105 111 107 
-166.8668019878001 0.748742295318479 -150.57640794948935 221 220 215 
-151.35078372606546 -15.034732020918213 -116.02520827701461 238 238 240 
-128.08919680427908 -9.493603540285498 -131.93397280739023 116 123 107 
-138.84734259611767 1.1877982514599132 -123.42743004057662 237 236 234 
-132.5982932079551 2.056055722693948 -125.22950133235786 67 67 69 
-157.4574156254127 -14.761412494962904 -113.39390920075249 235 238 241 
-140.31786975771587 -13.329219431877544 -125.54133401896095 190 196 194 
-130.55633520198873 0.9392993200644195 -128.3067867806266 60 59 57 
-131.46786212045257 0.374990808728489 -128.29447483084562 37 36 34 
-131.7768608462445 1.1586702060520828 -127.77209944885566 225 224 222 
-131.67747174108501 0.8027126024775182 -128.41153594131262 206 205 203 
-118.52127418926149 2.3680257686108312 -134.29806137316777 79 74 78 
-118.4772912477431 0.9032519672931762 -136.162042301177 92 90 55 
-127.6664064636061 -9.478555074855407 -132.56338547899648 141 149 135 
-133.36214525094468 -10.778172113029552 -125.87520549169962 145 155 147 
-129.14336719967434 -15.064492162940596 -137.71111627088834 82 89 82 
-128.70433711276985 1.7669585824551959 -131.10619678569537 73 69 68 
-133.12321808787598 -10.577520208940893 -125.78102844693449 80 90 82 
-129.6578630784732 1.2176465850020026 -134.931075151353 109 109 94 
-133.250808314074 -10.761738063889492 -125.81318277291025 146 156 148 
-128.60577620033166 0.7325881064517503 -134.7086876285466 52 53 39 
-186.49538417566924 0.8855716216028835 -139.82218627229122 188 182 172 
-158.95272395533937 -5.961923259053108 -160.16527296691353 185 186 190 
-186.79467422163742 -0.36089792908107476 -138.39964803141208 179 165 159 
-153.11884090848469 -16.531170691460474 -121.18356323516872 246 248 252 
-129.80686705054632 -8.86072961978282 -129.67005792636687 64 69 75 
-186.9128074181358 -2.242038603983424 -138.35056089990167 182 170 159 
-153.45519257143786 0.5925906623236727 -137.4292383397951 233 224 224 
-182.32500544112872 -2.1680672322355754 -143.79690426725998 96 97 99 
-159.26495159890908 -5.998555150847128 -160.4227019958344 185 186 190 
-128.24860563151148 -7.884457398402816 -133.8659315556097 80 85 79 
-128.07189730197183 -9.632548573279152 -132.54655048985828 101 108 92 
-129.18970208845246 -8.539063654240753 -137.0093428663312 81 84 77 
-127.84783980078552 1.3464776806860606 -136.02415814831863 69 64 52 
-113.05119681508765 1.607924450943564 -102.29916458955908 42 50 27 
-128.6647505197442 -8.098382748983362 -132.53366354253075 91 98 89 
-118.62963716765334 4.1243851134427025 -103.25853886537224 193 187 190 
-165.49316115531522 -0.057181231398759635 -159.05707315996298 92 93 88 
-148.22887287903382 0.1371950529907746 -156.34782126739427 234 235 230 
-158.27889258019894 -4.06182538258998 -160.43230577829527 173 174 182 
-135.1335828997488 -0.09358883678500973 -135.15939450813826 144 143 141 
-181.41977395630227 1.5260949825456507 -142.82165215633657 242 240 241 
-117.73044510083841 1.6549215283903393 -133.71593045143265 222 226 171 
-117.76441548963449 1.6604923852086042 -133.7515120577997 222 226 171 
-148.41809687014356 -6.142557424993548 -122.5539730871375 86 95 101 
-161.05005598235192 -15.067266031176217 -112.46825173115217 188 189 193 
-125.57826726604625 -0.6031036505467267 -142.4410834164085 223 224 216 
-156.72294485477212 -15.672641221832034 -113.06550887042908 157 161 164 
-153.780622739915 -15.471585161938055 -118.42751267057817 163 162 166 
-131.99758942501407 -7.9339262199507665 -128.73919755135398 86 97 90 
-147.7766178104514 -8.789026009535334 -122.62679785781695 120 130 130 
-138.53756517298157 2.7872832479575127 -122.81328098502696 225 228 237 
-156.366774167492 -13.892560653678313 -114.34403605240595 218 224 227 
-149.66536526587706 -15.981886700427939 -118.95326384966279 165 165 171 
-135.48611549504318 -1.0153184198412877 -134.89804710952276 80 78 82 
-147.4444439779506 -10.849501198601239 -119.72077259863676 100 110 112 
-157.20603837326138 -16.426031400323176 -113.29471764691301 153 157 160 
-152.32801189989442 -15.765093049417072 -120.6277768030048 240 244 247 
-159.16249265181733 4.767153068147756 -111.77163258388114 181 175 172 
-132.05667065855727 2.212145993824519 -127.4077911943838 162 162 164 
-132.0174609707193 -7.818737370580784 -128.59523065599822 145 155 157 
-161.1574733748864 -14.598326661616657 -112.31602069772593 163 164 168 
-178.86244605527696 1.6099635039314713 -113.6993608203786 51 50 66 
-130.68202628631138 -10.144094833683113 -129.2471448487729 54 59 63 
-155.31255522060403 -16.169131083803222 -119.62150998026574 243 245 244 
-132.02957017525392 1.370340554674188 -127.8228368371802 70 70 69 
-132.4249250005476 1.4454326925384855 -128.04838921853636 70 70 69 
-129.33541138390717 -8.068587864812319 -131.43670397753448 50 55 61 
-179.69341911970568 -24.478553688792502 -141.36546978225766 218 221 228 
-129.36953633764 -8.673286194281875 -131.26206388457808 76 81 87 
-127.43115835054346 -12.108766860917036 -126.31232881889196 191 203 186 
-128.3265352936537 -9.668486690664324 -132.45773763562562 77 85 70 
-118.17323279028243 0.872280948273433 -134.09279927412746 224 224 221 
-141.19008261023612 -6.08160669442303 -132.09845252212884 125 125 127 
-128.9683301391258 -6.720582880102658 -134.92337424294405 86 89 80 
-134.3100314617501 -6.992333269499209 -127.23905224013771 71 76 79 
-135.68624267888538 0.8484171523731323 -125.74070484554939 54 53 51 
-127.06210680541034 2.4771792201411564 -132.59562256699434 190 180 172 
-117.80033032678907 1.8206009517799817 -133.88928114435285 80 77 48 
-130.2300255233009 0.4547187892429818 -134.0451912263781 95 95 88 
-128.33336801543302 -7.786506009518408 -134.2946981599062 108 113 105 
-128.7181040532506 1.76642119334063 -131.62286572189694 179 166 156 
-152.42212412253326 -1.3790293064610868 -137.91553129012 90 83 74 
-127.95516332742069 2.310768756631031 -132.55415666859486 104 99 72 
-129.40208477719165 -0.1464157732757574 -134.90967334718562 111 113 101 
-180.00660121909482 -2.4518452048907413 -145.91518368491543 94 94 96 
-126.5094671416875 1.850596760168731 -136.46349178717747 57 49 37 
-117.98364624477037 1.5470166964130705 -134.13292931438463 88 84 33 
-160.62451125708674 -1.1776537522226018 -158.28557846046368 230 216 209 
-178.33124777386448 -1.0057572600908422 -145.55185904656827 246 245 244 
-113.6713505447984 1.4558885444793255 -102.74790941451714 41 50 29 
-176.03711030333795 1.7029203245530056 -110.5379570606902 158 154 168 
-141.8216523177621 3.1227200376943713 -119.20083892474072 79 78 82 
-173.61166744913322 3.125165872288232 -111.1390005943054 131 130 138 
-176.74713202742328 1.7867024023220033 -110.83786140449682 51 54 71 
-158.72012020118012 4.304220706685763 -113.23557482256149 59 58 64 
-176.21141647332226 2.050763589894583 -110.80576778547149 165 167 178 
-170.13314204114897 3.07957901766574 -113.41289105164381 201 200 205 
-144.91160029302284 -5.028276082085281 -131.20285793274212 48 58 54 
-149.80652471953198 -11.308211605889625 -117.17525267903231 100 110 119 
-152.11491432338326 -0.13143949686400092 -138.4340901103306 240 234 231 
-127.77168518122662 3.0873414407738693 -128.9508269926321 67 56 62 
-128.8228589665721 -10.459657912607529 -128.27617373103715 177 184 175 
-127.53476510607973 -11.398508398138713 -127.008127835544 91 101 93 
-128.41859442567275 -8.774686753340731 -136.09057815018048 126 131 124 
-129.69630761927533 -13.471497738788464 -137.96516576989242 93 97 81 
-128.61359959304806 2.134410222647414 -130.85672019358782 147 137 133 
-179.53371630570882 -0.005152620280675535 -144.32977618719627 118 113 110 
-134.2154387498403 -0.8539983628078538 -148.00062607315496 81 73 65 
-179.5183261158982 0.08699024765471819 -144.67502184490314 230 225 222 
-118.0808070323794 1.611940213327502 -134.42198784719662 232 229 160 
-128.4076538795986 -8.058411286588932 -135.35392077548624 130 136 124 
-128.77335712131037 -8.857119720128377 -136.40036027598325 128 133 125 
-159.31338550449735 0.5399547646208305 -144.1690154046464 222 221 217 
-181.1144884171814 0.19757810106891505 -143.42184190328243 234 223 223 
-136.51584570539302 -4.899283442472733 -134.81261639755581 152 152 162 
-136.6304696911969 -2.6937735176400306 -135.60783838648885 189 188 193 
-128.53201853606785 -7.966133222083641 -134.9265990310249 142 146 142 
-125.99533336496364 2.382086572024054 -132.67312670281157 208 201 193 
-128.17817999537303 -8.847008016995773 -138.8429648882951 107 115 94 
-157.8740905847356 -12.273968444442033 -113.76187208807642 226 229 238 
-138.4747610354234 2.7773835361552965 -121.73125380472436 67 65 67 
-118.06570019038105 1.7505793667612508 -134.70810206260873 217 216 161 
-148.75188644075058 -14.069781438474944 -115.84748528084361 173 175 174 
-160.138940434399 -13.485072619576226 -113.78446860888265 133 138 146 
-153.59734423749074 -15.85225595514386 -118.33017179227058 151 153 152 
-175.9739388564522 2.624848628921894 -110.62697280751576 169 167 172 
-128.32345365625375 1.5850096819181605 -130.99539188230486 76 70 69 
-178.46394247545896 1.4086903544274474 -113.97945114436642 189 188 201 
-134.53200861943057 2.2558184529268033 -126.68225247705944 197 195 196 
-174.0068215412762 1.2447722296462054 -111.3630349527824 50 52 72 
-127.76637408788169 1.2664855838829787 -135.70993093530345 120 112 102 
-128.60096993988205 -8.342690523894365 -132.43806399741385 127 133 126 
-127.40620165123269 -11.763532506933394 -126.97984932098717 176 186 178 
-160.38633169448838 -14.766174805586175 -111.88563569970935 184 185 189 
-129.2634669050717 1.0415339538036683 -134.88653534778592 55 56 45 
-134.19187403056787 -10.397255493255017 -125.80627928884317 77 88 82 
-152.70137302605644 -1.2380983475263498 -136.0491380120176 57 46 37 
-152.70137302605644 -1.2380983475263498 -136.0491380120176 57 46 37 
-128.7448535641863 2.6334049223571068 -130.8530450674784 142 133 127 
-161.4843068302474 -14.62397308383986 -112.05376216626532 237 238 242 
-130.68337073050867 -10.130129330289439 -129.24204438371925 62 73 70 
-188.29849326371198 1.3547523413002676 -138.31311889816902 125 117 116 
-128.34015256176392 -9.963761484846025 -130.78962847868544 159 167 152 
-135.43933803547912 -1.7960577452713604 -134.97842403778682 134 133 138 
-177.42313578559384 0.008937643360621195 -146.09872004849763 244 235 238 
-181.5610716933146 0.41156600262043774 -141.7552297904629 180 166 155 
-153.99982805117676 -1.5219624835851366 -138.1045939123312 195 186 183 
-130.57180553096833 0.32545433587026373 -134.43146242899104 223 223 212 
-126.93580263274598 2.5852726806084068 -127.90358808307275 54 43 49 
-153.607359472784 0.6943400192702924 -138.53046899539308 216 207 204 
-120.43290450754941 1.8664041398884859 -132.0210069592003 82 76 80 
-128.7440154461413 0.9869985108496611 -134.67863390250392 120 120 111 
-128.53763130667397 -8.965159999914118 -136.68209348187207 91 99 88 
-161.67020184136166 -2.6692798909652957 -161.22000996332488 188 179 167 
-127.80320041716584 3.2444541582756177 -128.87712456919124 153 148 153 
-133.37688890172709 -10.749493167843191 -125.45044750397919 165 175 167 
-137.63435683344989 3.5738382698800457 -122.21622952444295 216 216 221 
-173.30561120784193 2.555195216359449 -113.95248573142894 226 225 236 
-131.74646278994885 -11.322465358920557 -124.52825433109122 101 111 103 
-158.24714229968083 4.787895113216614 -113.69270441063212 50 44 46 
-128.2841806086938 -9.209344084974159 -131.4877383439975 157 164 149 
-157.81562896028666 -12.004068435868795 -114.75978763802408 113 118 135 
-118.65498306350335 1.7909898640150566 -137.07818269437192 200 194 180 
-168.1469667489602 3.694886700677843 -114.02259681668605 148 155 123 
-130.94722701741023 -9.985334396351238 -128.06152641892083 76 83 76 
-162.77528516124457 2.4353219758158335 -114.44080535390518 171 163 163 
-121.40487450798622 -10.104855190625461 -140.25685050764073 110 99 97 
-127.60818846138972 2.331369361406125 -129.13078925840446 112 96 105 
-128.74697450361393 -9.160277984410097 -131.8732261995107 139 144 136 
-136.38114500226365 -1.80092526193903 -135.7225312716581 52 51 56 
-128.4859745576084 -8.955979604913065 -131.59940871306208 72 78 78 
-128.37831088716678 -8.140311240656484 -134.74761112867276 67 72 65 
-192.19712434966775 0.864260644319037 -137.04671553029215 96 84 85 
-128.74734462691802 -8.64362640872454 -136.8025625437242 142 147 137 
-182.95746242711158 -1.2169618001714024 -142.19586123444802 196 181 176 
-128.69267802981216 -8.760694813877599 -136.83072815944456 89 95 85 
-187.15421881855332 0.6758121192556548 -138.76182087305364 244 236 236 
-151.56250809745612 -0.2171296330437844 -138.17102219574272 238 229 224 
-139.73617104128493 1.8735176236353155 -124.42802923975565 171 170 165 
-186.45057462181475 -2.7411963804502264 -139.76599686054064 140 125 124 
-160.9529363601713 -3.587550345202555 -156.80154619406133 100 101 105 
-180.7314886190873 -0.27526740378171155 -143.48182495333705 244 236 234 
-185.1581680572873 -0.34999814373137283 -140.50616606771464 157 142 140 
-118.17786414788229 1.8728216887461073 -133.36053795483681 86 86 83 
-118.37731727638666 2.006609794144314 -134.84211573401586 70 64 43 
-183.28720559016375 -2.245049906773211 -141.95265304968194 185 175 166 
-183.23355583492838 0.24794739507761498 -141.50099929284525 223 210 194 
-159.955731647082 -1.3048095013715617 -156.82155847820397 159 155 152 
-131.62313407359076 1.7268518737545442 -130.2225711005029 190 187 178 
-147.58778977515206 -6.270570348672901 -122.15137507056042 62 69 75 
-128.53668767880438 -6.4308194268215395 -134.4626494794768 160 163 155 
-133.41236810821167 -9.406157764601705 -128.2800892859788 106 116 118 
-131.00669584283065 -10.956687171235338 -124.80409917989098 174 186 173 
-129.93180871032524 3.195198287488461 -127.65166144949416 176 176 180 
-131.17538467952528 1.9257803440922423 -129.3520280609 135 126 128 
-126.81124391225732 2.4446838514603826 -127.95911738001847 199 199 201 
-128.6910650781563 -7.591731199687814 -134.5201136423172 67 70 75 
-129.13606564770222 -8.886281920057634 -132.87467012209422 90 95 98 
-128.70059657422888 -9.127931797294817 -136.96616013915497 92 95 87 
-153.6697741435214 0.5326169739770723 -136.75369130468934 234 232 227 
-130.5712196057394 -0.14422505767681848 -135.43372435977483 215 217 207 
-128.56655287148965 -8.305547431728737 -135.55876103303052 76 81 72 
-178.54384691513266 0.6074456943969135 -144.61146326243866 228 226 227 
-126.55657737409075 0.5346755820606433 -136.7947938997045 116 112 94 
-128.5182178131655 -9.14650378285505 -130.188429715984 101 109 106 
-117.2157241270438 4.2134960127771635 -107.51996288214988 156 156 158 
-188.17158193702005 -2.220336147763174 -141.520944699773 145 138 151 
-132.60029457181602 1.1450469618552592 -128.02649959806212 113 112 110 
-156.69406534115925 -15.670034294214915 -113.0422339742315 162 163 167 
-150.41941351521146 -14.780714341962625 -116.34048081556746 169 171 170 
-156.14370472081214 -15.590371063278166 -113.46209110110907 139 139 147 
-151.24522884523927 -15.194049966849992 -115.61855048458447 178 180 179 
-151.32960574978566 -15.211706398505232 -115.63232856353487 178 180 179 
-151.4545172523897 -14.78902414100737 -115.8494486802341 161 163 162 
-158.90968827786045 -12.881250757788333 -112.03436309513442 174 175 179 
-140.25833869177563 -13.219372206318546 -125.30429802963657 150 154 157 
-139.56908443975504 1.715140011242175 -123.2962830445003 122 121 117 
-132.41761280183553 1.8309606533010694 -125.60325487778056 48 44 45 
-133.0747695839811 1.4606746985123866 -127.24999390413367 245 244 242 
-163.7253767611375 2.6791714258276205 -115.18549704133815 146 142 136 
-175.98680495145874 0.5198124810806384 -110.62396214832538 180 183 201 
-176.5841331261848 1.7745233199246488 -110.80245446281812 53 56 69 
-156.74605490403027 -14.70781565654616 -114.04349717283537 241 242 247 
-170.20320219671544 3.2321401894678647 -114.00187352405568 57 57 63 
-159.078958401695 -13.136779268935548 -112.48180872160431 147 147 149 
-153.53730225510088 3.3437765775690718 -117.04961699402381 66 67 60 
-156.83880385002496 -13.544645180224869 -114.75488738511012 231 237 242 
-155.6577454350023 -13.321243713860085 -114.60079581780944 231 237 242 
-130.88119866738407 -9.04711017531952 -128.3035842049299 67 74 67 
-156.98911831543063 -14.113999853057361 -114.84523453392892 147 153 156 
-176.17978732755637 2.264551079856263 -110.89785906476895 160 163 170 
-154.60905545082102 -13.153277988456967 -114.10468666223827 230 233 240 
-135.8730224861031 -10.82824151865999 -126.64326391432391 76 86 79 
-163.18638929190078 1.9003221090191058 -115.78500387973322 104 99 89 
-154.1527287592795 4.191095219362667 -117.59215392511068 62 60 61 
-169.83731543608206 3.299720534095462 -114.30460364448132 150 150 149 
-147.87904955771376 -6.621758515572921 -121.42582637403855 107 116 123 
-161.196077894001 -14.566530454114705 -112.63353384608621 217 218 222 
-128.43508125842217 -9.367133648881317 -131.5391588046332 76 84 69 
-160.49943284303217 -14.234761782862616 -112.70188388459151 228 229 233 
-134.33145636893457 -7.16314927936142 -126.85169056274924 143 148 151 
-127.41098217931314 -11.52552854120394 -131.19351981040802 85 92 86 
-147.42446134457361 -6.996199324124245 -122.76081407644244 71 81 81 
-161.06880546912168 -13.9371904964134 -112.73772956324677 235 236 240 
-158.19844985874457 -13.174600553726076 -114.2806704924608 140 145 151 
-130.48408721586213 1.1964905847741676 -128.52729290876357 77 76 74 
-131.58503093346437 -9.791989579818999 -125.59177100268074 81 91 83 
-179.15346646202318 -1.5197025905659327 -144.70219303167866 195 194 192 
-129.13538732133773 -10.354853522070485 -130.1909023996763 126 135 118 
-130.67070016895622 -6.83242292371574 -128.64043855790536 161 172 158 
-131.29099931283343 -10.41615712180629 -126.72087645748009 123 133 125 
-118.50051698091681 1.7514701609450896 -136.3380861942518 183 177 177 
-131.22235422348203 2.3890827131702004 -127.13517916334986 234 231 239 
-136.46354941264974 -4.8969966335617165 -134.7865823582858 152 152 162 
-131.59939639621038 2.1294057704629576 -126.96403028738771 34 32 37 
-152.38161394848015 3.010992046334568 -117.55872473916354 70 73 57 
-136.0115483210845 1.2534400285771383 -125.25844328789601 235 234 232 
-153.67311246136003 -1.9878683203168421 -136.6496527531852 240 234 238 
-134.625631067295 1.3765455779144329 -124.85542113734193 71 70 68 
-117.84280752492036 1.5295789175838976 -133.4634448731014 144 140 153 
-128.66118317613174 -10.32792665211813 -131.22809524241018 81 89 77 
-118.70196488687662 -0.1631120604719598 -136.21992098484856 213 214 206 
-131.30713785986282 0.20923452548655774 -134.04687611231128 236 235 233 
-135.77693571756208 -0.1364389194139104 -134.95355284204368 122 120 123 
-179.04623957806166 -0.8681579760221698 -144.69412751990967 166 162 162 
-135.79873444587784 3.7360221321688236 -123.2796908758736 123 122 121 
-179.5961037613321 0.0911894493305283 -144.71072303505386 230 225 222 
-187.73802527764792 1.1968456059299655 -138.62571367995326 131 126 128 
-181.24987885539414 -2.432059834498009 -144.994832718013 110 110 112 
-184.2804677998331 0.7134401921073472 -140.16580065588667 217 209 202 
-184.70958477412682 0.6964607979843791 -141.20102514313803 209 195 188 
-129.3421947233352 -0.34550852067007476 -134.2304870717538 232 228 227 
-137.07686965241123 -3.813666457286569 -135.44303376287053 148 147 152 
-177.82366167421046 -0.414444568552053 -145.6690618591363 217 207 206 
-177.9155398512157 -0.4077438603844481 -145.70969940573855 217 207 206 
-121.12241009015557 2.7232618233359336 -132.90813892863977 157 155 158 
-186.08938977428852 0.5804313473039979 -139.41141660019738 251 242 240 
-178.34741287284237 -0.6744532150183229 -145.6736882687668 164 156 152 
-177.41045607513854 -0.15605945167422952 -145.69139224696903 157 147 148 
-186.55380823840719 -1.9243800024161128 -140.5875343243401 87 76 88 
-130.03976475390397 0.28879703043361005 -134.02801862858186 223 223 212 
-134.2734884208973 1.3605086346214819 -124.49149407840808 58 57 55 
-185.89908948925986 -1.0652405676455903 -139.21119767418224 188 173 167 
-120.57197547669386 2.240186405558939 -132.2117253119517 53 51 54 
-128.0210571461987 -8.083193896196676 -133.67002675603086 119 124 117 
-178.88584919977478 -0.5416475658601438 -145.40204279621034 239 233 230 
-186.26734829511057 -1.490739516228162 -139.75100058032768 141 125 126 
-186.29723195477854 -1.464793965771717 -139.76178376552272 141 125 126 
-178.91474898772518 -0.1771956954631797 -145.46670276352927 242 235 232 
-130.55768460901027 0.6462968443605863 -134.53226205267578 94 95 80 
-187.60059663587623 0.9321402413011093 -138.20884393842758 133 120 124 
-186.37441554188243 0.9346856834181505 -138.938302930162 244 243 241 
-128.20943824364244 -8.713469564006612 -138.43967161582452 123 132 111 
-160.02103009067608 -7.304006009208933 -157.83305333092036 120 118 119 
-131.38404669363433 0.374539714730469 -128.24022069222875 84 79 78 
-159.74465347903762 -3.9091062210783356 -157.375716410214 171 172 177 
-158.79261938138345 -3.7526315622912314 -159.19820762578846 94 95 99 
-159.41830992529492 -0.28217236837816984 -158.03487142392035 90 83 83 
-160.60417060012276 -3.6817882240288498 -158.54033738940336 90 90 98 
-157.67768886158908 -3.9029304516489205 -160.40933184185596 83 87 94 
-129.27310448032134 -9.301313002071865 -140.46994052066952 155 158 141 
-161.119721132878 -1.5033192240179023 -158.62370376139765 169 155 147 
-179.62704305717614 0.11808526229870608 -145.14320246997065 154 152 155 
-129.0309441926098 0.05919438894989071 -134.84265704269743 107 111 84 
-118.01149792394025 0.5401487561857525 -134.16703744471968 203 198 192 
-131.47059017532706 -10.95615620909194 -124.93365172723345 90 103 93 
-135.0951679843539 3.652035818020881 -122.67008333257563 119 118 118 
-147.39751590078478 -6.789843338032945 -121.18661252739403 73 80 86 
-152.94713916210202 4.047596826755115 -118.1665909567571 55 48 50 
-145.8520617415994 -9.49784636540134 -121.8519821583688 79 88 93 
-136.33491762381396 1.7851566363630322 -124.17447112280136 71 70 68 
-150.17542506999274 -10.534897312298 -117.70290389268068 132 141 149 
-185.65583734922416 0.14250460079398053 -139.59565155912773 144 131 125 
-128.47164096052592 -9.284116972120007 -131.8378469676708 172 180 160 
-118.33889181167177 0.8929475664149571 -136.15635115926446 73 76 27 
-130.81716310718141 2.2963125160251483 -128.91586994161037 200 189 186 
-135.57720911525186 0.8448710900871212 -125.7085412136188 54 53 51 
-137.89488672673062 3.7095828643955553 -122.49391936394782 93 90 99 
-127.34684912526544 3.0449070719300426 -128.4501390763923 57 52 58 
-134.75033386838422 1.1123403265986607 -125.29079902316062 217 215 216 
-135.84987673939128 3.4459690985653477 -123.47549461150021 222 220 219 
-152.85894271174243 -1.2736076820327558 -137.8566471904502 179 165 165 
-128.9648733495347 1.9296456173087275 -134.89499176412934 130 118 99 
-130.29142153978296 -9.04138361570714 -128.44851771809826 81 92 87 
-131.71681867389978 -8.11255240181848 -127.95244055178607 74 78 88 
-128.65192553444228 -8.759411407624004 -138.55974408002896 112 121 100 
-162.22936838516353 -5.222878794299987 -157.2852643364412 160 161 165 
-118.27921696189034 2.290211961824207 -134.25246476537652 221 216 219 
-130.74246977960388 2.6478189463307906 -128.98845261140093 70 59 58 
-164.9461091392803 -1.2925022166725242 -157.92773505973713 120 114 111 
-128.7030619639108 -9.004993822601282 -136.8034915847651 91 99 88 
-159.430163615854 -1.1630359689754517 -156.7057060703361 244 235 233 
-118.58468719859286 1.8045889784909512 -136.28852891174787 72 63 64 
-165.0474827030415 -2.6782177010580686 -158.27944564698132 160 160 162 
-122.2850230921927 1.1816127070457405 -136.5516298316256 91 80 72 
-128.81399525645332 -7.536606049943007 -133.40692199471258 85 90 84 
-160.81000899842957 -0.5531859363975702 -156.63902715905203 233 234 229 
-163.88512138044825 -0.47243123665016284 -157.78724642752817 240 241 236 
-160.3339084055874 -2.357159747027165 -157.29162096137327 248 243 236 
-160.2095206364344 -2.353271132118806 -157.20727197374444 248 243 236 
-160.53052365606428 -1.6025701210970915 -156.62261536127173 150 151 146 
-160.6330071490905 -5.554112871325113 -157.39941322759694 181 182 186 
-130.04427949028315 -8.11670439683953 -141.39634140365962 83 89 75 
-181.80353313203005 0.0918793722574005 -143.44661064641045 153 145 142 
-128.85625308585244 -8.37501653118689 -138.1241941254434 97 104 91 
-128.85406305242003 -6.706384951929358 -133.90619068876245 147 149 144 
-128.4366609391285 -7.94237597197602 -132.5012060807986 140 148 137 
-128.66843220268504 -8.00011495532506 -135.0266242036661 142 148 141 
-183.34479767293183 0.25169800345618754 -141.58614641823942 223 210 194 
-130.68973584373845 1.4218640918323953 -128.32427134484868 212 209 218 
-183.53693068989978 0.46529969093240275 -141.87667017437698 178 168 155 
-117.97696596809843 1.676230514476119 -134.46545081965414 93 90 35 
-121.18753450227351 1.0356376138925523 -133.16087190987605 64 62 67 
-182.0255175876532 -1.3414734991101191 -143.75854932515117 159 155 159 
-182.06340069621268 -1.366565274883893 -143.7802574941919 159 155 159 
-129.93647775629037 0.9984091052127493 -127.45350025970166 202 201 199 
-179.3770296174113 -1.0635325540759109 -144.46837705258304 236 234 234 
-122.23795473642089 0.8687720476463454 -134.6814900014114 64 60 59 
-180.70635171759483 0.7409986154029795 -142.80970552797484 240 236 229 
-180.35087699835435 0.7331871818025419 -142.71806721755033 240 236 229 
-181.97503492891852 -0.005350378703845138 -143.34572142532593 147 137 133 
-179.971553284612 -0.20555007448098372 -144.11263451750017 147 145 148 
-117.69583097117211 1.495098498181891 -133.6595514977755 218 218 174 
-135.09613678498832 1.1516411785765772 -125.85412451296664 72 71 69 
-138.1035902647834 -6.7865949223134905 -127.11903196873216 99 104 107 
-136.36113756407846 2.170452952845732 -124.12830199920215 72 71 69 
-132.7689796462469 1.4475726490830834 -127.09942480431793 236 234 235 
-137.1068117221458 -7.00723842386769 -127.6092536735401 92 97 101 
-137.6780633469951 3.807189153614596 -120.87608094835844 51 50 58 
-133.55936328408234 -9.695695445160332 -128.5268492078415 65 75 76 
-138.24037196670895 3.824126981047282 -121.10814125020453 110 109 117 
-128.9448632221689 2.4002511472493158 -131.55287587911354 123 117 105 
-133.1326355668295 -9.475094060135952 -127.65701064172548 89 99 100 
-127.14526035595446 2.6122638669134126 -128.24885619696175 207 207 209 
-130.31587761983639 -8.173538475525056 -128.64738013487974 80 86 84 
-140.17512557552297 -6.97366314769565 -128.88970215695133 76 80 85 
-134.12762929859667 2.7768337955381757 -125.27686002814093 85 83 86 
-123.578007637185 0.3232430025306652 -138.34690531614604 79 81 60 
-128.91971313786954 -0.3575041185502812 -135.82729585424883 234 235 226 
-129.1165419087551 -7.952282401122545 -135.96178893185262 91 93 90 
-135.71156826537256 -6.13770875238448 -136.3606986220692 72 69 72 
-145.08458233822958 -1.0845082495984713 -149.94512765116608 243 232 229 
-127.70121439101906 1.254899843973547 -135.6742734704272 119 113 102 
-128.26239730737643 1.377394401991678 -131.416896343679 75 69 70 
-152.88988833311913 -1.65577829852079 -137.7297668934352 105 96 102 
-125.99631987158394 1.6481311622425867 -135.7762741627499 141 135 114 
-128.58119143879497 2.863120433938617 -126.17808794419761 90 87 96 
-151.7771710786139 -1.608510244742666 -135.40025988073987 111 109 111 
-133.13437659569516 0.56603176751603 -126.58164512960904 78 77 75 
-128.60475580824925 -9.196020136546476 -132.5589735997275 151 157 147 
-131.37608698361134 3.283801408316709 -125.29794419690434 219 217 220 
-132.58147912886125 3.22170757905649 -123.90407624619709 75 73 76 
-130.94140600398293 2.299322557453749 -126.65827812620503 72 70 76 
-132.25295064260175 3.3694173267953342 -124.21480199144516 90 88 91 
-133.87375226335627 1.4535624033270569 -125.55818254127423 51 49 47 
-117.61706492746114 1.696466934391001 -133.30101824874097 61 58 68 
-151.91734214121252 -1.636186486781158 -135.46195770048732 111 109 111 
-127.87225455931079 2.906856597150208 -129.3805947958403 105 102 98 
-118.28332377093089 1.3383149315697445 -134.30913438183086 92 89 62 
-129.30922272733793 -6.891115444041134 -134.40294666730162 93 97 90 
-120.51983580052827 2.35619932557519 -132.21580176723984 58 56 57 
-128.85932023891178 -8.585928689425028 -131.4889018253025 128 134 137 
-152.7145096703632 0.1836438853675766 -138.2289679007554 178 173 168 
-128.57809830752203 -9.066757432808455 -131.4672122322697 122 130 120 
-134.90258309160217 0.6437910507532827 -126.06921459072962 88 86 87 
-128.08514650667468 -9.251233758376468 -132.4895471817412 172 178 163 
-128.21562921500805 -9.297024073596269 -132.59004453877895 172 178 163 
-130.31702342112118 2.7838100223014575 -128.97821465838263 69 64 66 
-126.97726436385433 2.853067398222601 -128.02278126431156 72 67 67 
-180.28426265069243 -26.904475186391025 -140.58055511697424 107 105 116 
-127.2661399067779 2.5182530763891737 -133.02148053521677 207 199 186 
-128.81959310743733 -6.636843447850627 -134.11847479777046 142 145 135 
-128.31223221868282 2.4270812254410394 -135.73216982271708 197 184 176 
-129.62852892541014 -7.858672604731964 -138.0515339527544 142 143 137 
-152.24149515798916 -0.7178265473006142 -136.0660340376371 91 81 76 
-152.86127820870198 -0.017193458149908025 -137.03404654126325 97 86 84 
-152.63928398138543 0.3134894824237282 -137.35245817659478 96 89 83 
-128.4752087137516 -8.069498947449215 -134.5722239267158 85 90 84 
-128.5293482119574 1.8285358423212053 -131.87525170156127 70 58 55 
-118.14978172122052 1.8535220113346274 -137.39660998216925 226 221 211 
-118.27302375503578 1.8705527969064057 -137.53472232351768 226 221 211 
-127.2317331713854 2.844766576144975 -128.30100849872284 155 149 149 
-130.77202697512428 1.4348981109319716 -128.3733862208966 212 209 218 
-131.5844964165816 -7.82084568644316 -126.98436194856704 172 182 181 
-134.6981476377693 0.6337423605050603 -126.00012382053124 88 86 87 
-134.3032312014298 -7.156833281012172 -126.857314260863 164 174 172 
-133.2469518148241 1.7493253269508138 -125.59769368099079 244 242 243 
-132.96504613688498 1.734263297445251 -125.49634494825459 244 242 243 
-126.98960179338286 2.7369571052155948 -127.93808373367496 69 68 65 
-133.59088927174508 1.3290697726900582 -126.17296922955013 92 90 90 
-134.73370418927556 1.0707704721455187 -126.09180453017946 223 222 221 
-183.54940424570958 -2.095338390857176 -141.7277719090352 147 138 131 
-126.99622620783158 2.94896563641168 -128.250550473566 103 97 97 
-127.22197284159404 2.103166250108657 -128.53293947538603 170 166 158 
-145.3695011430348 -0.35451992599542415 -153.10729881009343 212 213 207 
-138.75401568555483 -7.122119066333493 -127.33017214839016 89 100 94 
-123.00474724983862 2.021687621791898 -133.45313547105303 195 185 172 
-127.02875101639904 2.477300771110615 -132.04044967066244 194 184 179 
-128.3402877801651 2.1122723038059927 -130.71039272721717 161 152 138 
-121.10414427309155 2.0742554051075235 -132.96748969767566 188 186 189 
-126.85302036870314 2.7119807776440688 -127.85455249007347 71 70 68 
-129.76445667042145 -0.11036570835969961 -135.52530160210563 233 235 227 
-129.2658374180766 -6.9035257090405615 -134.85838352596505 93 95 90 
-120.50153360729817 2.4757677685627506 -132.28209559337893 62 60 61 
-120.5199047256895 2.4776636469470468 -132.2926606990817 62 60 61 
-131.0202561918044 0.7779221751068217 -134.46343862977815 236 237 230 
-127.5715250755637 1.4758822835445855 -129.07913040331766 88 77 88 
-130.51458720806335 1.4189197927739965 -128.050029529043 86 83 92 
-120.56357264500974 2.0780083313465347 -132.1859057932031 81 79 80 
-130.23093101517495 1.325080378460445 -127.72866085319451 243 241 245 
-125.58310183300438 2.1414818438906753 -132.4720112080829 113 109 99 
-127.78804300608597 2.985345149296558 -128.90949058282754 160 155 153 
-128.694119365726 1.2053104684875695 -135.67989713861823 97 87 75 
-130.41253514042072 0.46581561831628093 -134.18984553561938 119 121 108 
-131.35217114494824 -7.057688608034102 -127.67897416279325 139 150 145 
-136.56021929763924 -4.359408823027284 -134.00237791037807 44 44 54 
-130.041928888682 1.7580884748813794 -131.44763808721345 77 75 78 
-181.06906552387545 -0.19830620517708297 -143.67227761909177 237 232 229 
-184.65562537888738 -1.712144010131878 -142.1404416192927 229 221 227 
-156.89618130540137 -18.474954618649296 -113.50114054117294 174 174 174 
-185.09595584224604 0.0177318147801806 -142.21166315769543 164 152 140 
-131.68446504563306 -8.568471049326178 -130.55743713750866 63 68 74 
-189.2689153470069 2.4291568248670234 -130.305239891228 145 144 143 
-130.5030135851953 0.16172620078864597 -128.450476210811 73 72 70 
-182.45255920979747 -25.197044336223115 -139.6604571632727 118 118 128 
-189.96388243647837 -0.60802681079727 -138.8556014367097 73 62 60 
-178.63406900424803 2.003128525398953 -112.91920996448476 161 160 169 
-225.2283872706879 -20.84511353613417 -104.36690614932854 221 222 226 
-231.469781244363 -20.981869704443646 -106.02324687565581 146 146 148 
-132.6421904237078 0.8397473125363746 -128.0924248317348 200 199 197 
-156.41795641469074 -16.358002166796485 -113.87740996145651 230 234 237 
-213.0769750188217 4.66697078308853 -98.99444276895221 88 88 89 
-132.9557251554435 1.358594015908075 -126.98327052045576 67 68 64 
-214.43476822561445 3.7935986617299555 -99.15120154721957 101 99 102 
-147.06903113424784 -6.429224131857669 -122.36913571398077 90 100 100 
-170.30152018548964 2.8434599640221485 -114.72241667680909 160 153 159 
-176.13765178658153 2.26072659014657 -110.91033746813754 169 168 179 
-139.42219159019476 2.021121515643861 -123.01070201881778 80 83 84 
-127.56413007311649 -11.706369618413362 -126.62282039244774 113 124 110 
-152.05167878794043 -10.367669966817406 -117.448065371396 122 132 141 
-156.84473903160202 -15.421074219460301 -113.41812547030376 230 234 237 
-156.33440484463424 -17.836615617194568 -113.27336078589256 245 245 245 
-156.9120961772675 -18.140663392841525 -113.70999539878277 159 159 159 
-157.0386082775709 -18.5056531909063 -113.53441735459354 174 174 174 
-128.06781497821396 -10.174824227347294 -133.2315609349046 146 155 138 
-212.71241255768936 4.39761656166238 -99.28401450019213 227 227 230 
-129.3869637527524 0.3420599884902238 -135.47663054770038 61 65 43 
-180.3627455302295 -0.8431314693030743 -144.10552133212593 169 166 168 
-135.7565189155191 0.604111456588317 -135.39790834156938 48 46 49 
-185.0147651715776 -26.802382640517436 -137.8752153633963 103 104 110 
-186.20010218743744 -1.5523498115250405 -140.77184982778937 219 219 225 
-134.8619645363536 -7.0965361238276365 -127.01543823898398 65 71 68 
-226.0178626535618 -18.657233814955337 -98.99663008758955 127 135 146 
-129.37715122869162 -10.224142879237231 -127.77615770351971 145 153 137 
-128.9673081206606 -10.135382939148538 -127.520234752643 145 153 137 
-136.8117293915857 1.733454041181755 -125.27298233758539 152 150 151 
-134.7809119728414 -9.955903452434601 -125.59573237800015 140 146 144 
-147.51009009110973 -6.6145646191496255 -121.73417110393032 60 68 75 
-156.95094032921412 -15.724316307340644 -114.72623319546479 221 222 226 
-157.18204325162105 -17.34113919082568 -114.47926497259695 138 139 143 
-153.00736815393128 -0.25235169756481035 -136.447357756251 223 214 217 
-224.7927624996054 -15.597650598096646 -103.83239603787624 95 103 111 
-212.4419111187869 5.626100856894407 -103.84509924805087 93 86 99 
-152.53348357194847 -11.234323213230976 -116.99380865494214 113 122 130 
-179.37254890405998 1.4676303835807527 -108.38670290483084 49 51 62 
-157.97779937503904 -17.144866039584677 -113.45065870289376 149 150 154 
-156.86100453405075 -14.772814630061546 -114.1219818697596 237 238 242 
-157.9930336190529 -16.680982058662256 -115.44467146941423 240 241 244 
-161.37214815800408 -14.731913404269626 -112.86231765472742 150 151 155 
-155.8909333432494 -16.374495721468612 -113.35997475473222 240 241 245 
-130.12727835721788 0.06333221232953612 -134.1937574373107 117 119 105 
-205.7222411215223 0.15376727284530212 -138.31119383681568 163 151 153 
-182.21133645479722 -25.744508969434037 -138.5948178383393 213 215 224 
-127.40795826057268 -11.700505933830286 -130.27434262597686 138 145 139 
-150.6542810381207 -15.401018549116174 -119.51678140277745 140 141 145 
-146.20638742976595 -9.795663023171258 -120.4860271396657 91 101 101 
-160.9638033206937 -13.417383596802306 -113.1789291102293 218 219 223 
-185.5467407660258 -2.0098097124851773 -141.56627508622924 86 84 97 
-187.92600792366827 -2.2210182800741993 -141.42705431189412 125 123 134 
-140.637838680966 1.2473884398015525 -122.68900758716221 49 48 48 
-140.14010738595675 -13.073689017636504 -125.94377735883897 96 99 92 
-176.9650907441224 -26.83512308583647 -142.5841272515851 167 170 173 
-130.80217856538428 0.9159191709390075 -128.81871433979387 236 235 233 
-177.89055508064214 -25.83530033524564 -142.44403831356394 214 217 226 
-181.04151456137407 -26.033265318453196 -140.06268623811638 214 214 222 
-182.16985895707506 -25.644398436799207 -139.90475194101043 208 208 218 
-180.61646860434877 -25.013478630915053 -140.4990873241956 200 200 210 
-127.92987273078721 -9.620913932370978 -130.91842319334356 143 151 136 
-181.60690065749293 -3.1240705789253163 -144.25238147436664 173 170 173 
-180.3170957200345 -25.274892832559267 -140.7304078943438 122 122 132 
-180.9304570541754 -3.658047311301754 -145.59756532749907 160 154 158 
-177.217565644898 -27.048863936470127 -142.3311519038887 94 98 101 
-180.67918699185157 -25.610922323857523 -140.53843599978504 215 215 225 
-146.41330558135397 -10.352835935985667 -119.6685841726734 133 143 143 
-177.24562814373652 -25.83267952289863 -142.75784013223088 213 216 225 
-130.66187598149364 -10.62895290463598 -125.21677394275648 80 87 80 
-182.80025625020292 -25.63225015524729 -139.4529166683571 219 219 229 
-181.67590665344864 -27.299606468976478 -139.50892981411604 230 227 237 
-111.90059125363182 0.9633422352143644 -99.97600593751868 54 64 28 
-182.5637716435039 -30.653031199816233 -137.43812112905806 224 222 235 
-182.4164263584396 -25.260262434386583 -139.6896519930314 118 118 128 
-177.49012645931282 -26.06669920127065 -141.72150271740512 216 219 225 
-177.32877850770194 -25.37818952251054 -142.44907978999234 114 117 126 
-176.9745969636365 -25.123620746355982 -142.69758343644682 200 203 211 
-181.51420068972783 -26.020984888723873 -141.6263290376917 212 213 222 
-146.4161055583957 -10.642453736152977 -121.24611940450286 94 100 98 
-179.67799551800067 -0.8235945458415603 -144.29893124503434 161 162 166 
-185.10491781325962 -2.544651081043863 -141.79121193866274 136 129 144 
-131.11932696042888 1.6578140324723059 -126.63726500056127 217 217 219 
-182.13552882805664 -26.86563572298489 -139.50020161685043 106 104 109 
-181.58881390079367 -31.33284380519011 -137.61158813060402 168 164 169 
-182.49366613948337 -30.096521531659626 -138.10322159429518 106 105 119 
-181.47656146603907 -31.226623019058863 -138.88956287120453 157 148 155 
-177.63986079497977 -26.102883803887984 -141.81523764460457 210 213 218 
-183.19525779063983 -31.071505147764604 -137.09661382938248 170 169 177 
-177.5048209332638 -0.9779833664272974 -146.04682546591013 239 230 230 
-183.86157070345837 -25.104891172093133 -138.93336466749972 117 120 130 
-180.29566251351542 -26.283429588403415 -141.5236685091127 213 216 221 
-152.4511989253503 0.913763327061142 -136.66422424774964 221 216 217 
-131.09084912741343 1.4458751944006547 -127.31828297810229 214 212 215 
-177.75283956512177 -25.115646009434656 -142.4256931875432 198 201 208 
-176.07976669428444 -25.39206411836883 -143.74590740098066 99 102 110 
-179.26927814234466 0.09145434358740623 -144.92482754776742 125 125 127 
-165.15188817690645 -0.5475696909694285 -150.6906551145248 238 228 226 
-165.9476594334955 -0.2757990141337405 -151.9619950376293 173 167 164 
-167.08744347745426 -0.5135469155208305 -151.99146697209414 245 238 230 
-182.14231186255955 -27.727145143682662 -139.37205529396198 161 157 162 
