-57.930545806884766 -4.889980792999268 -37.031532287597656 255 255 255
-45.472206115722656 -12.747153282165527 -38.964744567871094 255 255 255
-44.2738037109375 -15.419827461242676 -30.867536544799805 255 255 255
-45.591007232666016 -15.449532508850098 -75.72745513916016 255 255 255
-50.054351806640625 -12.540403366088867 -81.4811782836914 255 255 255
-41.61020278930664 -8.860044479370117 -44.806922912597656 255 255 255
-47.064292907714844 -15.2440824508667 -77.44576263427734 255 255 255
-44.911033630371094 -16.655723571777344 -74.97319030761719 255 255 255
-48.563995361328125 -17.30296516418457 -78.68974304199219 255 255 255
-58.17067337036133 -12.154679298400879 -61.294158935546875 255 255 255
-46.166683197021484 -10.686701774597168 -56.627498626708984 255 255 255
-55.495670318603516 -12.947283744812012 -42.843788146972656 255 255 255
-55.942047119140625 -8.292770385742188 -60.683807373046875 255 255 255
-50.19440841674805 -15.364618301391602 -34.21098709106445 255 255 255
-59.87385559082031 -6.999599456787109 -49.28693771362305 255 255 255
-49.05232620239258 -16.911773681640625 -63.32220458984375 255 255 255
-42.45792770385742 -11.943663597106934 -59.91273880004883 255 255 255
-44.25548553466797 -7.919193744659424 -28.672510147094727 255 255 255
-45.710411071777344 -9.16478157043457 -39.84064865112305 255 255 255
-40.84394073486328 -10.604166984558105 -46.565528869628906 255 255 255
-58.2151985168457 -9.486763000488281 -31.506515502929688 255 255 255
-56.88908004760742 -6.469947338104248 -46.977230072021484 255 255 255
-50.32032012939453 -7.81129264831543 -57.402164459228516 255 255 255
-47.6451301574707 -8.630378723144531 -59.56724548339844 255 255 255
-45.86128616333008 -16.222366333007812 -75.59154510498047 255 255 255
-57.060821533203125 -6.922257900238037 -50.80784606933594 255 255 255
-46.9636116027832 -7.0275468826293945 -48.1058349609375 255 255 255
-57.582122802734375 -12.72077465057373 -49.718807220458984 255 255 255
-47.81503677368164 -10.816481590270996 -63.77400207519531 255 255 255
-54.24708557128906 -16.41686248779297 -43.07365798950195 255 255 255
-51.006561279296875 -14.629015922546387 -59.97378921508789 255 255 255
-56.19853210449219 -12.586528778076172 -55.16987609863281 255 255 255
-53.8187255859375 -10.41781997680664 -32.54136657714844 255 255 255
-50.67070388793945 -7.540859699249268 -55.73356246948242 255 255 255
-58.03757095336914 -10.076787948608398 -55.457984924316406 255 255 255
-47.63385772705078 -14.93000602722168 -43.99259567260742 255 255 255
-57.155677795410156 -15.458569526672363 -40.13563537597656 255 255 255
-58.91412353515625 -8.341137886047363 -35.001853942871094 255 255 255
-58.996646881103516 -4.627670764923096 -46.84612274169922 255 255 255
-46.02733612060547 -13.462835311889648 -62.024234771728516 255 255 255
-51.99261474609375 -15.017354965209961 -64.33406066894531 255 255 255
-44.06257629394531 -15.83687686920166 -80.63800811767578 255 255 255
-50.1175422668457 -15.517074584960938 -67.615478515625 255 255 255
-48.923343658447266 -21.241079330444336 -71.9142837524414 255 255 255
-59.457210540771484 -13.202893257141113 -92.48924255371094 255 255 255
-47.46218490600586 -18.258100509643555 -89.35704803466797 255 255 255
-68.57427215576172 -16.368453979492188 -47.36669921875 255 255 255
-49.8555908203125 -17.86311912536621 -78.7791976928711 255 255 255
-42.32276916503906 -8.042817115783691 -29.154342651367188 255 255 255
-55.785064697265625 -15.633947372436523 -54.199337005615234 255 255 255
-46.69132614135742 -13.430466651916504 -65.81169891357422 255 255 255
-52.5588264465332 -9.521023750305176 -67.79296112060547 255 255 255
-58.46432113647461 -11.394506454467773 -81.3516616821289 255 255 255
-61.43971252441406 -6.7141900062561035 -47.992156982421875 255 255 255
-61.68291473388672 -13.040882110595703 -44.882530212402344 255 255 255
-55.73530197143555 -15.871676445007324 -66.5975341796875 255 255 255
-58.91147232055664 -5.257568836212158 -28.032712936401367 255 255 255
-57.39593505859375 -7.006326675415039 -50.89186477661133 255 255 255
-63.1458625793457 -15.961041450500488 -45.542991638183594 255 255 255
-56.89186477661133 -16.690963745117188 -72.90629577636719 255 255 255
-53.57770919799805 -19.66214370727539 -79.27649688720703 255 255 255
-45.8653564453125 -15.524178504943848 -71.94050598144531 255 255 255
-49.163536071777344 -12.359585762023926 -80.7354736328125 255 255 255
-54.66424560546875 -11.499582290649414 -45.801422119140625 255 255 255
-53.71385955810547 -20.270986557006836 -83.08053588867188 255 255 255
-50.068904876708984 -13.194550514221191 -88.47245025634766 255 255 255
-52.88020324707031 -22.303239822387695 -79.61927795410156 255 255 255
-48.83385467529297 -16.657512664794922 -90.19883728027344 255 255 255
-43.99400329589844 -10.125722885131836 -68.21708679199219 255 255 255
-50.588436126708984 -13.66250991821289 -91.47984313964844 255 255 255
-56.079444885253906 -6.679401874542236 -44.68165588378906 255 255 255
-45.70872497558594 -8.302851676940918 -48.78652572631836 255 255 255
-47.63726806640625 -12.687687873840332 -49.40787124633789 255 255 255
-50.035003662109375 -15.477575302124023 -35.45151901245117 255 255 255
-46.43404006958008 -6.306948184967041 -44.17454147338867 255 255 255
-42.30171585083008 -10.313661575317383 -43.29862594604492 255 255 255
-55.243343353271484 -13.549745559692383 -27.351381301879883 255 255 255
-55.7369270324707 -10.898756980895996 -24.892789840698242 255 255 255
-50.688602447509766 -12.221960067749023 -30.003128051757812 255 255 255
-50.70084762573242 -12.23473834991455 -29.963476181030273 255 255 255
-59.72612762451172 -10.3903169631958 -26.619848251342773 255 255 255
-50.08854675292969 -8.971756935119629 -29.15507698059082 255 255 255
-55.92721176147461 -13.066829681396484 -26.410884857177734 255 255 255
-54.788055419921875 -10.364319801330566 -26.51922035217285 255 255 255
-40.651302337646484 -11.112672805786133 -31.76862335205078 255 255 255
-46.0748291015625 -5.365535259246826 -39.21834182739258 255 255 255
-51.23874282836914 -13.385915756225586 -26.131019592285156 255 255 255
-45.50267791748047 -8.820985794067383 -36.92972183227539 255 255 255
-44.714176177978516 -4.737649440765381 -32.56562805175781 255 255 255
-58.97264862060547 -6.192824363708496 -28.871883392333984 255 255 255
-50.9761962890625 -11.99370288848877 -26.82729148864746 255 255 255
-57.755897521972656 -3.4130187034606934 -26.86762809753418 255 255 255
-50.88429641723633 -11.645709991455078 -28.143550872802734 255 255 255
-56.581905364990234 -8.81301498413086 -28.099510192871094 255 255 255
-50.982696533203125 -4.686873912811279 -36.60054016113281 255 255 255
-51.40300750732422 -14.211347579956055 -29.653139114379883 255 255 255
-46.664833068847656 -7.431869029998779 -51.05271530151367 255 255 255
-42.758113861083984 -5.982667922973633 -40.90298843383789 255 255 255
-50.1816291809082 -13.466877937316895 -29.930145263671875 255 255 255
-57.368682861328125 -4.023597717285156 -31.313566207885742 255 255 255
-59.2003173828125 -6.838687419891357 -28.097061157226562 255 255 255
-43.78203201293945 -4.947617053985596 -30.055187225341797 255 255 255
-46.0574951171875 -6.224261283874512 -45.07258987426758 255 255 255
-58.406558990478516 -9.007221221923828 -32.41101837158203 255 255 255
-50.41897964477539 -10.883935928344727 -34.18722152709961 255 255 255
-58.724266052246094 -9.006839752197266 -31.328500747680664 255 255 255
-54.35707473754883 -12.942792892456055 -35.262699127197266 255 255 255
-53.981266021728516 -7.181992053985596 -39.466148376464844 255 255 255
-54.51377487182617 -15.845117568969727 -29.66580581665039 255 255 255
-57.86265182495117 -10.537324905395508 -32.779239654541016 255 255 255
-58.86499786376953 -5.352602005004883 -28.117813110351562 255 255 255
-51.03111267089844 -4.638422012329102 -36.433467864990234 255 255 255
-58.64930725097656 -3.8449320793151855 -28.076704025268555 255 255 255
-49.854122161865234 -8.580673217773438 -30.630695343017578 255 255 255
-44.91802978515625 -4.404958248138428 -33.36064147949219 255 255 255
-44.98072814941406 -4.58890962600708 -31.554887771606445 255 255 255
-57.99187469482422 -4.902682304382324 -27.472721099853516 255 255 255
-42.918914794921875 -9.756452560424805 -29.69501495361328 255 255 255
-57.75570297241211 -3.853454113006592 -29.72895622253418 255 255 255
-44.53487014770508 -12.130736351013184 -33.0832633972168 255 255 255
-55.9803352355957 -3.8483004570007324 -29.995101928710938 255 255 255
-51.703617095947266 -4.929952144622803 -38.61343002319336 255 255 255
-59.01721954345703 -6.554309844970703 -30.499757766723633 255 255 255
-42.333641052246094 -9.06087589263916 -39.63267135620117 255 255 255
-57.795589447021484 -9.04665756225586 -34.67488479614258 255 255 255
-46.67319107055664 -6.597177505493164 -44.97425842285156 255 255 255
-56.48482131958008 -9.720335960388184 -38.318843841552734 255 255 255
-46.19878387451172 -6.486332893371582 -45.26011657714844 255 255 255
-56.97251892089844 -3.2690439224243164 -26.87097930908203 255 255 255
-60.84693145751953 -5.557441234588623 -29.093019485473633 255 255 255
-58.310306549072266 -9.061640739440918 -32.02419662475586 255 255 255
-49.54483413696289 -10.529215812683105 -70.85550689697266 255 255 255
-61.372886657714844 -9.336212158203125 -64.3101577758789 255 255 255
-56.40386199951172 -15.252857208251953 -69.4552993774414 255 255 255
-49.6271858215332 -11.564606666564941 -79.71143341064453 255 255 255
-48.873104095458984 -11.87363052368164 -75.30937194824219 255 255 255
-49.58918380737305 -17.369522094726562 -49.07064437866211 255 255 255
-48.131866455078125 -13.831006050109863 -62.97010040283203 255 255 255
-45.940673828125 -7.4408721923828125 -53.160057067871094 255 255 255
-57.035606384277344 -8.067012786865234 -36.37994384765625 255 255 255
-52.27422332763672 -14.285160064697266 -66.89221954345703 255 255 255
-57.63676834106445 -8.687957763671875 -63.006710052490234 255 255 255
-53.7612190246582 -9.735971450805664 -68.69050598144531 255 255 255
-55.241111755371094 -11.423622131347656 -52.42585754394531 255 255 255
-48.230587005615234 -13.148702621459961 -64.87181854248047 255 255 255
-48.09870910644531 -11.509092330932617 -63.190826416015625 255 255 255
-56.4222297668457 -4.474092483520508 -33.30771255493164 255 255 255
-51.02649688720703 -13.102420806884766 -32.28968811035156 255 255 255
-46.84275436401367 -15.703943252563477 -49.4422721862793 255 255 255
-42.194915771484375 -10.627018928527832 -48.37097930908203 255 255 255
-41.2963752746582 -9.248270034790039 -55.320831298828125 255 255 255
-47.31867980957031 -12.412792205810547 -55.52293014526367 255 255 255
-57.7922477722168 -6.326408863067627 -26.503314971923828 255 255 255
-57.07750701904297 -6.147371768951416 -30.186132431030273 255 255 255
-43.96259689331055 -8.10859489440918 -54.02458190917969 255 255 255
-47.02117156982422 -9.021645545959473 -37.80399703979492 255 255 255
-58.14817428588867 -9.319454193115234 -43.56062316894531 255 255 255
-58.057716369628906 -9.351926803588867 -43.93800735473633 255 255 255
-56.13359451293945 -13.80974292755127 -38.4525260925293 255 255 255
-59.182945251464844 -11.442652702331543 -38.843238830566406 255 255 255
-58.97563171386719 -4.483390808105469 -28.134496688842773 255 255 255
-43.87945556640625 -4.339089393615723 -30.888965606689453 255 255 255
-41.43694305419922 -9.102813720703125 -37.7379150390625 255 255 255
-59.55389404296875 -8.74917984008789 -32.18415832519531 255 255 255
-50.51466751098633 -14.16697883605957 -31.30736541748047 255 255 255
-51.30442428588867 -7.1369171142578125 -54.03173828125 255 255 255
-39.88120651245117 -9.617907524108887 -44.767127990722656 255 255 255
-42.8399658203125 -12.005960464477539 -48.32252502441406 255 255 255
-51.45234298706055 -12.445324897766113 -87.37776947021484 255 255 255
-44.329978942871094 -13.223203659057617 -81.73977661132812 255 255 255
-42.769351959228516 -10.264482498168945 -44.285240173339844 255 255 255
-60.78213119506836 -6.577556133270264 -45.553131103515625 255 255 255
-49.14900207519531 -21.85464096069336 -103.23946380615234 255 255 255
-51.47270584106445 -21.559656143188477 -101.35031127929688 255 255 255
-51.49448776245117 -15.164193153381348 -101.11502838134766 255 255 255
-60.56895065307617 -19.6544246673584 -135.426513671875 255 255 255
-64.62413024902344 -19.78635597229004 -128.9037628173828 255 255 255
-66.27230834960938 -17.528488159179688 -118.21861267089844 255 255 255
-78.75316619873047 -21.776063919067383 -135.5976104736328 255 255 255
-66.91079711914062 -25.46220588684082 -128.0841522216797 255 255 255
-42.068782806396484 -15.905044555664062 -56.72452926635742 255 255 255
-64.09262084960938 -14.200479507446289 -81.34820556640625 255 255 255
-63.96139144897461 -18.65009117126465 -127.83717346191406 255 255 255
-68.13077545166016 -19.65216636657715 -137.70887756347656 255 255 255
-66.53793334960938 -27.133251190185547 -131.05233764648438 255 255 255
-65.87823486328125 -22.57377052307129 -130.11721801757812 255 255 255
-70.17190551757812 -19.127517700195312 -135.76361083984375 255 255 255
-66.31243896484375 -21.15871810913086 -119.91832733154297 255 255 255
-63.41587829589844 -19.22300910949707 -101.21953582763672 255 255 255
-62.44586181640625 -21.449970245361328 -113.83920288085938 255 255 255
-51.25515365600586 -20.675609588623047 -97.53916931152344 255 255 255
-55.65617370605469 -14.00243091583252 -59.64081954956055 255 255 255
-51.62986373901367 -14.072318077087402 -66.3377914428711 255 255 255
-33.61589431762695 -15.463091850280762 -57.575748443603516 255 255 255
-50.367183685302734 -15.833681106567383 -108.54183197021484 255 255 255
-63.268123626708984 -13.446094512939453 -89.20592498779297 255 255 255
-57.78607940673828 -21.784225463867188 -100.77275848388672 255 255 255
-56.95802307128906 -22.0478458404541 -96.20278930664062 255 255 255
-54.54641342163086 -22.732419967651367 -88.9370346069336 255 255 255
-73.33753967285156 -17.193342208862305 -100.40147399902344 255 255 255
-69.66258239746094 -19.64451789855957 -68.01167297363281 255 255 255
-56.315155029296875 -23.16320037841797 -115.53862762451172 255 255 255
-52.76591110229492 -25.27838134765625 -93.7185287475586 255 255 255
-69.79916381835938 -22.526914596557617 -119.10192108154297 255 255 255
-55.390647888183594 -23.731828689575195 -114.02479553222656 255 255 255
-57.21538162231445 -23.555910110473633 -104.67062377929688 255 255 255
-71.21138763427734 -24.524192810058594 -104.99536895751953 255 255 255
-66.61282348632812 -24.10032844543457 -106.85700225830078 255 255 255
-67.03359985351562 -23.08033561706543 -110.1761703491211 255 255 255
-76.24745178222656 -19.37887191772461 -76.18560028076172 255 255 255
-66.9026107788086 -22.432477951049805 -114.60195922851562 255 255 255
-60.69805145263672 -17.558330535888672 -121.05796813964844 255 255 255
-47.92211151123047 -24.252819061279297 -102.31208038330078 255 255 255
-53.26313400268555 -26.412710189819336 -97.22909545898438 255 255 255
-57.897857666015625 -10.855453491210938 -76.41020965576172 255 255 255
-53.03675079345703 -16.369749069213867 -107.98499298095703 255 255 255
-64.49539184570312 -23.14809799194336 -108.53244018554688 255 255 255
-68.64031219482422 -21.06947135925293 -104.7298355102539 255 255 255
-69.2863540649414 -19.875438690185547 -94.62406158447266 255 255 255
-53.487064361572266 -22.567995071411133 -110.05049896240234 255 255 255
-55.95020294189453 -22.769821166992188 -113.40530395507812 255 255 255
-56.226985931396484 -15.957308769226074 -68.48262786865234 255 255 255
-47.5045166015625 -16.4675350189209 -74.92293548583984 255 255 255
-52.182151794433594 -17.63959312438965 -67.5218276977539 255 255 255
-52.73466491699219 -26.937068939208984 -89.93208312988281 255 255 255
-60.08229446411133 -14.910306930541992 -103.8245849609375 255 255 255
-45.78717041015625 -16.185476303100586 -84.86019134521484 255 255 255
-70.49578857421875 -19.374210357666016 -136.8892364501953 255 255 255
-41.84202575683594 -6.8597211837768555 -35.322532653808594 255 255 255
-65.16082000732422 -23.88990020751953 -116.47795104980469 255 255 255
-69.90614318847656 -21.262807846069336 -97.29458618164062 255 255 255
-53.033599853515625 -19.937698364257812 -102.53510284423828 255 255 255
-74.6329574584961 -19.346277236938477 -80.18373107910156 255 255 255
-62.694000244140625 -17.877887725830078 -121.25659942626953 255 255 255
-62.256866455078125 -15.2698392868042 -62.32148742675781 255 255 255
-44.0203742980957 -13.135726928710938 -81.39436340332031 255 255 255
-48.01063919067383 -15.692255020141602 -99.1279525756836 255 255 255
-48.427974700927734 -23.996469497680664 -102.61255645751953 255 255 255
-49.14015197753906 -18.71826171875 -98.33353424072266 255 255 255
-52.65999221801758 -21.29022789001465 -102.48050689697266 255 255 255
-60.13593292236328 -13.962881088256836 -98.84466552734375 255 255 255
-43.84795379638672 -13.132431030273438 -80.83525848388672 255 255 255
-60.12992858886719 -20.72467613220215 -95.14096069335938 255 255 255
-48.4787483215332 -14.482046127319336 -76.70311737060547 255 255 255
-65.23138427734375 -14.917794227600098 -70.38304901123047 255 255 255
-63.50943374633789 -23.618383407592773 -120.57877349853516 255 255 255
-66.76661682128906 -14.863822937011719 -97.1967544555664 255 255 255
-49.76258850097656 -14.455710411071777 -34.97762680053711 255 255 255
-40.14966583251953 -10.061094284057617 -43.856266021728516 255 255 255
-46.32664108276367 -12.79198932647705 -53.45565414428711 255 255 255
-43.11050796508789 -10.82216739654541 -50.16121292114258 255 255 255
-42.31679153442383 -9.821025848388672 -53.10036087036133 255 255 255
-57.42615509033203 -4.618603229522705 -34.59132766723633 255 255 255
-57.36251449584961 -6.975221157073975 -50.841285705566406 255 255 255
-46.2369270324707 -6.543203353881836 -45.236854553222656 255 255 255
-56.49214172363281 -7.991871356964111 -40.572723388671875 255 255 255
-50.04261779785156 -16.360280990600586 -30.03604507446289 255 255 255
-46.12928009033203 -6.4397783279418945 -45.11844253540039 255 255 255
-39.35888671875 -8.159245491027832 -46.013301849365234 255 255 255
-54.77482986450195 -10.636397361755371 -68.92742156982422 255 255 255
-49.77574157714844 -17.10196304321289 -66.90376281738281 255 255 255
-48.504234313964844 -15.021269798278809 -66.46526336669922 255 255 255
-58.33332443237305 -8.854853630065918 -61.54342269897461 255 255 255
-61.009891510009766 -8.774331092834473 -62.97292709350586 255 255 255
-59.283416748046875 -12.104242324829102 -57.10746765136719 255 255 255
-50.04853057861328 -7.403263092041016 -55.296119689941406 255 255 255
-57.60706329345703 -8.814647674560547 -63.09004592895508 255 255 255
-47.912933349609375 -12.035737037658691 -61.899505615234375 255 255 255
-48.75835418701172 -10.926724433898926 -64.96310424804688 255 255 255
-57.47085189819336 -21.957822799682617 -52.22061538696289 255 255 255
-56.278995513916016 -9.268232345581055 -66.9690170288086 255 255 255
-73.7487564086914 -12.8233003616333 -35.354820251464844 255 255 255
-43.6337776184082 -5.139835834503174 -38.878780364990234 255 255 255
-57.363868713378906 -12.061945915222168 -57.29678726196289 255 255 255
-54.849937438964844 -14.2986421585083 -46.62102127075195 255 255 255
-47.57290267944336 -11.853543281555176 -66.14729309082031 255 255 255
-57.949378967285156 -8.820895195007324 -41.343502044677734 255 255 255
-47.51565933227539 -8.15936279296875 -59.054359436035156 255 255 255
-53.49490737915039 -7.160468578338623 -52.43850326538086 255 255 255
-58.2430419921875 -8.892631530761719 -63.90976333618164 255 255 255
-56.264007568359375 -14.594535827636719 -58.74722671508789 255 255 255
-45.70105743408203 -9.59884262084961 -67.5241928100586 255 255 255
-46.9283447265625 -12.938765525817871 -50.85676956176758 255 255 255
-55.34846115112305 -8.724077224731445 -26.909278869628906 255 255 255
-38.79719924926758 -6.411456108093262 -33.6058464050293 255 255 255
-61.08807373046875 -8.50391674041748 -60.41261291503906 255 255 255
-45.92375183105469 -14.954290390014648 -53.94074630737305 255 255 255
-43.13417434692383 -9.455315589904785 -47.312904357910156 255 255 255
-47.49834060668945 -8.321821212768555 -56.37400436401367 255 255 255
-60.36905288696289 -7.7322678565979 -47.43411636352539 255 255 255
-56.33259201049805 -6.61273717880249 -48.8995475769043 255 255 255
-55.43867874145508 -11.379666328430176 -48.585330963134766 255 255 255
-57.329017639160156 -15.261208534240723 -42.24826431274414 255 255 255
-56.22128677368164 -9.895500183105469 -34.081722259521484 255 255 255
-65.15109252929688 -26.996051788330078 -118.63689422607422 255 255 255
-63.812259674072266 -23.700368881225586 -121.7503433227539 255 255 255
-65.5921401977539 -22.305017471313477 -129.60565185546875 255 255 255
-67.70201873779297 -27.02422523498535 -130.64678955078125 255 255 255
-41.938209533691406 -6.122138023376465 -35.633880615234375 255 255 255
-68.63284301757812 -27.431018829345703 -130.3902587890625 255 255 255
-67.96803283691406 -24.217849731445312 -131.87464904785156 255 255 255
-65.61768341064453 -19.056978225708008 -121.60736083984375 255 255 255
-70.15553283691406 -18.263124465942383 -120.66342163085938 255 255 255
-69.18220520019531 -26.84003257751465 -113.55448913574219 255 255 255
-19.8642520904541 -27.256771087646484 -160.48858642578125 255 255 255
-49.55557632446289 -15.791348457336426 -67.40584564208984 255 255 255
-49.369564056396484 -13.773787498474121 -74.9392318725586 255 255 255
-60.8641357421875 -8.907938003540039 -63.663265228271484 255 255 255
-46.647342681884766 -12.85938835144043 -77.82931518554688 255 255 255
-56.932010650634766 -18.446313858032227 -72.81257629394531 255 255 255
-50.94053268432617 -11.017066955566406 -77.42279815673828 255 255 255
-39.106868743896484 -8.90274429321289 -44.28934860229492 255 255 255
-60.43042755126953 -7.7818145751953125 -47.43458557128906 255 255 255
-53.5284423828125 -9.5017728805542 -61.21663284301758 255 255 255
-2.027397394180298 -27.25370216369629 -132.09066772460938 255 255 255
-68.7403564453125 -21.245708465576172 -144.26136779785156 255 255 255
-56.98870086669922 -22.763952255249023 -91.18907928466797 255 255 255
-32.61283493041992 -21.08219337463379 -76.63491821289062 255 255 255
-53.657711029052734 -24.749614715576172 -97.48078155517578 255 255 255
-60.49298858642578 -28.223249435424805 -149.2749786376953 255 255 255
-73.65281677246094 -30.12908172607422 -113.37090301513672 255 255 255
-69.4851303100586 -25.949420928955078 -125.21434783935547 255 255 255
-70.89910888671875 -29.150651931762695 -116.98252868652344 255 255 255
-68.97271728515625 -21.799041748046875 -120.38323211669922 255 255 255
-54.067508697509766 -33.56734848022461 -152.8419189453125 255 255 255
-69.84297180175781 -22.15335464477539 -122.2926025390625 255 255 255
-67.59251403808594 -141.1026153564453 -167.93580627441406 255 255 255
-37.06782531738281 -21.877336502075195 -122.42573547363281 255 255 255
-54.77993392944336 -36.58087158203125 -158.701416015625 255 255 255
-39.30915451049805 -24.495216369628906 -144.41123962402344 255 255 255
-26.16044044494629 -25.689538955688477 -142.02236938476562 255 255 255
-60.21714782714844 -32.09712219238281 -121.342041015625 255 255 255
-28.806360244750977 -19.262081146240234 -129.9563446044922 255 255 255
-34.5073356628418 -19.30538558959961 -130.57318115234375 255 255 255
-18.27467155456543 -20.151147842407227 -127.39176177978516 255 255 255
-70.09722137451172 -27.748151779174805 -131.98818969726562 255 255 255
-67.67916870117188 -23.732494354248047 -131.89569091796875 255 255 255
-66.07798767089844 -24.70610809326172 -133.0562744140625 255 255 255
-64.08876037597656 -25.464038848876953 -121.42242431640625 255 255 255
-64.34974670410156 -25.25855827331543 -120.00977325439453 255 255 255
-68.84800720214844 -28.81047248840332 -116.06166076660156 255 255 255
-67.76271057128906 -25.088106155395508 -114.86492919921875 255 255 255
-46.983158111572266 -29.035749435424805 -122.20635986328125 255 255 255
-50.25149154663086 -28.404701232910156 -123.40547943115234 255 255 255
-72.10371398925781 -26.881027221679688 -118.68156433105469 255 255 255
-65.40579223632812 -17.439838409423828 -123.16128540039062 255 255 255
-15.975217819213867 -67.91282653808594 -109.21983337402344 255 255 255
-40.14946365356445 -8.917288780212402 -46.0651969909668 255 255 255
-44.355690002441406 -8.467177391052246 -55.09260559082031 255 255 255
-54.98861312866211 -14.711402893066406 -55.3178596496582 255 255 255
-53.722679138183594 -12.150073051452637 -44.37091827392578 255 255 255
-57.52447509765625 -7.005569934844971 -50.83460998535156 255 255 255
-42.57313537597656 -10.489120483398438 -40.59791946411133 255 255 255
-58.1712760925293 -3.707364559173584 -24.89958953857422 255 255 255
-38.91967010498047 -8.093127250671387 -45.236934661865234 255 255 255
-50.70084762573242 -12.212958335876465 -46.562137603759766 255 255 255
-47.02878189086914 -15.918442726135254 -67.88436126708984 255 255 255
-49.81056213378906 -8.214065551757812 -62.36662673950195 255 255 255
-49.333457946777344 -13.449593544006348 -68.40486145019531 255 255 255
-55.009342193603516 -16.908796310424805 -39.72836685180664 255 255 255
-49.089088439941406 -19.801136016845703 -131.76651000976562 255 255 255
-23.791080474853516 -18.887840270996094 -112.96031951904297 255 255 255
-17.561880111694336 -24.65105628967285 -150.14544677734375 255 255 255
-19.03005027770996 -26.906574249267578 -159.629150390625 255 255 255
-18.137317657470703 -19.650644302368164 -122.32453155517578 255 255 255
-69.91771697998047 -22.20507049560547 -111.48800659179688 255 255 255
-69.6244888305664 -22.513486862182617 -119.03221130371094 255 255 255
-72.46659088134766 -26.833526611328125 -117.61151885986328 255 255 255
-76.6791763305664 -27.091320037841797 -115.89187622070312 255 255 255
-69.41753387451172 -19.972061157226562 -130.8046417236328 255 255 255
-47.21700668334961 -66.6908950805664 -118.08480072021484 255 255 255
-68.13671875 -20.713560104370117 -122.09110260009766 255 255 255
-66.86369323730469 -26.12349510192871 -127.69670104980469 255 255 255
-67.65966796875 -17.801973342895508 -122.13319396972656 255 255 255
-68.81280517578125 -22.87194061279297 -134.45599365234375 255 255 255
-61.70894241333008 -20.612234115600586 -125.31769561767578 255 255 255
-70.47298431396484 -26.66317367553711 -115.32174682617188 255 255 255
-58.96440124511719 -28.97382164001465 -149.6998291015625 255 255 255
0.21470770239830017 -22.3806209564209 -145.24671936035156 255 255 255
-47.310585021972656 -12.833257675170898 -55.7647590637207 255 255 255
-46.36803436279297 -10.657430648803711 -44.90278625488281 255 255 255
-49.617149353027344 -12.175164222717285 -82.0171127319336 255 255 255
-49.35118865966797 -12.315866470336914 -78.2334213256836 255 255 255
-47.79982376098633 -14.75520133972168 -68.64857482910156 255 255 255
-74.2558822631836 -27.75383758544922 -122.01419830322266 255 255 255
-72.7209243774414 -27.53230857849121 -117.29987335205078 255 255 255
-68.71916198730469 -27.713157653808594 -132.07937622070312 255 255 255
-62.75042724609375 -18.69789695739746 -127.3725814819336 255 255 255
-68.88350677490234 -21.35795021057129 -122.30271911621094 255 255 255
-63.093875885009766 -23.285802841186523 -119.87350463867188 255 255 255
-65.9291000366211 -19.23942756652832 -116.23823547363281 255 255 255
-73.14978790283203 -22.718151092529297 -106.99788665771484 255 255 255
-66.1695556640625 -24.877098083496094 -117.32484436035156 255 255 255
-44.78156280517578 -10.198064804077148 -33.80391311645508 255 255 255
-41.105934143066406 -7.1334099769592285 -36.246829986572266 255 255 255
-59.17291259765625 -6.9293532371521 -33.452083587646484 255 255 255
-38.80662536621094 -95.30266571044922 -84.36046600341797 255 255 255
-74.68363189697266 -120.51292419433594 -140.02694702148438 255 255 255
-66.90045166015625 -26.769460678100586 -116.06133270263672 255 255 255
-63.6973762512207 -19.79900550842285 -125.14224243164062 255 255 255
-13.372151374816895 -29.529151916503906 -139.68321228027344 255 255 255
-57.58846664428711 -15.778131484985352 -58.95351791381836 255 255 255
-42.8627815246582 -12.024191856384277 -48.32880783081055 255 255 255
-47.034358978271484 -8.255555152893066 -56.74713134765625 255 255 255
-58.27437973022461 -3.6457152366638184 -29.27276611328125 255 255 255
-66.88636779785156 -20.902982711791992 -83.03076934814453 255 255 255
-62.73127746582031 -16.33917808532715 -86.92289733886719 255 255 255
-64.13233947753906 -22.705650329589844 -114.8099594116211 255 255 255
-66.9381103515625 -24.34583854675293 -114.26716613769531 255 255 255
-65.93770599365234 -10.884529113769531 -77.23426055908203 255 255 255
-53.818336486816406 -20.725202560424805 -102.55699920654297 255 255 255
-9.202542304992676 -33.08742141723633 -158.04432678222656 255 255 255
-50.83146667480469 -27.07451057434082 -166.7327423095703 255 255 255
-49.425270080566406 -12.104911804199219 -81.65628051757812 255 255 255
-48.764404296875 -18.645227432250977 -71.62939453125 255 255 255
-28.974695205688477 -31.243478775024414 -147.32017517089844 255 255 255
-50.694969177246094 -13.547861099243164 -88.1547622680664 255 255 255
-46.187889099121094 -16.628108978271484 -81.85862731933594 255 255 255
-57.05998611450195 -21.38505744934082 -77.25666809082031 255 255 255
-72.55722045898438 -25.147220611572266 -119.20890808105469 255 255 255
-63.58651351928711 -17.926250457763672 -124.27877807617188 255 255 255
-64.57971954345703 -17.383575439453125 -121.0903549194336 255 255 255
-64.60063171386719 -27.7087345123291 -113.86165618896484 255 255 255
-63.89704132080078 -21.79411506652832 -122.92936706542969 255 255 255
-47.481807708740234 -8.266916275024414 -56.29007339477539 255 255 255
-54.76852035522461 -15.917887687683105 -60.80384826660156 255 255 255
-46.6010856628418 -7.375572204589844 -50.92192459106445 255 255 255
-47.693511962890625 -11.61928653717041 -63.24629592895508 255 255 255
-42.03874969482422 -10.965594291687012 -46.553382873535156 255 255 255
-72.39434814453125 -21.093463897705078 -120.82723999023438 255 255 255
-62.289894104003906 -22.952268600463867 -119.28973388671875 255 255 255
-61.90317153930664 -22.226943969726562 -119.91998291015625 255 255 255
-69.41110229492188 -25.910152435302734 -116.47506713867188 255 255 255
-54.01447296142578 -78.53194427490234 -107.7306137084961 255 255 255
-71.49160766601562 -28.048860549926758 -117.31420135498047 255 255 255
-69.77664184570312 -23.164304733276367 -119.16588592529297 255 255 255
-79.2786865234375 -23.79672622680664 -141.48634338378906 255 255 255
-56.309505462646484 -21.235998153686523 -140.22994995117188 255 255 255
-47.42333984375 -25.015554428100586 -130.09115600585938 255 255 255
-73.72411346435547 -18.083621978759766 -104.32722473144531 255 255 255
-70.36029815673828 -19.13651466369629 -109.35091400146484 255 255 255
-77.18524932861328 -16.44698715209961 -85.86034393310547 255 255 255
-61.20452117919922 -16.980281829833984 -116.92811584472656 255 255 255
-61.689388275146484 -17.452119827270508 -118.43244171142578 255 255 255
-63.474945068359375 -24.54674530029297 -118.45368957519531 255 255 255
-63.38924026489258 -17.640357971191406 -118.76033782958984 255 255 255
-61.39054870605469 -74.5660629272461 -76.68366241455078 255 255 255
-60.085960388183594 -24.041126251220703 -120.767333984375 255 255 255
-75.00861358642578 -26.947654724121094 -114.34722137451172 255 255 255
-66.30715942382812 -17.54096794128418 -116.9080581665039 255 255 255
-14.963537216186523 -19.50216293334961 -116.61479949951172 255 255 255
-47.73103332519531 -10.389657020568848 -71.23527526855469 255 255 255
-57.71422576904297 -16.402862548828125 -74.72368621826172 255 255 255
-58.03600311279297 -16.429149627685547 -69.51116943359375 255 255 255
-53.29892349243164 -9.020966529846191 -65.33924102783203 255 255 255
-56.980159759521484 -5.3871636390686035 -39.377410888671875 255 255 255
-59.78341293334961 -12.063465118408203 -66.89112854003906 255 255 255
-47.39019775390625 -21.75059700012207 -101.62359619140625 255 255 255
-64.27123260498047 -19.443294525146484 -90.57022857666016 255 255 255
-70.09803009033203 -22.594043731689453 -102.41824340820312 255 255 255
-37.936767578125 -18.12995147705078 -75.94384002685547 255 255 255
-47.73654556274414 -22.33531951904297 -101.89569091796875 255 255 255
-58.148338317871094 -20.678852081298828 -114.9070816040039 255 255 255
-42.78969955444336 -12.290908813476562 -87.62510681152344 255 255 255
-69.81132507324219 -18.95438003540039 -73.57597351074219 255 255 255
-62.9681282043457 -17.461990356445312 -118.84085083007812 255 255 255
-64.60767364501953 -22.10706329345703 -118.31180572509766 255 255 255
-65.47374725341797 -23.31551742553711 -115.8963851928711 255 255 255
-66.3695068359375 -17.73208999633789 -120.47178649902344 255 255 255
-66.52745056152344 -20.397541046142578 -116.01837158203125 255 255 255
-26.040536880493164 -19.48614501953125 -117.58535766601562 255 255 255
-29.410913467407227 -27.94650650024414 -163.84005737304688 255 255 255
-47.31058883666992 -15.662282943725586 -100.43987274169922 255 255 255
-68.47227478027344 -23.328645706176758 -131.3489990234375 255 255 255
-61.50326919555664 -17.520429611206055 -121.16710662841797 255 255 255
-60.12880325317383 -21.82470703125 -122.0501937866211 255 255 255
-66.06767272949219 -22.603473663330078 -119.22100830078125 255 255 255
-69.91289520263672 -22.828596115112305 -120.7602310180664 255 255 255
-63.57654571533203 -17.626646041870117 -119.71746063232422 255 255 255
-65.39458465576172 -23.52865982055664 -120.02372741699219 255 255 255
-74.19556427001953 -21.326906204223633 -120.45929718017578 255 255 255
-63.79218292236328 -25.763540267944336 -121.90792083740234 255 255 255
-18.881465911865234 -20.559011459350586 -115.66681671142578 255 255 255
-71.57615661621094 -26.76664161682129 -148.7811279296875 255 255 255
-66.1564712524414 -16.424100875854492 -112.45744323730469 255 255 255
-63.14487838745117 -17.42935562133789 -118.73967742919922 255 255 255
-66.53520202636719 -20.152217864990234 -120.0097427368164 255 255 255
-61.63312911987305 -16.918716430664062 -116.23954010009766 255 255 255
-69.88047790527344 -19.294452667236328 -118.78819274902344 255 255 255
-66.99764251708984 -18.126325607299805 -121.59396362304688 255 255 255
-68.31022644042969 -26.6486873626709 -118.29308319091797 255 255 255
-56.99358367919922 -9.630975723266602 -38.452789306640625 255 255 255
-54.95623779296875 -17.426570892333984 -54.520450592041016 255 255 255
-55.07815933227539 -17.820541381835938 -53.00352478027344 255 255 255
-51.812156677246094 -7.712880611419678 -56.34894943237305 255 255 255
-71.2621078491211 -19.1788330078125 -117.63179016113281 255 255 255
-67.54136657714844 -20.73926544189453 -121.52265930175781 255 255 255
-64.72848510742188 -22.189071655273438 -129.90928649902344 255 255 255
-34.20783996582031 -29.214771270751953 -153.4551239013672 255 255 255
-2.7208123207092285 -26.71592903137207 -133.53240966796875 255 255 255
-65.73236083984375 -22.35987091064453 -116.75209045410156 255 255 255
-66.028076171875 -16.463502883911133 -112.64085388183594 255 255 255
-62.83975601196289 -17.521141052246094 -119.10688781738281 255 255 255
-65.50641632080078 -22.34195899963379 -117.10026550292969 255 255 255
-59.1075439453125 -22.124757766723633 -113.12052154541016 255 255 255
-64.90617370605469 -21.001955032348633 -117.49537658691406 255 255 255
-61.96921157836914 -16.756315231323242 -113.36392211914062 255 255 255
-64.27217864990234 -20.732046127319336 -97.76004791259766 255 255 255
-71.77759552001953 -24.813552856445312 -115.85047912597656 255 255 255
-49.23027420043945 -12.672078132629395 -86.26911163330078 255 255 255
-56.89728546142578 -21.290082931518555 -53.74305725097656 255 255 255
-59.839962005615234 -10.246957778930664 -74.78993225097656 255 255 255
-59.70014953613281 -21.0971622467041 -72.61038970947266 255 255 255
-70.02192687988281 -16.560279846191406 -44.547882080078125 255 255 255
-61.05342102050781 -16.92923355102539 -68.55765533447266 255 255 255
-65.24041748046875 -15.112564086914062 -97.30529022216797 255 255 255
-60.88862609863281 -21.721887588500977 -98.24656677246094 255 255 255
-46.80575180053711 -13.983784675598145 -98.25480651855469 255 255 255
-56.51100158691406 -22.466632843017578 -89.10433959960938 255 255 255
-52.64654541015625 -12.540093421936035 -90.50208282470703 255 255 255
-62.92071533203125 -17.572641372680664 -120.22705841064453 255 255 255
-71.05218505859375 -19.915552139282227 -93.11943817138672 255 255 255
-67.94055938720703 -18.747745513916016 -105.25060272216797 255 255 255
-61.06980895996094 -17.71575164794922 -121.88771057128906 255 255 255
-70.78864288330078 -26.70892906188965 -93.17509460449219 255 255 255
-69.9729995727539 -23.204423904418945 -119.52458190917969 255 255 255
-42.06308364868164 -11.894782066345215 -58.96905517578125 255 255 255
-59.14216232299805 -12.114715576171875 -57.52487564086914 255 255 255
-48.58955764770508 -6.2530388832092285 -27.885417938232422 255 255 255
-49.27976608276367 -14.866652488708496 -70.81504821777344 255 255 255
-43.32029342651367 -13.251803398132324 -60.868064880371094 255 255 255
-46.06861114501953 -16.466041564941406 -67.16373443603516 255 255 255
-47.56839370727539 -10.395840644836426 -51.22822189331055 255 255 255
-31.64379119873047 -18.524322509765625 -58.453575134277344 255 255 255
-47.37006759643555 -15.71332836151123 -100.63839721679688 255 255 255
-61.62623596191406 -14.063634872436523 -97.66852569580078 255 255 255
-58.724754333496094 -15.1942720413208 -105.28048706054688 255 255 255
-47.82483673095703 -16.932138442993164 -97.27620697021484 255 255 255
-55.45183181762695 -23.866634368896484 -101.6639404296875 255 255 255
-58.96332931518555 -6.78339147567749 -23.41716194152832 255 255 255
-64.45152282714844 -20.26532745361328 -117.02256774902344 255 255 255
-69.9150390625 -22.242189407348633 -119.09734344482422 255 255 255
-62.96126937866211 -19.83422088623047 -120.09065246582031 255 255 255
-73.68368530273438 -22.53545570373535 -107.94398498535156 255 255 255
-76.27867889404297 -21.550748825073242 -106.04436492919922 255 255 255
-47.997108459472656 -21.568241119384766 -102.97039794921875 255 255 255
-70.75651550292969 -29.687410354614258 -84.1972885131836 255 255 255
-52.02257537841797 -20.532146453857422 -102.43433380126953 255 255 255
-57.06942367553711 -7.83237886428833 -44.80133819580078 255 255 255
-34.78519058227539 -20.204410552978516 -118.86245727539062 255 255 255
-18.133081436157227 -19.495132446289062 -122.30929565429688 255 255 255
-25.035945892333984 -27.007490158081055 -156.03863525390625 255 255 255
-22.74178123474121 -23.80371856689453 -144.8433380126953 255 255 255
-48.93376541137695 -16.952823638916016 -70.65499114990234 255 255 255
-58.1696891784668 -9.448017120361328 -58.48817825317383 255 255 255
-29.795225143432617 -21.41789436340332 -127.95185089111328 255 255 255
-69.48147583007812 -25.303659439086914 -135.0714111328125 255 255 255
-66.22621154785156 -20.07178497314453 -120.36060333251953 255 255 255
-70.0791015625 -23.22103500366211 -110.74715423583984 255 255 255
-65.36674499511719 -25.333702087402344 -110.87403106689453 255 255 255
-25.360017776489258 -21.744029998779297 -140.71221923828125 255 255 255
-20.225055694580078 -20.147003173828125 -132.56719970703125 255 255 255
-35.48725128173828 -29.057336807250977 -120.07841491699219 255 255 255
-8.185282707214355 -23.92668342590332 -121.4591064453125 255 255 255
-14.937275886535645 -19.59915542602539 -116.9952621459961 255 255 255
-23.71531867980957 -21.310392379760742 -126.35270690917969 255 255 255
-48.89545822143555 -16.4732666015625 -46.68144607543945 255 255 255
-22.452655792236328 -19.15972137451172 -128.3143310546875 255 255 255
-34.809940338134766 -21.917160034179688 -130.0801239013672 255 255 255
-28.308122634887695 -20.1364803314209 -134.16929626464844 255 255 255
-14.035126686096191 -22.014970779418945 -117.0546646118164 255 255 255
-37.17620849609375 -23.960397720336914 -103.63182830810547 255 255 255
-24.239269256591797 -18.826444625854492 -126.5786361694336 255 255 255
-47.59914016723633 -27.23678207397461 -164.57350158691406 255 255 255
-33.56804656982422 -28.182846069335938 -143.74192810058594 255 255 255
-64.82144165039062 -22.21387481689453 -129.85321044921875 255 255 255
-64.88925170898438 -24.948957443237305 -130.1226043701172 255 255 255
-3.787494659423828 -25.796314239501953 -150.81686401367188 255 255 255
-43.297489166259766 -26.212825775146484 -156.34140014648438 255 255 255
-53.9951171875 -31.368581771850586 -129.186767578125 255 255 255
-62.92995071411133 -26.491865158081055 -148.0358428955078 255 255 255
-64.36679077148438 -26.801448822021484 -148.79763793945312 255 255 255
-44.3027458190918 -23.95408058166504 -133.7705841064453 255 255 255
-44.686065673828125 -31.40184211730957 -158.84974670410156 255 255 255
-68.52810668945312 -19.357511520385742 -119.78069305419922 255 255 255
-64.30315399169922 -27.065359115600586 -133.4905242919922 255 255 255
-57.313392639160156 -12.107332229614258 -57.69832229614258 255 255 255
-50.20551300048828 -13.042309761047363 -68.18768310546875 255 255 255
-52.464637756347656 -7.477431297302246 -53.751976013183594 255 255 255
-58.367950439453125 -9.969653129577637 -53.73994445800781 255 255 255
-56.24008560180664 -7.401410102844238 -54.44599533081055 255 255 255
-58.69607162475586 -8.94872760772705 -62.058921813964844 255 255 255
-51.190162658691406 -21.756078720092773 -100.46446990966797 255 255 255
-54.19502639770508 -20.134197235107422 -102.25943756103516 255 255 255
-55.90658187866211 -22.049715042114258 -99.60392761230469 255 255 255
-48.36686706542969 -23.255319595336914 -103.14461517333984 255 255 255
-47.93064498901367 -8.460000991821289 -57.1869010925293 255 255 255
-52.52814483642578 -9.427730560302734 -67.27429962158203 255 255 255
-55.74931335449219 -18.923534393310547 -60.08424377441406 255 255 255
-51.150413513183594 -14.155590057373047 -62.59049987792969 255 255 255
-60.87406921386719 -16.37093734741211 -113.95494842529297 255 255 255
-54.64533233642578 -25.088130950927734 -101.12236022949219 255 255 255
-53.95379638671875 -24.712738037109375 -94.80888366699219 255 255 255
-56.22685241699219 -21.467039108276367 -100.09720611572266 255 255 255
-51.86267852783203 -15.439300537109375 -102.2047348022461 255 255 255
-36.65669631958008 -16.6079044342041 -69.1705093383789 255 255 255
-60.21339797973633 -9.471342086791992 -66.43640899658203 255 255 255
-56.89301681518555 -10.262255668640137 -42.60694122314453 255 255 255
-65.0066909790039 -16.769969940185547 -41.28616714477539 255 255 255
-58.22008514404297 -9.991767883300781 -33.0538444519043 255 255 255
-41.79237365722656 -32.21855545043945 -153.32424926757812 255 255 255
-50.22382354736328 -16.368188858032227 -37.801876068115234 255 255 255
-42.05474090576172 -6.897052764892578 -35.81704330444336 255 255 255
-40.266456604003906 -10.6387300491333 -42.48047637939453 255 255 255
-55.85740661621094 -21.060684204101562 -99.79737091064453 255 255 255
-47.28301239013672 -15.197700500488281 -99.9510498046875 255 255 255
-49.03187942504883 -15.49022102355957 -60.839778900146484 255 255 255
-7.0882344245910645 -20.443496704101562 -127.29888916015625 255 255 255
-67.25590515136719 -23.984272003173828 -132.5723419189453 255 255 255
-69.57225799560547 -22.221466064453125 -122.33552551269531 255 255 255
-62.470741271972656 -18.0609073638916 -123.8996810913086 255 255 255
-23.235767364501953 -21.386831283569336 -139.43638610839844 255 255 255
-36.39076232910156 -25.125062942504883 -147.0052947998047 255 255 255
-55.968711853027344 -3.8748295307159424 -30.247661590576172 255 255 255
-58.45567321777344 -26.688396453857422 -145.05621337890625 255 255 255
-59.05524444580078 -21.64598846435547 -120.77544403076172 255 255 255
-59.225120544433594 -20.941585540771484 -110.330322265625 255 255 255
-54.80891036987305 -36.690982818603516 -39.16868591308594 255 255 255
-66.24299621582031 -23.583404541015625 -118.89862823486328 255 255 255
-17.887102127075195 -18.77910614013672 -127.67741394042969 255 255 255
-68.17755889892578 -20.721553802490234 -122.08500671386719 255 255 255
-57.416160583496094 -29.269845962524414 -148.9922637939453 255 255 255
-31.042713165283203 -18.568758010864258 -125.85648345947266 255 255 255
-46.731014251708984 -30.805803298950195 -127.11389923095703 255 255 255
-61.95212173461914 -39.937870025634766 -165.35340881347656 255 255 255
-22.830270767211914 -23.832128524780273 -144.8965301513672 255 255 255
-4.804028034210205 -19.722164154052734 -128.07418823242188 255 255 255
-9.282666206359863 -22.710405349731445 -122.4561538696289 255 255 255
-9.125975608825684 -18.65499496459961 -124.15144348144531 255 255 255
-12.202649116516113 -21.309040069580078 -116.77058410644531 255 255 255
-24.77943992614746 -19.70150375366211 -118.58341217041016 255 255 255
-43.826324462890625 -13.136940002441406 -77.1789321899414 255 255 255
-58.062255859375 -13.781761169433594 -61.83254623413086 255 255 255
-50.607200622558594 -13.430327415466309 -91.40106964111328 255 255 255
-71.72042083740234 -25.56710433959961 -86.21624755859375 255 255 255
-49.71583557128906 -13.636652946472168 -94.91805267333984 255 255 255
-48.18126678466797 -20.94231414794922 -90.2833023071289 255 255 255
-47.79783248901367 -25.467164993286133 -91.24698638916016 255 255 255
-47.46158218383789 -21.949312210083008 -99.78009033203125 255 255 255
-22.86069107055664 -26.954715728759766 -152.2969970703125 255 255 255
-60.61796188354492 -26.951772689819336 -146.2375030517578 255 255 255
-35.11656188964844 -19.774768829345703 -130.35580444335938 255 255 255
-64.91580963134766 -19.866539001464844 -119.92333984375 255 255 255
-57.12200164794922 -28.446134567260742 -147.84658813476562 255 255 255
-22.265623092651367 -25.74364471435547 -155.47987365722656 255 255 255
-22.382179260253906 -20.153669357299805 -130.99830627441406 255 255 255
-22.964561462402344 -26.83415412902832 -158.3309783935547 255 255 255
-8.266033172607422 -27.892175674438477 -148.8948211669922 255 255 255
-22.153467178344727 -29.905935287475586 -161.57188415527344 255 255 255
-22.539403915405273 -26.888269424438477 -157.93234252929688 255 255 255
-48.522491455078125 -19.169103622436523 -98.79095458984375 255 255 255
-24.138690948486328 -27.069978713989258 -158.39767456054688 255 255 255
-47.8228759765625 -24.594228744506836 -133.35137939453125 255 255 255
-38.11611557006836 -19.95780372619629 -134.71099853515625 255 255 255
-60.550350189208984 -22.179553985595703 -130.5488739013672 255 255 255
-34.953948974609375 -19.610977172851562 -130.37718200683594 255 255 255
-64.22406005859375 -25.23527717590332 -120.16986846923828 255 255 255
-68.51293182373047 -20.68873405456543 -130.31863403320312 255 255 255
-64.84119415283203 -24.830177307128906 -127.56451416015625 255 255 255
-74.43741607666016 -26.502225875854492 -112.75518798828125 255 255 255
-71.97846221923828 -26.868165969848633 -114.38871002197266 255 255 255
-68.3533935546875 -25.439504623413086 -131.0747528076172 255 255 255
-65.12763977050781 -24.173429489135742 -131.01507568359375 255 255 255
-67.63389587402344 -17.52890968322754 -119.9724349975586 255 255 255
-66.49921417236328 -22.226011276245117 -133.7262725830078 255 255 255
-49.53825378417969 -11.211807250976562 -75.01215362548828 255 255 255
-57.61735153198242 -9.660177230834961 -69.61983489990234 255 255 255
-48.153873443603516 -13.401739120483398 -63.08143615722656 255 255 255
-57.48406982421875 -18.586410522460938 -76.59344482421875 255 255 255
-48.202415466308594 -16.462308883666992 -62.270389556884766 255 255 255
-57.25449752807617 -12.094770431518555 -57.65475082397461 255 255 255
-71.25618743896484 -18.8327579498291 -117.63362884521484 255 255 255
-67.45150756835938 -25.814516067504883 -114.38993835449219 255 255 255
-64.89106750488281 -19.16933250427246 -117.2967300415039 255 255 255
-64.27923583984375 -23.992034912109375 -120.98661804199219 255 255 255
