-150.3131561279297 2.036771774291992 110.19453430175781 255 255 255
-136.98770141601562 15.990594863891602 126.86641693115234 255 255 255
-158.18931579589844 14.420494079589844 108.93470001220703 255 255 255
-133.15933227539062 19.243215560913086 130.88943481445312 255 255 255
-125.5966567993164 19.192495346069336 134.9342041015625 255 255 255
-127.47264862060547 19.57783317565918 134.17208862304688 255 255 255
-155.9868927001953 8.28763484954834 103.48975372314453 255 255 255
-148.7221221923828 17.32317352294922 105.3801040649414 255 255 255
-150.53453063964844 17.116256713867188 104.65616607666016 255 255 255
-131.33384704589844 17.763561248779297 140.4689483642578 255 255 255
-129.0471649169922 19.084320068359375 139.5584259033203 255 255 255
-139.39788818359375 2.9324920177459717 112.74090576171875 255 255 255
-166.13916015625 9.36624813079834 113.6293716430664 255 255 255
-140.743896484375 3.259284257888794 112.96371459960938 255 255 255
-148.0442352294922 18.669952392578125 119.97552490234375 255 255 255
-149.595703125 10.806353569030762 91.24492645263672 255 255 255
-153.55023193359375 16.347545623779297 104.3963851928711 255 255 255
-158.41021728515625 8.816160202026367 91.52571105957031 255 255 255
-158.380615234375 9.001049041748047 91.66510009765625 255 255 255
-150.46144104003906 15.450898170471191 95.75440216064453 255 255 255
-154.6221160888672 11.302214622497559 85.54849243164062 255 255 255
-151.26048278808594 11.597396850585938 92.0271224975586 255 255 255
-153.0165557861328 4.250463485717773 108.5096435546875 255 255 255
-132.9645538330078 19.23274040222168 131.36151123046875 255 255 255
-161.67662048339844 10.410174369812012 119.6098403930664 255 255 255
-152.29283142089844 -0.025469636544585228 111.003662109375 255 255 255
-156.26193237304688 4.036370754241943 113.0957260131836 255 255 255
-140.64678955078125 17.17563247680664 133.52365112304688 255 255 255
-161.2222137451172 4.080309867858887 110.9317398071289 255 255 255
-140.759521484375 6.283403396606445 113.14707946777344 255 255 255
-138.1958465576172 19.09564208984375 127.13573455810547 255 255 255
-118.68492126464844 20.285015106201172 143.74290466308594 255 255 255
-169.47842407226562 6.589945316314697 108.37089538574219 255 255 255
-117.4048080444336 18.47317123413086 150.46694946289062 255 255 255
-117.6686019897461 17.67092514038086 150.56752014160156 255 255 255
-161.62277221679688 14.097503662109375 108.07831573486328 255 255 255
-118.34607696533203 18.49953842163086 135.07412719726562 255 255 255
-121.80136108398438 20.122234344482422 146.14694213867188 255 255 255
-126.8989028930664 19.707786560058594 138.06935119628906 255 255 255
-116.91972351074219 17.62748908996582 149.33306884765625 255 255 255
-119.20465850830078 13.715534210205078 145.6131134033203 255 255 255
-116.08128356933594 19.976757049560547 148.79783630371094 255 255 255
-118.06143951416016 12.819097518920898 145.4021453857422 255 255 255
-117.81776428222656 12.367836952209473 145.35260009765625 255 255 255
-115.849365234375 18.164920806884766 141.6078338623047 255 255 255
-121.31134033203125 18.85589599609375 146.5541229248047 255 255 255
-118.27002716064453 19.524734497070312 147.25196838378906 255 255 255
-118.93705749511719 16.357175827026367 152.6536865234375 255 255 255
-123.26822662353516 20.396732330322266 146.45863342285156 255 255 255
-133.7680206298828 20.91847038269043 137.76953125 255 255 255
-117.3211669921875 15.78931713104248 145.87298583984375 255 255 255
-117.82177734375 17.674470901489258 151.0573272705078 255 255 255
-135.4816436767578 16.167936325073242 123.09916687011719 255 255 255
-152.6836700439453 2.643855571746826 112.07823944091797 255 255 255
-140.44647216796875 19.486783981323242 131.47335815429688 255 255 255
-157.4604034423828 16.641605377197266 106.30615234375 255 255 255
-168.7653350830078 7.575843334197998 114.89183807373047 255 255 255
-150.60931396484375 3.567058801651001 107.47366333007812 255 255 255
-147.8719024658203 7.14484977722168 108.84439849853516 255 255 255
-165.03109741210938 8.412858009338379 111.59659576416016 255 255 255
-140.28343200683594 19.49456787109375 131.9844970703125 255 255 255
-147.69114685058594 11.325063705444336 129.63412475585938 255 255 255
-150.23178100585938 15.26593017578125 97.8797836303711 255 255 255
-157.14749145507812 13.431639671325684 104.67314147949219 255 255 255
-146.68096923828125 15.944971084594727 98.21866607666016 255 255 255
-123.66350555419922 16.31492042541504 127.12416076660156 255 255 255
-131.62620544433594 19.664615631103516 139.39414978027344 255 255 255
-137.9115753173828 17.111597061157227 124.49808502197266 255 255 255
-118.03298950195312 18.000560760498047 152.4684600830078 255 255 255
-147.7800750732422 10.795063018798828 129.59632873535156 255 255 255
-118.82012939453125 13.463091850280762 145.3585968017578 255 255 255
-119.03270721435547 18.067861557006836 154.1322784423828 255 255 255
-112.0021743774414 13.590953826904297 149.08949279785156 255 255 255
-113.07080078125 20.737327575683594 149.07447814941406 255 255 255
-114.9676513671875 18.57782745361328 142.3072052001953 255 255 255
-112.0406265258789 17.89533805847168 144.3297119140625 255 255 255
-112.27664947509766 20.0981388092041 143.96673583984375 255 255 255
-117.18596649169922 17.64253044128418 149.61378479003906 255 255 255
-137.20211791992188 17.130456924438477 125.20816040039062 255 255 255
-164.30490112304688 3.292606830596924 114.24459838867188 255 255 255
-127.63350677490234 20.06980323791504 143.3437042236328 255 255 255
-122.26942443847656 19.518417358398438 145.66873168945312 255 255 255
-118.3332290649414 20.49632453918457 147.89056396484375 255 255 255
-127.05681610107422 18.676658630371094 133.97532653808594 255 255 255
-150.0518341064453 10.498905181884766 91.5416259765625 255 255 255
-124.49678802490234 18.86094093322754 144.3919219970703 255 255 255
-117.8818588256836 12.911733627319336 145.52093505859375 255 255 255
-117.2320785522461 18.601173400878906 150.3434600830078 255 255 255
-115.967041015625 21.013654708862305 151.3160858154297 255 255 255
-118.91441345214844 16.356136322021484 152.66419982910156 255 255 255
-121.43751525878906 19.264726638793945 136.23260498046875 255 255 255
-102.75164794921875 21.26070785522461 159.5723114013672 255 255 255
-105.28363037109375 20.678573608398438 158.54107666015625 255 255 255
-156.01858520507812 8.21337890625 125.55974578857422 255 255 255
-118.15542602539062 14.474649429321289 145.4628448486328 255 255 255
-136.89413452148438 5.429220199584961 135.28594970703125 255 255 255
-130.99224853515625 19.037307739257812 132.41812133789062 255 255 255
-122.08206939697266 15.0835542678833 141.251220703125 255 255 255
-115.2269287109375 15.976036071777344 146.86468505859375 255 255 255
-149.65673828125 14.046937942504883 88.02339935302734 255 255 255
-151.6152801513672 14.337151527404785 102.23957824707031 255 255 255
-112.68435668945312 20.572729110717773 149.82061767578125 255 255 255
-111.17831420898438 12.484602928161621 149.23519897460938 255 255 255
-141.42788696289062 8.404379844665527 134.50930786132812 255 255 255
-142.591552734375 6.8264079093933105 132.72390747070312 255 255 255
-112.1041030883789 20.124631881713867 144.05809020996094 255 255 255
-127.5982666015625 19.425012588500977 142.29901123046875 255 255 255
-116.73794555664062 19.681413650512695 149.1500701904297 255 255 255
-117.04444885253906 20.672016143798828 147.81320190429688 255 255 255
-126.55760192871094 20.761089324951172 143.14306640625 255 255 255
-116.88455200195312 17.873729705810547 149.33436584472656 255 255 255
-118.82667541503906 18.313417434692383 148.3065948486328 255 255 255
-113.87364196777344 20.968746185302734 152.4459228515625 255 255 255
-118.6784896850586 20.968143463134766 148.33677673339844 255 255 255
-162.91798400878906 17.572690963745117 115.90225219726562 255 255 255
-151.691650390625 16.904766082763672 111.9836196899414 255 255 255
-160.25633239746094 7.393192291259766 112.2800521850586 255 255 255
-160.72389221191406 16.57132911682129 104.43058013916016 255 255 255
-161.6785430908203 13.484973907470703 119.90958404541016 255 255 255
-161.81301879882812 10.662256240844727 113.67215728759766 255 255 255
-162.0708465576172 10.951287269592285 119.59679412841797 255 255 255
-162.40011596679688 9.738838195800781 119.10028839111328 255 255 255
-167.37802124023438 16.579641342163086 102.8899154663086 255 255 255
-117.30305480957031 18.128137588500977 150.47354125976562 255 255 255
-117.3577651977539 20.32266616821289 144.62562561035156 255 255 255
-150.3468017578125 15.093648910522461 127.79136657714844 255 255 255
-154.47874450683594 15.769394874572754 108.38361358642578 255 255 255
-150.4036102294922 6.412248611450195 130.4512176513672 255 255 255
-117.47443389892578 20.46114730834961 144.5146942138672 255 255 255
-126.8787612915039 21.600475311279297 142.86453247070312 255 255 255
-116.44061279296875 20.80883026123047 149.640380859375 255 255 255
-117.51573944091797 18.644453048706055 150.81210327148438 255 255 255
-122.39457702636719 19.77309799194336 138.16786193847656 255 255 255
-118.17813110351562 13.9362154006958 142.47023010253906 255 255 255
-127.12928771972656 18.58390235900879 134.98411560058594 255 255 255
-118.93547821044922 11.788405418395996 144.63401794433594 255 255 255
-120.08982849121094 21.025257110595703 147.69796752929688 255 255 255
-117.77526092529297 15.66206169128418 149.35867309570312 255 255 255
-122.51968383789062 12.841207504272461 142.42222595214844 255 255 255
-157.75486755371094 15.792560577392578 95.16239929199219 255 255 255
-159.59193420410156 10.786855697631836 80.79426574707031 255 255 255
-150.32366943359375 15.288695335388184 95.93160247802734 255 255 255
-145.86256408691406 8.81966781616211 97.04449462890625 255 255 255
-122.52603149414062 14.17342472076416 141.9225616455078 255 255 255
-113.97550201416016 18.12826156616211 142.25576782226562 255 255 255
-114.82804107666016 20.60633659362793 150.36468505859375 255 255 255
-114.75648498535156 20.294464111328125 143.9735107421875 255 255 255
-157.15060424804688 16.008670806884766 98.17002868652344 255 255 255
-150.987548828125 14.535930633544922 102.52251434326172 255 255 255
-116.08641052246094 21.810483932495117 157.90914916992188 255 255 255
-103.30599212646484 21.23914909362793 159.5480194091797 255 255 255
-106.76398468017578 21.324825286865234 163.87823486328125 255 255 255
-120.96382141113281 14.86256217956543 143.08580017089844 255 255 255
-110.62103271484375 18.400959014892578 144.75564575195312 255 255 255
-146.55479431152344 6.864311218261719 131.91481018066406 255 255 255
-104.98416137695312 15.62289047241211 150.8458709716797 255 255 255
-117.7856674194336 16.79413604736328 143.1371307373047 255 255 255
-113.68775939941406 19.189754486083984 142.42971801757812 255 255 255
-116.78384399414062 17.417835235595703 141.5567169189453 255 255 255
-116.70709228515625 20.5866641998291 149.15843200683594 255 255 255
-105.26445770263672 21.499473571777344 157.74557495117188 255 255 255
-120.74810028076172 16.60051918029785 155.5531768798828 255 255 255
-117.91777038574219 17.669719696044922 151.10340881347656 255 255 255
-145.1490478515625 15.769181251525879 93.66348266601562 255 255 255
-140.27854919433594 4.414357662200928 114.93777465820312 255 255 255
-130.3101806640625 17.820016860961914 140.15757751464844 255 255 255
-158.74366760253906 6.297791957855225 107.90311431884766 255 255 255
-129.7534637451172 19.997026443481445 139.3262939453125 255 255 255
-142.19117736816406 9.48161792755127 94.25138854980469 255 255 255
-141.8391571044922 9.204582214355469 93.72742462158203 255 255 255
-149.4762420654297 14.851960182189941 102.36394500732422 255 255 255
-150.20962524414062 13.880392074584961 96.36468505859375 255 255 255
-145.80917358398438 7.7630228996276855 89.9517593383789 255 255 255
-150.13792419433594 15.055952072143555 91.44725799560547 255 255 255
-119.32974243164062 13.24996280670166 139.7599334716797 255 255 255
-114.29894256591797 19.161190032958984 142.83563232421875 255 255 255
-120.1308364868164 19.014368057250977 136.22427368164062 255 255 255
-117.40119171142578 20.854585647583008 150.83370971679688 255 255 255
-119.59105682373047 18.354642868041992 147.53555297851562 255 255 255
-117.02600860595703 17.598854064941406 149.6720428466797 255 255 255
-117.00867462158203 20.07887077331543 149.02828979492188 255 255 255
-116.73597717285156 20.627832412719727 147.51805114746094 255 255 255
-118.27247619628906 18.267454147338867 151.8756103515625 255 255 255
-116.75543212890625 18.334774017333984 149.2389373779297 255 255 255
-118.37333679199219 14.608503341674805 134.9285125732422 255 255 255
-122.37908935546875 19.76881980895996 138.1829376220703 255 255 255
-99.27323913574219 20.36994171142578 155.61717224121094 255 255 255
-159.4407958984375 10.192774772644043 90.43486022949219 255 255 255
-148.67010498046875 16.45343589782715 98.01593780517578 255 255 255
-150.00787353515625 10.189888000488281 91.3247299194336 255 255 255
-159.29116821289062 5.817477703094482 112.19676208496094 255 255 255
-106.83851623535156 16.497291564941406 164.94798278808594 255 255 255
-119.33059692382812 17.667551040649414 137.1133270263672 255 255 255
-146.15284729003906 18.467432022094727 120.77327728271484 255 255 255
-168.1009979248047 16.239011764526367 115.98318481445312 255 255 255
-106.8252182006836 20.57599639892578 149.1832733154297 255 255 255
-111.62519073486328 12.342724800109863 149.1326141357422 255 255 255
-119.49913024902344 13.80362606048584 145.44358825683594 255 255 255
-118.29536437988281 15.99020004272461 150.91893005371094 255 255 255
-120.09770202636719 20.513093948364258 145.6598358154297 255 255 255
-118.97999572753906 18.089351654052734 153.51992797851562 255 255 255
-118.10753631591797 18.293188095092773 151.8968505859375 255 255 255
-140.9425811767578 15.727651596069336 95.469970703125 255 255 255
-139.782470703125 7.824644565582275 92.9328842163086 255 255 255
-141.03561401367188 15.511565208435059 92.21355438232422 255 255 255
-154.16439819335938 9.900531768798828 92.88665008544922 255 255 255
-114.00502014160156 16.718290328979492 147.40396118164062 255 255 255
-124.29743194580078 18.72174835205078 134.8772735595703 255 255 255
-116.33344268798828 20.676095962524414 149.33311462402344 255 255 255
-126.95886993408203 20.3376522064209 142.0542449951172 255 255 255
-160.59323120117188 12.733386993408203 120.29605865478516 255 255 255
-161.92001342773438 8.713871955871582 82.02468872070312 255 255 255
-155.04888916015625 17.096155166625977 123.70601654052734 255 255 255
-166.0800323486328 9.31684684753418 114.92386627197266 255 255 255
-173.29751586914062 9.39395809173584 106.98998260498047 255 255 255
-167.68519592285156 15.288201332092285 112.09044647216797 255 255 255
-165.1963348388672 15.142776489257812 119.57278442382812 255 255 255
-111.8597412109375 18.657272338867188 149.019287109375 255 255 255
-150.63449096679688 4.7304606437683105 106.07180786132812 255 255 255
-156.29559326171875 16.008617401123047 98.45442199707031 255 255 255
-153.1329345703125 16.94774627685547 104.89710998535156 255 255 255
-137.54757690429688 19.519039154052734 133.96632385253906 255 255 255
-138.66465759277344 19.446311950683594 133.16958618164062 255 255 255
-111.49921417236328 20.052940368652344 150.3753662109375 255 255 255
-118.84715270996094 18.006258010864258 153.01470947265625 255 255 255
-121.88426971435547 20.09902572631836 141.52110290527344 255 255 255
-120.03761291503906 13.754233360290527 145.20980834960938 255 255 255
-149.69606018066406 14.47091293334961 90.07386016845703 255 255 255
-152.0656280517578 10.16335391998291 88.46484375 255 255 255
-138.45474243164062 14.24288558959961 92.572509765625 255 255 255
-153.08328247070312 14.307562828063965 92.8361587524414 255 255 255
-98.54878997802734 20.637367248535156 152.4217987060547 255 255 255
-108.7320327758789 16.6541748046875 150.21151733398438 255 255 255
-163.28839111328125 11.847600936889648 118.81775665283203 255 255 255
-167.9722137451172 7.319127559661865 109.46368408203125 255 255 255
-150.90463256835938 1.3148279190063477 107.03238677978516 255 255 255
-154.89306640625 3.051863670349121 106.28939819335938 255 255 255
-140.6374053955078 8.341361045837402 93.59568786621094 255 255 255
-153.99888610839844 16.433883666992188 99.63707733154297 255 255 255
-154.35934448242188 9.563252449035645 92.0194091796875 255 255 255
-154.9287109375 9.863454818725586 82.43639373779297 255 255 255
-112.63607788085938 20.716062545776367 149.25315856933594 255 255 255
-150.7415008544922 16.81353187561035 103.05799865722656 255 255 255
-146.1656951904297 10.960487365722656 95.01802825927734 255 255 255
-101.13837432861328 15.651659965515137 147.17063903808594 255 255 255
-105.77415466308594 21.528518676757812 152.138671875 255 255 255
-118.60456085205078 18.31968879699707 152.32525634765625 255 255 255
-122.17744445800781 19.994184494018555 145.70521545410156 255 255 255
-150.14283752441406 16.770977020263672 102.29881286621094 255 255 255
-115.42237091064453 18.170337677001953 141.44525146484375 255 255 255
-118.74028015136719 20.666263580322266 146.7592315673828 255 255 255
-115.88216400146484 20.942058563232422 150.48977661132812 255 255 255
-126.59095001220703 20.350547790527344 141.3675994873047 255 255 255
-122.69017791748047 18.66851806640625 145.61129760742188 255 255 255
-166.39822387695312 5.409339904785156 113.44688415527344 255 255 255
-122.161376953125 15.167333602905273 141.26185607910156 255 255 255
-98.32926940917969 20.61760139465332 151.92440795898438 255 255 255
-110.48146057128906 19.70624351501465 145.2396240234375 255 255 255
-120.26173400878906 18.995134353637695 155.75222778320312 255 255 255
-122.97566223144531 16.463029861450195 128.16014099121094 255 255 255
-115.42672729492188 20.8649959564209 150.5494384765625 255 255 255
-150.53274536132812 5.442982196807861 104.8644790649414 255 255 255
-158.6453399658203 7.0336480140686035 112.18985748291016 255 255 255
-157.7011260986328 5.256396770477295 108.4142074584961 255 255 255
-165.91612243652344 5.657508850097656 114.133056640625 255 255 255
-150.0344696044922 10.19231128692627 128.425537109375 255 255 255
-139.62969970703125 7.342209339141846 114.24737548828125 255 255 255
-163.1580810546875 1.6542502641677856 113.71832275390625 255 255 255
-131.11380004882812 17.752229690551758 139.583740234375 255 255 255
-134.66600036621094 19.02594566345215 135.81109619140625 255 255 255
-131.16091918945312 17.757884979248047 139.5782928466797 255 255 255
-141.4249725341797 11.010320663452148 134.28695678710938 255 255 255
-152.7230682373047 3.4870781898498535 112.93064880371094 255 255 255
-150.17933654785156 2.2554426193237305 106.9005126953125 255 255 255
-131.1062469482422 17.7856502532959 139.5885467529297 255 255 255
-148.30224609375 15.527451515197754 88.81460571289062 255 255 255
-152.44961547851562 15.399747848510742 98.88078308105469 255 255 255
-154.7476043701172 14.89223861694336 95.56861114501953 255 255 255
-123.49189758300781 18.689146041870117 134.52430725097656 255 255 255
-122.18780517578125 19.5057315826416 145.7118377685547 255 255 255
-117.94084930419922 20.094745635986328 148.4067840576172 255 255 255
-117.88470458984375 20.560461044311523 146.31968688964844 255 255 255
-120.80950164794922 20.489103317260742 146.38348388671875 255 255 255
-123.88842010498047 20.341672897338867 143.85284423828125 255 255 255
-153.74154663085938 7.1617512702941895 114.64877319335938 255 255 255
-126.6981201171875 20.331872940063477 142.16912841796875 255 255 255
-106.43251037597656 17.675498962402344 150.1231689453125 255 255 255
-100.27649688720703 19.822423934936523 150.83045959472656 255 255 255
-120.65044403076172 19.858051300048828 139.34922790527344 255 255 255
-134.48992919921875 17.301301956176758 124.26171112060547 255 255 255
-118.09996795654297 19.156185150146484 151.64651489257812 255 255 255
-146.14830017089844 17.989803314208984 113.75654602050781 255 255 255
-171.9790802001953 13.872441291809082 111.85395812988281 255 255 255
-172.97418212890625 14.201722145080566 105.3456802368164 255 255 255
-152.65194702148438 12.353368759155273 98.111328125 255 255 255
-158.52732849121094 9.036669731140137 82.34166717529297 255 255 255
-149.3014678955078 17.35868263244629 105.36827087402344 255 255 255
-150.98655700683594 9.333985328674316 92.7600326538086 255 255 255
-148.93980407714844 16.3836727142334 96.20921325683594 255 255 255
-149.09963989257812 15.155128479003906 90.27330780029297 255 255 255
-119.46018981933594 19.681941986083984 153.80860900878906 255 255 255
-153.926025390625 17.057819366455078 112.58006286621094 255 255 255
-160.7897491455078 14.723518371582031 119.86529541015625 255 255 255
-118.05374145507812 13.70528793334961 143.75051879882812 255 255 255
-110.27898406982422 21.440425872802734 158.70668029785156 255 255 255
-125.3902587890625 19.665653228759766 142.98033142089844 255 255 255
-125.40389251708984 19.64081573486328 136.11904907226562 255 255 255
-126.0113525390625 18.652698516845703 134.78248596191406 255 255 255
-120.82251739501953 20.367279052734375 146.3862762451172 255 255 255
-103.46207427978516 16.829423904418945 152.84266662597656 255 255 255
-128.42572021484375 13.294065475463867 141.03924560546875 255 255 255
-118.50846862792969 19.58353042602539 153.97854614257812 255 255 255
-120.88617706298828 17.68263816833496 153.5637664794922 255 255 255
-118.7684555053711 17.815603256225586 152.43377685546875 255 255 255
-153.8878936767578 14.947131156921387 93.72234344482422 255 255 255
-148.31405639648438 4.193844795227051 94.2862319946289 255 255 255
-151.45591735839844 15.687524795532227 102.01830291748047 255 255 255
-121.53520202636719 18.42293930053711 146.0146484375 255 255 255
-105.56884765625 13.388755798339844 152.13217163085938 255 255 255
-129.3626708984375 16.591167449951172 144.37135314941406 255 255 255
-107.43002319335938 16.390487670898438 151.17930603027344 255 255 255
-98.322021484375 13.59953498840332 153.94717407226562 255 255 255
-105.32000732421875 15.411636352539062 151.85696411132812 255 255 255
-121.1602554321289 20.919431686401367 147.03245544433594 255 255 255
-117.67678833007812 20.866838455200195 151.74208068847656 255 255 255
-109.2831802368164 21.025127410888672 153.42039489746094 255 255 255
-119.28266906738281 14.281429290771484 144.4591827392578 255 255 255
-120.32496643066406 19.05517578125 155.77345275878906 255 255 255
-120.72000122070312 16.94057273864746 147.53822326660156 255 255 255
-107.77539825439453 21.4648380279541 157.4765167236328 255 255 255
-119.18651580810547 21.17754554748535 153.98512268066406 255 255 255
-111.1240234375 20.14085578918457 144.89239501953125 255 255 255
-116.99730682373047 13.933486938476562 146.24050903320312 255 255 255
-111.73016357421875 13.513978004455566 149.6797637939453 255 255 255
-135.29188537597656 16.013729095458984 127.8104019165039 255 255 255
-157.56460571289062 8.996779441833496 112.34201049804688 255 255 255
-156.42257690429688 18.494155883789062 117.38130950927734 255 255 255
-146.1584930419922 18.29783058166504 117.63990020751953 255 255 255
-155.92498779296875 9.291691780090332 87.6083984375 255 255 255
-154.3542022705078 12.104143142700195 102.1493911743164 255 255 255
-163.84786987304688 13.155876159667969 102.45204162597656 255 255 255
-148.20565795898438 9.598276138305664 117.72005462646484 255 255 255
-127.16376495361328 19.348783493041992 134.335693359375 255 255 255
-131.34780883789062 19.51605987548828 135.13510131835938 255 255 255
-125.23643493652344 19.32009506225586 135.65953063964844 255 255 255
-148.77256774902344 6.650223255157471 110.5182876586914 255 255 255
-126.40586853027344 16.759050369262695 131.06072998046875 255 255 255
-149.80972290039062 1.8445384502410889 108.41732025146484 255 255 255
-131.04006958007812 19.042512893676758 132.3723907470703 255 255 255
-138.15219116210938 15.604559898376465 125.2113265991211 255 255 255
-118.42298126220703 20.522790908813477 147.57481384277344 255 255 255
-120.09036254882812 17.567733764648438 136.13743591308594 255 255 255
-116.639892578125 20.04776954650879 149.1444091796875 255 255 255
-117.76150512695312 17.637710571289062 150.92506408691406 255 255 255
-116.47389221191406 18.82444190979004 141.32151794433594 255 255 255
-147.44155883789062 13.540411949157715 110.38721466064453 255 255 255
-149.73899841308594 9.652328491210938 97.9072036743164 255 255 255
-161.2320556640625 11.786970138549805 105.9767837524414 255 255 255
-118.66653442382812 13.535600662231445 143.4307861328125 255 255 255
-113.2242660522461 14.875519752502441 147.86053466796875 255 255 255
-118.25029754638672 11.955012321472168 146.4507598876953 255 255 255
-116.46582794189453 14.211219787597656 144.8450164794922 255 255 255
-117.2909164428711 15.26762580871582 145.3197021484375 255 255 255
-162.3087158203125 12.815727233886719 115.07567596435547 255 255 255
-132.32533264160156 19.554838180541992 138.09091186523438 255 255 255
-113.94216918945312 19.18425941467285 142.03004455566406 255 255 255
-116.46591186523438 20.433841705322266 146.07891845703125 255 255 255
-117.40735626220703 20.351449966430664 144.55648803710938 255 255 255
-119.67330169677734 19.052091598510742 136.80799865722656 255 255 255
-126.13645935058594 18.04264259338379 143.0384979248047 255 255 255
-140.12623596191406 4.434924125671387 114.01937103271484 255 255 255
-157.14476013183594 -3.25876784324646 109.00751495361328 255 255 255
-152.5132293701172 11.282364845275879 106.93502044677734 255 255 255
-138.8919219970703 14.400257110595703 93.36974334716797 255 255 255
-145.5623321533203 9.646530151367188 90.1775894165039 255 255 255
-149.51849365234375 12.676041603088379 91.2111587524414 255 255 255
-116.86012268066406 20.68321418762207 148.84182739257812 255 255 255
-138.7428436279297 14.309552192687988 92.98676300048828 255 255 255
-147.67303466796875 12.492141723632812 101.62655639648438 255 255 255
-147.22731018066406 14.38803768157959 86.38153839111328 255 255 255
-108.33601379394531 21.14129638671875 158.0243377685547 255 255 255
-117.15857696533203 15.896178245544434 149.53384399414062 255 255 255
-119.95404052734375 11.528736114501953 144.98121643066406 255 255 255
-118.17354583740234 14.506773948669434 145.40884399414062 255 255 255
-156.51513671875 12.000893592834473 93.71092987060547 255 255 255
-111.33264923095703 18.753173828125 152.27609252929688 255 255 255
-169.2609100341797 16.28472328186035 108.85176849365234 255 255 255
-150.06222534179688 7.24055814743042 97.21426391601562 255 255 255
-165.1012725830078 16.18150520324707 109.71979522705078 255 255 255
-155.72567749023438 15.341821670532227 105.0513916015625 255 255 255
-153.254150390625 18.54131317138672 117.74047088623047 255 255 255
-146.2063446044922 17.900461196899414 113.50586700439453 255 255 255
-118.3115234375 20.016281127929688 141.24195861816406 255 255 255
-128.3029327392578 9.651976585388184 135.9755096435547 255 255 255
-115.51293182373047 17.67424964904785 151.26388549804688 255 255 255
-120.38483428955078 16.91834831237793 155.6932373046875 255 255 255
-111.33280181884766 20.496047973632812 147.8349609375 255 255 255
-118.42151641845703 13.655691146850586 145.49261474609375 255 255 255
-118.58406829833984 12.927639961242676 145.71861267089844 255 255 255
-145.66610717773438 9.92508602142334 90.58589935302734 255 255 255
-149.81138610839844 12.537951469421387 92.5739517211914 255 255 255
-115.24182891845703 16.26954460144043 142.20335388183594 255 255 255
-114.90361022949219 20.68990135192871 149.2041778564453 255 255 255
-119.73601531982422 13.842707633972168 145.37477111816406 255 255 255
-150.69729614257812 8.123115539550781 128.13604736328125 255 255 255
-127.90603637695312 16.893278121948242 130.0179901123047 255 255 255
-128.3943328857422 20.052288055419922 139.9832305908203 255 255 255
-149.4330596923828 8.531156539916992 128.6598663330078 255 255 255
-168.95452880859375 5.699741363525391 115.77506256103516 255 255 255
-111.38346862792969 13.048689842224121 143.3582000732422 255 255 255
-117.74613189697266 12.822382926940918 146.0733184814453 255 255 255
-169.49082946777344 8.13335132598877 112.1272201538086 255 255 255
-111.39398956298828 21.02849769592285 153.30050659179688 255 255 255
-111.17216491699219 18.465585708618164 144.8148193359375 255 255 255
-167.5768280029297 12.785847663879395 117.3774185180664 255 255 255
-150.23524475097656 3.9492387771606445 105.05424499511719 255 255 255
-150.8708953857422 1.3627099990844727 105.82910919189453 255 255 255
-140.8105010986328 14.386988639831543 134.15760803222656 255 255 255
-148.95791625976562 2.7397782802581787 108.45055389404297 255 255 255
-140.9045867919922 14.261030197143555 133.8878173828125 255 255 255
-147.63287353515625 19.09699821472168 127.32096862792969 255 255 255
-151.94989013671875 0.5503359436988831 106.98230743408203 255 255 255
-117.74411010742188 20.478137969970703 145.1429901123047 255 255 255
-131.023681640625 20.021821975708008 138.70211791992188 255 255 255
-139.6411590576172 15.024299621582031 91.20954132080078 255 255 255
-148.4389190673828 10.323561668395996 89.12946319580078 255 255 255
-106.79595947265625 19.10625648498535 164.474609375 255 255 255
-111.62925720214844 13.119797706604004 149.6498260498047 255 255 255
-117.07793426513672 18.528696060180664 150.43370056152344 255 255 255
-116.22683715820312 20.02621078491211 148.81263732910156 255 255 255
-118.97355651855469 11.107060432434082 145.9175567626953 255 255 255
-118.70130920410156 11.181928634643555 145.05372619628906 255 255 255
-117.89745330810547 15.1791353225708 144.87225341796875 255 255 255
-107.57179260253906 21.417659759521484 157.497802734375 255 255 255
-110.83614349365234 13.82435417175293 149.88699340820312 255 255 255
-152.2439422607422 13.9899320602417 99.9837646484375 255 255 255
-117.48199462890625 19.4322566986084 151.1099853515625 255 255 255
-158.31484985351562 16.624021530151367 105.82889556884766 255 255 255
-151.87205505371094 14.532543182373047 100.90898895263672 255 255 255
-113.25264739990234 19.774314880371094 143.36656188964844 255 255 255
-158.07052612304688 7.879939556121826 81.09673309326172 255 255 255
-159.8891143798828 10.849526405334473 109.74386596679688 255 255 255
-117.87351989746094 20.501327514648438 144.148193359375 255 255 255
-112.98218536376953 19.593215942382812 142.69032287597656 255 255 255
-148.91796875 10.649090766906738 128.99029541015625 255 255 255
-116.95185852050781 18.625560760498047 149.85597229003906 255 255 255
-105.26681518554688 21.27777099609375 158.3097686767578 255 255 255
-118.47383880615234 18.196786880493164 154.02108764648438 255 255 255
-123.89431762695312 19.677888870239258 136.74026489257812 255 255 255
-141.21011352539062 15.52431583404541 92.6889419555664 255 255 255
-117.04532623291016 18.608783721923828 149.8323516845703 255 255 255
-146.36605834960938 18.827455520629883 129.56512451171875 255 255 255
-111.63423156738281 12.54691219329834 149.59361267089844 255 255 255
-164.5478515625 11.745826721191406 118.50444030761719 255 255 255
-119.18225860595703 19.535127639770508 153.92523193359375 255 255 255
-121.21527862548828 14.90825080871582 142.52684020996094 255 255 255
-118.65833282470703 18.300752639770508 152.4285430908203 255 255 255
-105.41426086425781 14.231677055358887 151.91348266601562 255 255 255
-106.45977783203125 21.33910369873047 164.61065673828125 255 255 255
-161.93812561035156 10.092286109924316 119.81424713134766 255 255 255
-127.23768615722656 17.74094581604004 130.85963439941406 255 255 255
-123.8343505859375 18.231037139892578 131.79971313476562 255 255 255
-121.69076538085938 19.62370491027832 138.03045654296875 255 255 255
-118.62220764160156 14.515132904052734 145.03733825683594 255 255 255
-138.50637817382812 11.023865699768066 135.66424560546875 255 255 255
-115.68150329589844 17.178468704223633 144.88230895996094 255 255 255
-118.94503021240234 21.194730758666992 154.12864685058594 255 255 255
-116.19404602050781 20.127391815185547 146.53976440429688 255 255 255
-110.25439453125 19.93473243713379 145.4348907470703 255 255 255
-111.09933471679688 18.37805938720703 144.45765686035156 255 255 255
-165.64112854003906 13.67447280883789 117.80928802490234 255 255 255
-145.68028259277344 16.3577823638916 98.83721923828125 255 255 255
-149.9409637451172 10.994675636291504 91.429931640625 255 255 255
-150.4831085205078 11.13534164428711 97.81017303466797 255 255 255
-156.2845458984375 15.977982521057129 98.40596008300781 255 255 255
-139.3584747314453 19.51520538330078 132.5938720703125 255 255 255
-141.6778106689453 8.310209274291992 134.3845977783203 255 255 255
-166.0760040283203 16.436885833740234 105.52184295654297 255 255 255
-117.05045318603516 16.125049591064453 149.6134490966797 255 255 255
-161.94065856933594 15.6933012008667 117.21175384521484 255 255 255
-110.44139099121094 13.334178924560547 150.3381805419922 255 255 255
-115.98837280273438 11.074735641479492 147.69534301757812 255 255 255
-130.39169311523438 19.953094482421875 138.92617797851562 255 255 255
-118.37945556640625 20.47687530517578 148.4678497314453 255 255 255
-144.08901977539062 19.452880859375 129.97789001464844 255 255 255
-140.74935913085938 18.0163516998291 133.33555603027344 255 255 255
-113.6429672241211 20.004596710205078 143.26800537109375 255 255 255
-118.91972351074219 13.252549171447754 144.48590087890625 255 255 255
-119.98847198486328 18.973020553588867 137.7384796142578 255 255 255
-113.63201904296875 20.00501823425293 143.26246643066406 255 255 255
-111.05864715576172 19.922544479370117 144.32498168945312 255 255 255
-105.96825408935547 21.15626335144043 164.22962951660156 255 255 255
-153.31739807128906 18.53360366821289 117.84428405761719 255 255 255
-152.3502960205078 18.621591567993164 117.6224365234375 255 255 255
-116.24333953857422 12.98772144317627 147.34986877441406 255 255 255
-118.38797760009766 11.93310832977295 145.34725952148438 255 255 255
-106.09107208251953 14.48215103149414 151.54783630371094 255 255 255
-137.4047088623047 17.372209548950195 134.94137573242188 255 255 255
-117.00505828857422 18.129966735839844 149.85562133789062 255 255 255
-111.23200225830078 20.48110008239746 148.12045288085938 255 255 255
-132.07339477539062 19.34593963623047 131.3200225830078 255 255 255
-123.00005340576172 18.362123489379883 130.9424285888672 255 255 255
-162.93820190429688 15.883516311645508 110.11052703857422 255 255 255
-153.9443359375 17.153139114379883 104.97810363769531 255 255 255
-145.6242218017578 16.336912155151367 98.94429779052734 255 255 255
-144.95803833007812 16.055021286010742 98.09883117675781 255 255 255
-139.27622985839844 14.421406745910645 86.7410888671875 255 255 255
-151.0177764892578 8.258322715759277 93.58577728271484 255 255 255
-140.87908935546875 6.229094982147217 113.01261901855469 255 255 255
-139.0186004638672 5.308088779449463 112.66098022460938 255 255 255
-171.19195556640625 6.866543292999268 114.39496612548828 255 255 255
-172.63624572753906 5.147228717803955 113.01409912109375 255 255 255
-167.4359588623047 -0.9139700531959534 104.91268920898438 255 255 255
-136.80908203125 20.246522903442383 135.99691772460938 255 255 255
-118.18074035644531 18.369884490966797 148.544921875 255 255 255
-116.7506332397461 20.70825958251953 148.95071411132812 255 255 255
-106.56315612792969 21.44221305847168 165.0870361328125 255 255 255
-119.19384765625 12.843307495117188 145.15408325195312 255 255 255
-104.45658111572266 21.26604652404785 156.60873413085938 255 255 255
-117.22306823730469 15.916387557983398 149.5797119140625 255 255 255
-111.85804748535156 14.206513404846191 148.7952423095703 255 255 255
-146.50950622558594 15.814387321472168 93.63211059570312 255 255 255
-106.96762084960938 19.54462432861328 164.55648803710938 255 255 255
-106.55873107910156 21.65962791442871 157.82945251464844 255 255 255
-113.13211822509766 9.945504188537598 149.2051544189453 255 255 255
-157.19601440429688 16.019901275634766 98.04561614990234 255 255 255
-117.23119354248047 19.790542602539062 150.03097534179688 255 255 255
-116.71307373046875 20.40739631652832 146.96377563476562 255 255 255
-134.25094604492188 19.0197811126709 136.09115600585938 255 255 255
-104.82539367675781 21.150285720825195 158.23960876464844 255 255 255
-107.05934143066406 20.586021423339844 149.03858947753906 255 255 255
-138.9571990966797 12.282913208007812 134.3157501220703 255 255 255
-116.25993347167969 17.685699462890625 149.67156982421875 255 255 255
-119.3595962524414 17.460119247436523 148.2812042236328 255 255 255
-149.5374298095703 12.233304023742676 91.44631958007812 255 255 255
-150.87725830078125 9.9439058303833 94.21942901611328 255 255 255
-152.0818634033203 5.1460442543029785 85.86126708984375 255 255 255
-142.05101013183594 8.461522102355957 94.88672637939453 255 255 255
-162.32350158691406 5.6298675537109375 113.91150665283203 255 255 255
-128.83786010742188 12.438755989074707 136.2696075439453 255 255 255
-123.75348663330078 18.193986892700195 144.73703002929688 255 255 255
-125.53309631347656 20.398706436157227 143.0899200439453 255 255 255
-154.6197052001953 16.65359878540039 112.84832000732422 255 255 255
-109.63424682617188 11.334425926208496 150.5801239013672 255 255 255
-118.13854217529297 18.278879165649414 151.88998413085938 255 255 255
-118.01148986816406 18.058250427246094 152.7991943359375 255 255 255
-117.51055145263672 17.697725296020508 150.5608367919922 255 255 255
-113.54209899902344 20.271303176879883 145.1744384765625 255 255 255
-161.4937286376953 8.938009262084961 118.914794921875 255 255 255
-117.86898803710938 21.22954559326172 152.3928680419922 255 255 255
-104.13798522949219 21.53554344177246 158.51405334472656 255 255 255
-156.5441436767578 18.445819854736328 117.24745178222656 255 255 255
-151.41140747070312 14.6842622756958 91.31802368164062 255 255 255
-154.01077270507812 12.15227222442627 100.16514587402344 255 255 255
-151.9366455078125 11.107629776000977 109.33141326904297 255 255 255
-152.23822021484375 12.410897254943848 95.33646392822266 255 255 255
-114.60332489013672 19.94300651550293 142.44198608398438 255 255 255
-117.00627899169922 14.290546417236328 146.214599609375 255 255 255
-116.96920013427734 19.1170711517334 149.12474060058594 255 255 255
-106.69449615478516 21.46443748474121 157.03028869628906 255 255 255
-102.53256225585938 15.045364379882812 153.56646728515625 255 255 255
-119.46670532226562 19.034379959106445 137.24072265625 255 255 255
-137.49227905273438 19.958419799804688 123.19074249267578 255 255 255
-117.26199340820312 20.0787353515625 148.95811462402344 255 255 255
-154.72007751464844 10.335095405578613 80.7811050415039 255 255 255
-113.9925765991211 19.22159767150879 142.0118865966797 255 255 255
-154.38836669921875 11.207427978515625 123.34286499023438 255 255 255
-149.9053955078125 -1.0512113571166992 108.35675811767578 255 255 255
-161.8057403564453 11.217802047729492 117.04832458496094 255 255 255
-109.57466125488281 13.609766006469727 150.65159606933594 255 255 255
-123.13707733154297 14.168966293334961 140.0681610107422 255 255 255
-117.4891128540039 20.54766845703125 146.87657165527344 255 255 255
-116.32825469970703 21.05056381225586 151.00335693359375 255 255 255
-103.83375549316406 16.78901481628418 152.73574829101562 255 255 255
-103.27291107177734 14.825071334838867 153.2796630859375 255 255 255
-116.66398620605469 15.948282241821289 149.7470703125 255 255 255
-103.70709228515625 16.804302215576172 152.32418823242188 255 255 255
-160.40020751953125 15.247344017028809 119.54351043701172 255 255 255
-161.76718139648438 11.792388916015625 119.28195190429688 255 255 255
-162.500732421875 12.515392303466797 120.6534652709961 255 255 255
-165.38401794433594 9.032186508178711 118.06534576416016 255 255 255
-163.35340881347656 6.625821590423584 114.45784759521484 255 255 255
-167.7923126220703 0.9135376214981079 111.2032241821289 255 255 255
-116.95404815673828 16.415693283081055 151.2936248779297 255 255 255
-105.53034210205078 15.286309242248535 152.1424102783203 255 255 255
-117.1175537109375 19.145153045654297 150.636474609375 255 255 255
-118.38632202148438 13.824324607849121 140.78599548339844 255 255 255
-105.1693344116211 20.784622192382812 158.45700073242188 255 255 255
-97.04804992675781 20.515989303588867 152.3671112060547 255 255 255
-151.16018676757812 18.828550338745117 119.19313049316406 255 255 255
-161.50155639648438 17.32154655456543 107.78187561035156 255 255 255
-149.88137817382812 8.18705940246582 100.55591583251953 255 255 255
-127.83341217041016 19.939950942993164 140.02940368652344 255 255 255
-135.94195556640625 19.924602508544922 138.7033233642578 255 255 255
-104.73921203613281 21.1845760345459 157.73248291015625 255 255 255
-111.16722869873047 14.425679206848145 149.1988067626953 255 255 255
-107.76148223876953 21.151174545288086 158.150146484375 255 255 255
-118.77381896972656 20.336544036865234 143.6297607421875 255 255 255
-118.21351623535156 14.495500564575195 145.6194305419922 255 255 255
-116.39337921142578 20.788209915161133 149.6299591064453 255 255 255
-116.48930358886719 20.286548614501953 145.3885040283203 255 255 255
-111.17095947265625 20.504674911499023 148.17831420898438 255 255 255
-164.03306579589844 15.644325256347656 116.12254333496094 255 255 255
-123.73761749267578 19.538387298583984 137.27987670898438 255 255 255
-104.8565902709961 20.564191818237305 158.16793823242188 255 255 255
-116.57083892822266 15.973770141601562 149.74288940429688 255 255 255
-102.99321746826172 21.35995101928711 158.50173950195312 255 255 255
-123.21037292480469 15.392584800720215 142.0166015625 255 255 255
-120.7513198852539 18.25296974182129 155.4434356689453 255 255 255
-116.40347290039062 14.829459190368652 144.47787475585938 255 255 255
-154.10728454589844 6.4063801765441895 106.58048248291016 255 255 255
-130.25889587402344 17.346271514892578 129.01522827148438 255 255 255
-134.61485290527344 16.494056701660156 124.58918762207031 255 255 255
-121.03240203857422 19.387489318847656 145.77044677734375 255 255 255
-103.63838195800781 16.34452247619629 152.75596618652344 255 255 255
-131.6085205078125 11.252251625061035 132.98245239257812 255 255 255
-119.84862518310547 18.537731170654297 137.64671325683594 255 255 255
-119.92340087890625 17.815898895263672 138.10386657714844 255 255 255
-110.19305419921875 14.705204010009766 149.13894653320312 255 255 255
-145.25502014160156 9.366318702697754 90.44326782226562 255 255 255
-122.19330596923828 17.485998153686523 135.84765625 255 255 255
-141.1707000732422 8.468217849731445 134.53204345703125 255 255 255
-131.57815551757812 20.481632232666016 140.63706970214844 255 255 255
-141.75205993652344 10.642121315002441 134.2704315185547 255 255 255
-125.35279083251953 20.181812286376953 142.7716827392578 255 255 255
-116.20321655273438 20.759389877319336 149.6616668701172 255 255 255
-108.0003433227539 20.93863868713379 153.5724334716797 255 255 255
-150.3877410888672 9.662252426147461 90.92354583740234 255 255 255
-138.58523559570312 13.269948959350586 92.90485382080078 255 255 255
-150.83755493164062 15.606720924377441 97.64795684814453 255 255 255
-132.09214782714844 19.257856369018555 131.783203125 255 255 255
-118.1366195678711 19.210886001586914 151.5975341796875 255 255 255
-117.2156753540039 17.423105239868164 149.5240478515625 255 255 255
-149.40670776367188 9.943841934204102 129.03904724121094 255 255 255
-104.798095703125 15.666360855102539 150.8941192626953 255 255 255
-106.34602355957031 20.81621742248535 158.15704345703125 255 255 255
-101.79690551757812 21.228771209716797 158.8341827392578 255 255 255
-104.04920196533203 14.767976760864258 152.54991149902344 255 255 255
-117.29024505615234 18.12299346923828 150.48580932617188 255 255 255
-110.61544036865234 19.357067108154297 144.9082489013672 255 255 255
-111.55636596679688 20.554819107055664 148.4098358154297 255 255 255
-119.38394927978516 19.25990104675293 138.46206665039062 255 255 255
-145.2509307861328 15.772040367126465 94.13056945800781 255 255 255
-116.72538757324219 20.289339065551758 145.1116180419922 255 255 255
-115.40479278564453 20.064416885375977 142.8949432373047 255 255 255
-116.31291198730469 19.68539047241211 148.9735870361328 255 255 255
-113.11710357666016 20.401493072509766 149.88189697265625 255 255 255
-118.2061538696289 19.264829635620117 151.82412719726562 255 255 255
-113.38153839111328 21.044599533081055 150.05963134765625 255 255 255
-104.11058807373047 20.801708221435547 153.19497680664062 255 255 255
-152.4508514404297 19.061552047729492 118.81358337402344 255 255 255
-119.457275390625 18.64487075805664 154.49256896972656 255 255 255
-116.74458312988281 15.892056465148926 145.88641357421875 255 255 255
-114.47943115234375 18.307523727416992 142.7473907470703 255 255 255
-158.99061584472656 14.318925857543945 110.18705749511719 255 255 255
-114.09681701660156 19.14369773864746 141.9046630859375 255 255 255
-117.62161254882812 17.484670639038086 144.84156799316406 255 255 255
-106.6599349975586 18.012449264526367 164.8863525390625 255 255 255
-109.25527954101562 13.636521339416504 150.77139282226562 255 255 255
-167.35009765625 17.160924911499023 110.41678619384766 255 255 255
-151.68531799316406 17.68218231201172 111.33085632324219 255 255 255
-96.47945404052734 21.18117904663086 153.8533477783203 74 205 254
-96.7137451171875 21.20282554626465 153.83203125 74 205 254
-96.64801788330078 21.271915435791016 154.20945739746094 75 205 254
-97.93248748779297 21.28118324279785 153.66709899902344 75 204 254
-97.3546142578125 21.334787368774414 154.0271759033203 75 205 254
-97.67575073242188 21.38115119934082 154.4156951904297 75 204 254
-97.94419860839844 21.473766326904297 155.4749755859375 75 205 254
-97.23490905761719 21.365110397338867 154.37745666503906 75 204 254
-97.55655670166016 21.37864112854004 153.8053436279297 75 205 254
-97.13629150390625 21.423885345458984 154.8651885986328 75 204 254
-97.6147689819336 21.43207359313965 154.91864013671875 75 204 254
-98.12039947509766 21.324254989624023 153.98355102539062 75 205 254
-97.4205093383789 21.368602752685547 153.88645935058594 75 205 254
-98.17402648925781 21.276731491088867 153.61276245117188 74 205 254
-97.74240112304688 21.31460952758789 153.9408721923828 75 204 254
-97.99293518066406 21.438962936401367 154.9683074951172 75 205 254
-96.7137451171875 21.20282554626465 153.83203125 74 205 254
-98.05064392089844 21.39958953857422 154.47286987304688 74 205 254
-96.64801788330078 21.271915435791016 154.20945739746094 75 205 254
-98.69037628173828 21.288644790649414 153.72279357910156 74 204 254
-99.50086975097656 21.296205520629883 153.67532348632812 75 205 254
-99.35384368896484 21.24124526977539 153.3459014892578 75 204 254
-98.92829895019531 21.607494354248047 156.09197998046875 75 204 254
-98.31147003173828 21.39710807800293 154.31369018554688 75 204 254
-99.14279174804688 21.269699096679688 153.63763427734375 75 204 254
-98.58261108398438 21.332765579223633 154.07537841796875 75 204 254
-98.8698959350586 21.700725555419922 156.56434631347656 75 204 254
-99.21599578857422 21.809051513671875 157.11859130859375 74 204 254
-98.50765228271484 21.511388778686523 155.06112670898438 75 204 254
-99.42271423339844 21.47896957397461 154.6007843017578 75 205 254
-99.10385131835938 21.38214683532715 154.11273193359375 75 204 254
-99.0738525390625 21.480470657348633 154.58248901367188 75 204 254
-98.20396423339844 21.531103134155273 155.24534606933594 75 204 254
-99.47534942626953 21.41077423095703 154.14602661132812 74 205 254
-99.35299682617188 21.553112030029297 155.6384735107422 75 205 254
-99.38529968261719 21.51335334777832 155.1217803955078 74 205 254
-98.04509735107422 21.513607025146484 155.57252502441406 75 204 254
-98.29359436035156 21.334369659423828 154.08236694335938 74 205 254
-98.40779113769531 21.574954986572266 156.0550079345703 75 204 254
