-251.39265526847674 18.031736103971674 124.63205610805397 255 255 255
-253.4678164321213 17.24764098728722 118.58130987156291 255 255 255
-261.44409232348846 15.95763077662497 112.58771594847326 255 255 255
-249.90884220692485 17.621115051997513 119.70950981835347 255 255 255
-259.744560697058 16.636402118220172 115.89735011437423 255 255 255
-252.19468009909647 16.405755593728472 109.81405648349703 255 255 255
-268.26362698502317 16.793450997733395 121.79443628034889 255 255 255
-269.2340790364567 16.747850689516074 121.35093032928322 255 255 255
-249.64573525133525 16.952300145030815 113.52740494053249 255 255 255
-250.68572984503066 16.945566296889574 113.9879791946428 255 255 255
-252.86691479861608 16.84637238450253 115.48028035242467 255 255 255
-253.44102246843394 16.90886718733868 115.59569437931751 255 255 255
-252.17467739331408 16.84259642205405 113.97144828590766 255 255 255
-250.69634282013888 17.323552810085737 117.42152212650154 255 255 255
-248.99855273760923 17.828070405836478 120.8075332263115 255 255 255
-258.02113727123776 16.950562806403397 117.43989707750372 255 255 255
-262.7440947922186 15.867950441919277 111.06685238873493 255 255 255
-253.66162220582876 15.696821621058495 105.68965189344061 255 255 255
-257.97106212830226 16.04487621746133 111.34924626524648 255 255 255
-248.45078408177483 12.44229045340849 115.62636782224052 255 255 255
-250.73726412823316 18.081890246346383 121.81154569548244 255 255 255
-248.09459544228315 11.9722701789319 115.37023137043363 255 255 255
-260.1648295337958 17.57322406536167 126.0130103596699 255 255 255
-264.0099042810817 14.412212261063692 105.1252888832484 255 255 255
-260.6699711992545 15.487603778976979 108.87534920126355 255 255 255
-253.29191063820102 16.902174205266455 115.86642398912107 255 255 255
-253.95775975242853 17.244441314232063 118.05045556877795 255 255 255
-248.35888615385468 16.871455428509904 112.59137367029768 255 255 255
-250.03557845231393 17.669609083254485 119.16318532911515 255 255 255
-249.88912576009426 17.63450897035191 119.73731989644573 255 255 255
-250.6980253120847 17.3343034498698 117.35337102437207 255 255 255
-250.72475611564326 17.330143948494683 117.27616269283288 255 255 255
-251.8437311995255 16.578243910078925 111.59939869328034 255 255 255
-253.0153732456321 17.550749765872112 120.69605794781 255 255 255
-250.60910812200683 17.379199776294605 117.55775155244368 255 255 255
-248.94134436403712 17.084515103587044 114.3920929337815 255 255 255
-250.0749074617113 17.018735216269505 114.56154803239738 255 255 255
-250.70931371318596 16.950345168863016 113.87310646015428 255 255 255
-252.2096417974273 16.6721910627576 103.41141098904166 255 255 255
-251.62002921748496 16.73205644277914 113.01491548673913 255 255 255
-262.62075354942874 14.775100755672469 112.38786295152941 255 255 255
-258.4505501185733 16.406056724662605 114.76095853613657 255 255 255
-248.92993794809843 17.086404296394424 114.77125514811235 255 255 255
-250.07143368670006 17.016769517642537 114.5501184960531 255 255 255
-256.8779520758698 16.856734480207212 118.96115540592452 255 255 255
-255.14594849589037 16.73919917026732 115.41045694956468 255 255 255
-258.7998717556718 16.38596625903021 119.07661077357258 255 255 255
-252.02993373152594 15.600876537155424 103.763618340991 255 255 255
-266.1076813387175 10.925796358431924 106.8771675260633 255 255 255
-259.0704881320237 15.596065590801414 106.28904750287352 255 255 255
-258.0967822343053 10.211076121720579 97.44867883264718 255 255 255
-248.95932175248365 17.088912660278996 114.2045218501573 255 255 255
-248.36846675032405 12.278770226323541 115.54758369171938 255 255 255
-249.86599676842576 15.795430751437909 104.62677838405284 255 255 255
-252.98595252186038 17.560886888141 120.78837219708505 255 255 255
-252.44727867337218 16.94830076780366 115.15448518385139 255 255 255
-252.40268011263024 16.941683078140112 115.082436417763 255 255 255
-251.44467796664765 16.95685573034147 117.5392185246221 255 255 255
-253.19312614843994 16.821254970834843 114.57735718536925 255 255 255
-258.10718181043455 16.85205950330487 116.67103992887718 255 255 255
-257.8488712397138 16.956490709099192 117.60714105173199 255 255 255
-258.0670092517976 16.951821236422607 117.4109750988865 255 255 255
-257.0025061102368 16.8452142796482 116.04312040823032 255 255 255
-250.76436869943754 16.91278117910938 113.7443549094126 255 255 255
-257.4852627529355 15.741524293497472 106.93191180787436 255 255 255
-253.53658651445681 16.908505080764044 115.40674821446285 255 255 255
-255.63733657996835 16.868630717009392 116.20490871628884 255 255 255
-250.19767077131922 17.190664799931472 108.21146667976605 255 255 255
-256.1885041190049 16.77222758845764 114.71068038325643 255 255 255
-255.5065894961317 16.723648174806918 114.74075347193349 255 255 255
-255.6790898146946 16.715687033240677 114.51919823366288 255 255 255
-251.81673630862727 16.547094230727453 111.33440511255671 255 255 255
-260.2884166714206 14.884812977662875 111.77884068331909 255 255 255
-258.9429203478742 15.844981406052806 108.45912308893666 255 255 255
-257.70936502066814 15.446047697443461 103.46997939361859 255 255 255
-256.9343135731094 15.149422550391165 101.41055734131993 255 255 255
-249.501185814233 17.064637651622917 114.17995355508245 255 255 255
-257.7038759538462 16.626656953531054 112.41025939990405 255 255 255
-255.87454870347543 15.791131051429318 116.81128030023292 255 255 255
-251.3401124658155 14.944149987590373 99.47347475169747 255 255 255
-244.87607002256908 13.549271827334039 86.34789134822469 255 255 255
-251.6215265973174 16.74698341403385 112.59191107766601 255 255 255
-251.35227024185843 14.29712743696631 93.89429083978303 255 255 255
-250.21848204358193 16.974262164813418 114.65490110270241 255 255 255
-253.50452112033918 15.328012907793024 99.2201814974487 255 255 255
-253.3614042714679 16.83309949929106 114.34306787437689 255 255 255
-255.61783281703742 15.919315018703992 106.5455996409429 255 255 255
-257.00504251242904 16.00310314850835 109.16989687194467 255 255 255
-261.76684473536096 10.291911173104236 102.79968381570487 255 255 255
-256.46404083091835 10.289470262370429 89.41972717832064 255 255 255
-260.45594259891493 14.681946862051564 104.43327130057054 255 255 255
-256.4748332292698 15.350141627011743 103.52740127540417 255 255 255
-253.1453997822054 15.610261771531318 104.73536295848217 255 255 255
-248.65857467647322 14.634590995747635 95.27303609008149 255 255 255
-257.04491251646414 14.213482433440891 94.60822368028357 255 255 255
-250.62581921132025 16.923686401124684 114.01054729123024 255 255 255
-255.97629464589954 16.74753949907307 114.9935853175494 255 255 255
-248.7957628692081 16.03598064688537 106.02915099614988 255 255 255
-251.93329786287765 16.972352683103082 115.13342088082288 255 255 255
-248.05933265922326 15.45166535073188 100.40853931029574 255 255 255
-253.6172457193086 16.928288176898146 115.28383310006234 255 255 255
-250.71773655740756 16.915076090129652 114.11520153133009 255 255 255
-252.91234824759476 15.604517731793642 104.32973598157923 255 255 255
-253.19258374276407 15.462442761754454 102.92453521964188 255 255 255
-260.62228175547995 15.20735914943198 109.0292479321241 255 255 255
-258.65020601263586 13.567816181069231 93.2022709137686 255 255 255
-258.4247436243939 11.929313546648762 97.59557913537273 255 255 255
-260.32547019344594 12.773380153346508 96.67081041032867 255 255 255
-252.34913580506404 16.953647958502287 115.07492184321174 255 255 255
-254.5589018150475 16.450635080017584 112.5255177595813 255 255 255
-251.56715077533076 16.74022106623775 113.05956691500342 255 255 255
-264.04985126195436 8.120734900440741 106.2277217178113 255 255 255
-249.40776795086595 17.065599392134278 114.84604068158225 255 255 255
-255.28502627020004 15.936813333423853 107.6047279252738 255 255 255
-250.90901787252767 15.756864956398104 104.57531650529576 255 255 255
-252.0753855338198 15.904459260151556 106.61050586419701 255 255 255
-260.21984271279354 15.674385493119297 108.2790243232748 255 255 255
-253.35683863000907 15.750275069134878 106.49012547624199 255 255 255
-255.06060962454353 15.623902818267126 105.66499570995427 255 255 255
-262.22406090493934 14.44082696463283 99.82566964867326 255 255 255
-263.58129311500414 14.35716844188959 100.16108762337066 255 255 255
-251.96221856464655 16.44845405739578 110.47541136243751 255 255 255
-251.9249085160345 16.452785608585014 110.87862673113972 255 255 255
-248.5826381566738 15.612324924052885 102.25842269579792 255 255 255
-255.61842326138765 15.950229689251792 110.85246828517165 255 255 255
-257.48938194406264 15.598994837315363 104.23087600147262 255 255 255
-253.93974380696739 15.601973914001336 104.7623409591859 255 255 255
-254.63253170918316 16.43387487108748 112.3089311572715 255 255 255
-259.6456946380531 13.054459203770906 98.33610075581879 255 255 255
-246.81001480510707 9.11301658143381 95.9976821636692 255 255 255
-259.3033654177755 14.151218265771673 98.03829869832381 255 255 255
-254.9176904525022 16.449110695760353 111.63471621937785 255 255 255
-251.39586123299455 14.271984694898268 93.69904097778728 255 255 255
-250.66811084420678 15.767188333765672 104.53618836613822 255 255 255
-252.03243562155683 15.713391805860272 104.50405424987505 255 255 255
-252.04447288333984 15.75809685446928 105.917074695182 255 255 255
-253.7137191789229 15.624035472730109 104.69398934746314 255 255 255
-248.24297890025912 15.47018826565671 99.3067748232109 255 255 255
-251.55838981131672 16.77675527967029 113.04885137940624 255 255 255
-249.54698694244138 14.980388417875853 98.5333467290721 255 255 255
-248.72477345618717 14.672229938627648 95.37995784582264 255 255 255
-248.74099588784537 14.702513255000666 96.22387088285777 255 255 255
-248.70567724080124 14.623813293970382 95.36135135218998 255 255 255
-257.32556740153774 12.25894358256703 98.05103941099225 255 255 255
-250.06342176585326 17.05115739176083 114.91328485993333 255 255 255
-253.50492576272802 15.763836963154212 105.5588434380618 255 255 255
-249.88608133472383 15.850509059723347 104.95554364391822 255 255 255
-249.6808248235188 15.860999116144077 103.95758733574107 255 255 255
-251.9886878826085 15.6587850540155 104.13626602306655 255 255 255
-252.86782859650293 15.632031084249602 104.50312670574246 255 255 255
-255.07245215829855 15.6071076570142 105.32359020946771 255 255 255
-255.06184662512877 15.614583859164144 105.41670703597308 255 255 255
-253.11879777539679 15.632912855868243 104.83265616132594 255 255 255
-256.14868028098584 15.26599499820644 103.43212914690642 255 255 255
-250.48408536207324 16.044481197196685 106.5976265051815 255 255 255
-248.53532817299816 14.60563499207993 94.89930048737057 255 255 255
-247.30373214805306 14.69033949828688 97.4862043684941 255 255 255
-252.43239414956662 14.729341413139862 97.83525832941238 255 255 255
-246.15270346531906 8.743166970088238 96.55145864267621 255 255 255
-257.30346935175584 10.840703762335966 98.69997285999489 255 255 255
-260.01212069370195 10.223968970157223 97.90754126044311 255 255 255
-258.4232490450395 13.934480376240526 95.43716984218023 255 255 255
-250.90420045625956 15.749489900722528 104.29251840184344 255 255 255
-256.47195110985683 15.548845028356487 105.78974498901286 255 255 255
-253.74288380173715 15.610893666575052 104.5513421545337 255 255 255
-257.11852769136476 15.99782113652038 108.93981187301793 255 255 255
-254.25099344592988 16.72179277370813 114.78466516487583 255 255 255
-253.51038075382635 15.880687974867833 106.42123352244067 255 255 255
-253.7758964894127 15.602640906596562 104.44728774339251 255 255 255
-256.0953150457237 15.235882543463914 103.48856573090828 255 255 255
-255.2656856952076 14.525736796687058 97.57634853552696 255 255 255
-261.92940717576454 9.313425314742705 98.08459834841756 255 255 255
-254.38334826833827 16.73360508829222 114.67428105825937 255 255 255
-255.19047792156198 15.87903765988831 107.48999352353759 255 255 255
-252.045171506175 15.948089795308938 106.459533197653 255 255 255
-250.16222021872875 15.679563055268304 102.99668168420834 255 255 255
-252.47317296158795 14.738589111855084 97.95798511333277 255 255 255
-249.10973684877138 14.67955317979831 96.29791540792822 255 255 255
-258.5134468774312 14.013102458340729 96.06376519760981 255 255 255
-253.40338752511312 14.323435125303984 95.58621493742817 255 255 255
-251.43015042361014 14.331751565999511 94.24534666163423 255 255 255
-250.14410681578994 15.555964607835643 102.24574651237378 255 255 255
-253.3600195010166 15.352481565740048 102.5799948514044 255 255 255
-253.77078723424162 15.60222814000654 104.5277126622704 255 255 255
-252.02386260837622 15.612281352446836 103.8609597635492 255 255 255
-252.03786631388988 15.930620888107393 106.32021116454936 255 255 255
-249.58152331164794 15.016898201238684 98.53533731853102 255 255 255
-257.2497153033048 15.737634116358256 107.12082429134409 255 255 255
-257.1533118891185 15.74587809756303 107.24135497800327 255 255 255
-252.04490726425615 15.93977499970941 106.42690966928606 255 255 255
-252.0667426944339 15.909908230481996 106.15767480289895 255 255 255
-257.4767359715796 10.415814500362792 94.480122763492 255 255 255
-260.180153135492 10.982209603090316 98.9472792142276 255 255 255
-254.94002642878226 15.63007638622435 105.91536669182429 255 255 255
-253.12779690422735 15.628788929497617 104.53026795993244 255 255 255
-256.3772946779774 15.327754257363594 103.64716517378173 255 255 255
-235.91592147942347 -2.6863536476747445 62.65045218663258 255 255 255
-256.5135253704461 15.572474605308301 105.761998062152 255 255 255
-250.90166472892975 15.748542857893167 104.28886284656494 255 255 255
-255.9871950038434 14.560918159756943 94.03805370845124 255 255 255
-253.38811218841695 14.2907742967087 95.12752579239529 255 255 255
-259.4120778694396 14.1299763202838 98.00176562604175 255 255 255
-258.2621249684522 10.216991460573333 96.800698836354 255 255 255
-250.4353810341895 16.044183267672842 106.4461490632815 255 255 255
-248.99695794862382 14.709750688862375 95.84738650516962 255 255 255
-249.59003494230612 14.991001863630606 98.49780599433691 255 255 255
-249.11348052809342 14.84722836736968 96.49369748958117 255 255 255
-256.9755662529127 12.037129171274794 101.67997462938456 255 255 255
-253.11264229197357 15.650076013735815 104.57731744399905 255 255 255
-251.4480752346117 14.467434938941658 94.72253621336142 255 255 255
-254.91797207685636 14.242797138066111 94.97455698235045 255 255 255
-254.33706836039383 14.801804886733832 98.98600749891808 255 255 255
-254.23246065348118 14.819662242768144 100.35541939902566 255 255 255
-258.5168820346186 14.014805733137218 96.06580262851128 255 255 255
-251.06158935530848 14.7961110602307 97.88846523036614 255 255 255
-250.88634203577564 14.803024368746515 97.14823212477958 255 255 255
-250.9397136956944 14.78098305956482 97.2762082037037 255 255 255
-252.4989086910928 14.754198395458772 97.72678775845299 255 255 255
-250.96364010171007 14.774391207227339 97.31039168680562 255 255 255
-250.99468441110082 14.782965151126628 97.4747319814679 255 255 255
-251.1173580881165 14.784909064731018 97.98741190261187 255 255 255
-251.25260534019625 14.324254643460794 93.2709553166313 255 255 255
-251.7052262596792 14.424643262158321 95.96473686297135 255 255 255
-257.19456888437554 7.990592986677669 88.89396462896185 255 255 255
-250.27133769835933 15.541740928516537 102.58470858892224 255 255 255
-249.10791862019977 16.02669883330791 98.16433411719582 255 255 255
-251.98900104194854 15.621779701169793 103.53650444102712 255 255 255
-250.42387168723366 15.939783491311383 105.67107919740687 255 255 255
-255.10022481715112 15.617312493740256 105.19856447541602 255 255 255
-253.82717470144632 15.630688225539213 104.16447409026809 255 255 255
-258.7158566861058 10.03287896435064 91.67406127304687 255 255 255
-256.60288573196124 10.320045679697175 85.5941037120929 255 255 255
-248.48090774988174 14.597791885869416 94.68574163568263 255 255 255
-253.4757362076036 14.32270436945798 95.07806473583308 255 255 255
-249.54041696322068 14.219038271828904 92.99884563722931 255 255 255
-248.67277502520005 14.016450218212793 90.8423037499312 255 255 255
-248.94057349205391 14.03886548105697 91.6301710321756 255 255 255
-248.35650553653352 14.465252854746065 93.71262954575124 255 255 255
-252.68099440515422 14.038264635755976 92.75458899389716 255 255 255
-251.40923161383796 15.053394292889182 99.71418811327024 255 255 255
-251.07551576921213 14.930841252607298 97.9036669137351 255 255 255
-254.32680033350147 14.802087527931898 99.20353358952104 255 255 255
-255.39559317555472 14.51795557953225 97.0203870620114 255 255 255
-256.21953295139514 14.459348442003938 98.46684498258344 255 255 255
-253.45051830683468 14.318633636175829 95.40529220905543 255 255 255
-246.47810177205346 14.596263336941659 94.15907821117271 255 255 255
-251.4821465139248 14.403464905225146 94.75305840762493 255 255 255
-251.4872624364119 14.355369203180626 94.75833754621577 255 255 255
-255.61953413931414 9.21979888157174 91.7845812588534 255 255 255
-257.33103299824944 10.24050954773676 86.52604775888099 255 255 255
-253.35679265456946 15.448386301645526 101.16506506907538 255 255 255
-254.78832681675928 15.101308833528341 101.3763363346961 255 255 255
-245.86014288483457 8.618833640210232 95.05598125040953 255 255 255
-251.59763730138948 14.439091584348933 95.5953340762612 255 255 255
-245.7791498565686 14.494176132195017 93.12544037636951 255 255 255
-256.0976045530753 13.833397533196582 92.87091767466666 255 255 255
-243.23418927893727 13.835174261375252 87.01682670946383 255 255 255
-255.36785668491513 8.59045370197741 89.56973529665484 255 255 255
-246.44680140162123 13.418410825384843 86.49344306272165 255 255 255
-255.7655160323236 12.560656050718922 84.20496597758057 255 255 255
-255.8043851835909 13.43348088359403 89.11042279590191 255 255 255
-241.75314422161472 11.622912396287417 74.56917507636669 255 255 255
-257.0074217206658 13.138935762219663 89.55787118215 255 255 255
-244.08996113225317 13.930954497604937 88.73209903383862 255 255 255
-242.00584778799126 13.769561792319182 84.91218937977487 255 255 255
-242.88723587680886 13.657988535441909 86.81173650812971 255 255 255
-255.9594905250679 8.576850374071672 88.45836007058077 255 255 255
-255.67692353541395 9.252767276024066 89.51135395267758 255 255 255
-253.37887880487483 15.476477372008048 103.22856989643158 255 255 255
-247.02671877864998 13.583209107984764 88.02101608262191 255 255 255
-256.2642022218094 13.560627276952026 94.38803509212693 255 255 255
-257.0381243675416 13.075645284128043 89.39921464151843 255 255 255
-250.2082196033087 15.546109281951946 102.41479503678457 255 255 255
-256.2631199225917 15.198079770795529 102.90285076601228 255 255 255
-256.41790120985763 15.313511631223937 103.47858076415795 255 255 255
-251.39741059012277 15.069091483912858 99.7694321147944 255 255 255
-254.57866518738456 15.021281465532626 101.6757410161974 255 255 255
-251.33701384690795 15.005962909416372 99.28187886117766 255 255 255
-248.96393269196085 14.802048045126286 96.64636358055904 255 255 255
-256.33614326207646 10.699795292366218 87.53789752668442 255 255 255
-256.6006431660608 10.354835655401033 86.00700459153245 255 255 255
-238.10859866322355 11.788910477906544 61.27599358022698 255 255 255
-256.1053929809116 12.632387958899702 84.42910441848986 255 255 255
-241.22909604984963 6.62097684821029 86.27047058159692 255 255 255
-249.60460711769161 15.053244828690982 98.63465022361217 255 255 255
-257.56590491185426 13.661006863526554 88.8150265600533 255 255 255
-256.83779520616184 13.90754124562144 92.83813635608014 255 255 255
-244.2998989400847 14.060638353262828 88.9659059458985 255 255 255
-255.4632353079557 14.097506422211673 96.43582093829716 255 255 255
-251.40388473543834 15.09537577508718 99.80295585071693 255 255 255
-249.6925664179634 15.038165597917727 98.80497665029313 255 255 255
-249.65492713906497 14.292540236921807 93.32782442841196 255 255 255
-251.19190055362498 14.303782147958277 93.10075240813988 255 255 255
-248.56353225624372 14.608291371651124 94.91225325732549 255 255 255
-253.35778309414832 15.354380184308262 102.66778666149102 255 255 255
-253.3436089884841 15.347193061108465 102.88974489799992 255 255 255
-249.52971350709043 14.998932154129728 98.32310006641785 255 255 255
-254.84363658464864 14.650207201340034 95.20827224266738 255 255 255
-257.01060330151944 14.320206500051398 94.77841741462353 255 255 255
-257.38338109717665 14.173226446876843 94.81621355835011 255 255 255
-256.59454826255876 14.380742537011455 97.02717180123523 255 255 255
-256.42464988636146 14.328482944770853 96.21619091594187 255 255 255
-257.1885719434435 14.207126721026775 95.45062589586797 255 255 255
-245.832434394277 14.46046742756007 93.13992381063828 255 255 255
-251.54741045812352 14.34173799664279 95.00461117850637 255 255 255
-254.64466511930112 13.839722204448115 91.60572838794022 255 255 255
-250.9432690505503 14.782736806834091 97.19062765350765 255 255 255
-248.62471241746584 14.834905878012744 95.97333079075959 255 255 255
-230.7419389121549 10.848119060816304 65.95682812836615 255 255 255
-254.40747482327274 14.819217370733131 98.6104222411638 255 255 255
-255.3360073179964 14.5284226554622 97.39205133216583 255 255 255
-254.75867096815963 15.101475573977046 101.50721389521837 255 255 255
-254.8614989810946 15.099302638374576 100.90710234573028 255 255 255
-254.7665935135622 15.08898544919349 101.19778945225683 255 255 255
-251.65438007063403 15.062693893340699 100.63289900893967 255 255 255
-251.38769365784998 15.086845948770826 99.72409250028426 255 255 255
-251.3461671533836 15.051563278782039 99.40356416389989 255 255 255
-249.61986801425445 15.036234662166452 98.62465227641215 255 255 255
-254.32542568523286 14.8065962672768 99.26944366697617 255 255 255
-249.00086135025006 14.79090697338485 96.71786362074417 255 255 255
-248.82354940951495 14.658826198084878 95.50122574653653 255 255 255
-248.84630097101382 14.644148448196653 95.62947525348726 255 255 255
-245.94553383443852 8.682523897901714 94.70492267223266 255 255 255
-253.33470143767593 14.154633855150275 92.9271005408452 255 255 255
-251.51070586082693 14.508674158842936 95.15633387245657 255 255 255
-253.49142710128785 14.330512229002341 95.24847663720705 255 255 255
-248.44938876343573 14.586339160149924 94.57696349446306 255 255 255
-243.5547589174263 13.73506975503889 87.44107194222613 255 255 255
-240.90078479530607 6.054254938995923 86.41989117622373 255 255 255
-248.7142033567935 14.806483274450647 96.2955718357517 255 255 255
-249.35879409950294 14.7381942090143 96.51977596677173 255 255 255
-251.2428994966152 13.594009843006202 89.47430163315546 255 255 255
-252.10787067463303 12.858197723093385 85.14287834985664 255 255 255
-247.82199670537597 12.894378340230977 83.07496117723917 255 255 255
-240.2007238794291 6.401083628932579 85.69978687074104 255 255 255
-252.07048047583706 12.147052368103068 80.1315481425876 255 255 255
-251.85623479388914 14.257799601517927 93.01694054465271 255 255 255
-249.0186698792667 14.032327165541874 91.69207763871505 255 255 255
-235.61516397656163 12.207854687697282 75.4628626818145 255 255 255
-246.17724232471548 12.41896789385727 83.41562833701795 255 255 255
-249.5182955659177 14.314586430584331 93.04751482612247 255 255 255
-253.95095171806975 13.271498578573112 87.47256312267677 255 255 255
-253.942565930836 13.274806628899594 87.64899962827604 255 255 255
-251.11537456685195 13.57041393479781 88.53544278753517 255 255 255
-248.87373320893235 14.013192083793015 91.20020062607283 255 255 255
-250.9657747051821 13.515527696925723 88.5969174943047 255 255 255
-254.86535648788066 12.316000034546928 82.2056388957894 255 255 255
-254.91978770549767 12.297333230873868 82.16766779947406 255 255 255
-239.64772661368323 6.531623968989971 84.64811651318735 255 255 255
-255.6342352546409 12.431822796105553 82.20056644238282 255 255 255
-249.09806238941297 14.260553937903879 91.58845884994926 255 255 255
-255.37340507322233 8.629773004671343 89.20518903119466 255 255 255
-245.79851868113633 13.385328870643894 85.44966182870021 255 255 255
-248.15437574406667 12.967531483378785 84.31255098158096 255 255 255
-241.0411274776172 6.509056231705911 86.05808875586783 255 255 255
-253.89823037520534 12.276651070155715 81.73191369376565 255 255 255
-252.7723866104311 11.956469312434074 77.8846974184458 255 255 255
-248.52936079133391 14.028998718385825 90.57241452541348 255 255 255
-252.6877230697634 14.033309148955997 92.89918818824155 255 255 255
-252.71682050426946 14.05139286136837 92.10792865773058 255 255 255
-249.00437980423789 14.072311158132733 91.57806881329321 255 255 255
-246.1174072499578 13.786262894003642 88.47977877777872 255 255 255
-248.96025626935526 14.075900282380559 91.5314922090262 255 255 255
-250.5284791185656 13.418494508064843 89.24996718647186 255 255 255
-238.46444723430622 5.897067674438928 83.55624964152659 255 255 255
-253.728380797624 12.121430324178675 79.97427734485397 255 255 255
-252.02309716407927 12.043890678768111 78.9390661970586 255 255 255
-253.17230652902728 12.303187822962414 82.3956540357415 255 255 255
-251.4075195591968 14.281634809356913 94.1383414182659 255 255 255
-246.94126073360252 12.70577447166692 80.7314593210859 255 255 255
-243.1480882463831 12.909086503062932 81.9519967685049 255 255 255
-237.96983654586137 12.723454475219805 80.18305555684015 255 255 255
-239.68218336943215 12.035698634030394 75.88892266773811 255 255 255
-236.36664934214878 11.285413623120789 68.83634599327898 255 255 255
-249.52533573556997 14.294959806580373 92.9953630588507 255 255 255
-248.94787925614358 14.000546209277928 91.3298619940504 255 255 255
-251.20173377688525 13.598474720614213 89.02028751593929 255 255 255
-252.07271521650284 12.839253532776613 84.39585027447372 255 255 255
-248.08452591911086 12.931563117415463 83.86976643069511 255 255 255
-235.38388111488837 12.294003867520454 76.55452963748291 255 255 255
-238.88815493486769 12.353339303242848 78.89025989314878 255 255 255
-248.5980637390614 14.048771607111435 90.63343663202409 255 255 255
-251.27114827509016 13.599366450492184 89.47610507260157 255 255 255
-251.2640828292822 14.32065263011843 93.41075961430136 255 255 255
-235.20630331886656 12.133440981070608 75.17840481907729 255 255 255
-234.83856146134823 11.849942916992841 73.27429707952174 255 255 255
-243.2272267962018 10.932659938594801 70.10988494167839 255 255 255
-240.23449229700614 3.061759683962549 52.70673709886885 255 255 255
-242.84859845190937 5.285806397176135 62.05454661588268 255 255 255
-238.26305923923522 12.296766974960356 78.27899798699124 255 255 255
-242.53387543063755 11.029407564306915 70.37391413107446 255 255 255
-240.21678758931728 10.235780697359594 65.15910484495282 255 255 255
-250.04160354520735 13.36775841424794 86.49737103811847 255 255 255
-250.01045700232714 13.342938495333005 86.87942255023202 255 255 255
-250.07435184387305 13.342952057563739 87.13036680335014 255 255 255
-250.09794189177478 13.34440979558024 87.12371669536586 255 255 255
-246.06434987115543 13.478352121365765 85.89519252497303 255 255 255
-239.74684021583073 6.162502703271379 85.28845269493482 255 255 255
-252.66767261192598 14.049367231904242 92.48816425922004 255 255 255
-248.70751025188375 14.424847443811158 94.22257867050592 255 255 255
-251.26243823092312 13.593876212863641 89.86591612442996 255 255 255
-243.1487292618008 12.921278429538308 81.96129572521644 255 255 255
-239.68564682297477 6.55061749919421 84.70544553142219 255 255 255
-250.1501009943091 13.33819120354226 87.5269492295082 255 255 255
-241.69915237214005 11.578593244165702 73.93851488558579 255 255 255
-241.03754381975833 11.699964806811684 73.79922539736344 255 255 255
-251.13992507279895 13.564658119463399 89.17110093985039 255 255 255
-247.87550516226855 12.911161602475644 83.19822717516149 255 255 255
-252.44508255828418 12.470575077075662 82.12760962465005 255 255 255
-253.69979811715743 12.607966396629125 84.38520112653046 255 255 255
-252.41706351442133 12.501206140755183 82.49058608252741 255 255 255
-240.53295938562823 6.385913174842344 85.60312099053951 255 255 255
-229.8124730824537 12.297987667626558 70.02254518956418 255 255 255
-238.80791923698123 12.236505652582863 76.81791310022938 255 255 255
-241.20140742376918 11.288490322989183 71.26684444105122 255 255 255
-246.98038526411875 13.602366851996997 87.52889544192038 255 255 255
-246.04422698368032 13.558824234936566 85.90579170892818 255 255 255
-234.33636790005497 8.491264305822618 56.432842770876924 255 255 255
-246.80616446249425 13.606037393902067 87.12069007436546 255 255 255
-248.06982519224908 12.932956200623856 83.72996163659312 255 255 255
-247.88781566061087 12.942441114020056 83.26380101565528 255 255 255
-235.9622877659289 12.65757302169299 78.61214636416628 255 255 255
-230.17496742396844 11.141553070603248 62.62012630227666 255 255 255
-239.64757307654838 12.009816546639769 76.13441423691698 255 255 255
-234.4651510801856 4.258268569518927 63.90504764083228 255 255 255
-244.05303348692732 12.37148908858589 78.22768480177504 255 255 255
-244.8412551595171 13.547926677005108 86.30645511009755 255 255 255
-246.86465726441816 13.600060040007353 87.36369823688311 255 255 255
-246.19890759042687 13.785377366091542 88.55701691970292 255 255 255
-241.78774361141961 12.841704232557436 80.08722644652136 255 255 255
-237.6943075422687 12.644808119874295 80.139476932055 255 255 255
-243.99208426933018 12.316450702822388 78.51457021773925 255 255 255
-245.68379444955426 13.35239698190288 85.3397802520025 255 255 255
-237.82368356748262 12.468017329183082 78.77836588164746 255 255 255
-235.3901880557934 12.77406258071898 78.83332899676468 255 255 255
-238.59990145667464 12.22836880882723 76.51556889333797 255 255 255
-238.19819111355696 12.199836377700514 75.9444182375199 255 255 255
-239.15750334449194 12.464663161124594 79.6495505288549 255 255 255
-238.70675856078765 12.47403325277839 78.74072050751283 255 255 255
-247.59266689672143 12.934779551078854 81.9822236857401 255 255 255
-243.21343377857852 12.899084551087206 82.13154242307564 255 255 255
-244.12561140678503 12.343861388089717 78.71468289655239 255 255 255
-238.17321137015614 12.559653663813911 78.57177703601454 255 255 255
-234.68414074276015 12.499577551103323 77.56611900781402 255 255 255
-236.03806317352922 12.67241721042111 78.69120620382716 255 255 255
-230.61363081834642 12.089389320142665 71.26999093161476 255 255 255
-244.86936041377572 10.781345255186562 68.42098626638534 255 255 255
-236.00077096104175 12.678835166145788 78.6380742905526 255 255 255
-235.51533268855908 7.0044290221629595 60.57812343364735 255 255 255
-228.23289378664123 9.860886123929962 58.251399340554585 255 255 255
-232.37844612735407 5.753797673897307 62.54778263860177 255 255 255
-243.14601954407317 12.961065491392935 81.86040977825022 255 255 255
-241.74738859939748 12.849950353479084 80.32013104107267 255 255 255
-242.50276661620012 12.100680919150918 76.83152013578933 255 255 255
-238.77142475917083 12.276093312145008 76.80927831391838 255 255 255
-236.3610835638284 12.492155064037616 77.74543856121656 255 255 255
-247.98651868373923 12.943702076808641 83.26932666462181 255 255 255
-243.00827518323266 12.90673945960657 81.79501942639791 255 255 255
-236.11085107362362 12.404346889668979 77.12594040250576 255 255 255
-232.88086905400567 12.160008868896401 73.4903983584129 255 255 255
-237.79358757766 12.11836644031479 76.25079460947725 255 255 255
-242.6974358865328 10.11423043330249 63.88735486691946 255 255 255
-236.36380988061055 4.549172969165781 65.10011446532273 255 255 255
-233.28203170566582 7.277562984001191 62.443502392753814 255 255 255
-236.09030813870612 8.139241394008053 67.2302067883108 255 255 255
-247.58092783439818 12.744583027299639 84.23589398425958 255 255 255
-246.49429479453997 12.715717525125715 81.23414313876475 255 255 255
-246.50672976938293 12.711011413212047 81.42331002470439 255 255 255
-246.56481832791636 12.712560646335067 81.53781665650286 255 255 255
-243.5047393957191 12.919225078186193 82.36552731025276 255 255 255
-237.7214117953277 12.548388781951225 78.106577763049 255 255 255
-241.90503916633742 12.131759013466706 75.32803663475755 255 255 255
-238.77344426243118 11.999335653616576 75.88677788216482 255 255 255
-243.09874131951824 12.994067252902063 81.93442583832632 255 255 255
-239.81064590736247 10.128593367938077 63.7618260472888 255 255 255
-240.42078791978332 10.339171671008131 65.88017486159157 255 255 255
-238.3035712845317 10.028699202224214 64.23775201968725 255 255 255
-235.42697389529422 5.023786453409619 65.62110393116603 255 255 255
-238.35504330078177 8.845301113857975 66.31289814910966 255 255 255
-238.49972903887738 12.48723324972429 77.98256998604074 255 255 255
-236.22376170957705 12.711509041777266 78.79976751467883 255 255 255
-242.16827667594123 12.353471344321793 74.4854276374337 255 255 255
-248.05944115777675 12.945837099631959 83.55740246138186 255 255 255
-230.66423761339755 11.07471110682952 66.91724403444263 255 255 255
-237.82315621980777 12.652382819481966 79.00206527840851 255 255 255
-237.7416742917215 12.71365206146825 79.69229915406297 255 255 255
-233.85861729826036 12.689214426943668 77.94604112526979 255 255 255
-239.17131423222202 12.299678403579 77.29321178410079 255 255 255
-235.87267699848968 12.694261896565749 78.53898610461637 255 255 255
-239.36858950823418 12.000445388714144 75.41838847203942 255 255 255
-239.69323669063724 11.988982796750733 76.11731211338409 255 255 255
-235.87199081895795 11.741714126561297 73.19962938381218 255 255 255
-234.0984116695211 11.433595922938817 69.0906854980441 255 255 255
-244.33625300568735 10.14694003711395 64.81436516953707 255 255 255
-243.8067690426704 12.332030317839676 77.82388533332963 255 255 255
-238.57377929932306 12.480107734736276 77.98384399959436 255 255 255
-238.72537253685414 12.462662483344594 78.1295392988439 255 255 255
-226.67070832997035 11.966082736320827 71.13515560677462 255 255 255
-238.01543386721954 8.67180564963005 65.52613246120785 255 255 255
-234.2773840308693 6.2739699508966975 58.56931441453584 255 255 255
-240.21357662904936 10.296617629275751 65.11837269828138 255 255 255
-243.2010569272291 11.042305468907067 73.44744817130552 255 255 255
-236.12138206584166 4.407993703639082 64.81581519739511 255 255 255
-243.9164789673897 12.3778050671158 78.00376862685161 255 255 255
-240.39440300221722 12.020165327544358 75.90511871147014 255 255 255
-234.48345440544205 12.049575037626424 74.499991528083 255 255 255
-239.5228936884306 12.06700308528455 75.70992996395458 255 255 255
-235.31316879027455 12.230244735977855 76.37861494804326 255 255 255
-240.91383167921686 11.750576136855038 74.67993158192917 255 255 255
-241.46298768100166 11.544501254583825 73.48286352868735 255 255 255
-242.98767264846376 10.210955018915826 64.89274769618578 255 255 255
-228.51019326910784 11.91148635118444 72.39556487132387 255 255 255
-243.05160088727783 10.161169190852977 65.28722891831102 255 255 255
-234.87153648919846 6.368783951783255 64.3904852560913 255 255 255
-236.38436134513458 7.528568881153065 64.68499338656673 255 255 255
-240.19268629802667 11.59344029456469 72.7894148423876 255 255 255
-241.84780741898587 11.531008135816698 72.82878633259887 255 255 255
-237.31528986870677 12.379529114485647 77.37735896245843 255 255 255
-243.90871581104872 11.692297619007888 74.88786632028152 255 255 255
-243.7820543068766 12.895184775560875 82.60167814466222 255 255 255
-234.3261249726459 12.757268041502398 78.32707398310984 255 255 255
-235.5542490950214 12.660561289426326 78.24888400468761 255 255 255
-235.0565959307401 12.660356173160078 77.81408506061919 255 255 255
-236.7546993524925 12.400047351049693 77.95453062492386 255 255 255
-236.62044946276848 12.468847447698195 77.91594234727359 255 255 255
-237.7363513728677 12.198019552253125 76.50717066401478 255 255 255
-237.61337741153076 12.172122452060089 76.3830601046001 255 255 255
-240.97853471945425 11.813672325410897 74.96696317692636 255 255 255
-243.3672336547258 10.949549324746869 70.26777231831082 255 255 255
-235.76780105770848 6.36893720006632 64.24791784912225 255 255 255
-235.8765477284314 5.667247127046895 63.806401768486836 255 255 255
-241.27436216659305 11.727656690955417 74.1667627057491 255 255 255
-236.9505792570728 12.365021263311338 78.80284349130304 255 255 255
-242.19634609894098 11.567799023538774 73.50116410563581 255 255 255
-235.27468770389913 12.026886455879461 73.77234396372423 255 255 255
-237.4569695329339 11.632669160203243 73.76809053442577 255 255 255
-230.11940360170806 11.369914752284306 69.6052340746014 255 255 255
-240.89417393892106 11.837906391546854 74.80149999601238 255 255 255
-239.85371033503122 11.768030567445386 72.9282275796087 255 255 255
-239.49153452122596 11.69865446866845 73.79421411410561 255 255 255
-236.43810653082957 11.421905789883871 71.1358409276331 255 255 255
-237.25891690619267 11.451141478827715 72.21786832261725 255 255 255
-229.79270698308574 11.473670882165283 69.87203825627594 255 255 255
-235.1559627065876 0.6255177534085341 49.02468222993001 255 255 255
-234.6057759749541 5.650767053986417 64.61786926847749 255 255 255
-230.39896418924312 11.178211443820421 68.28278314964871 255 255 255
-235.88240598029006 6.534618684300408 63.89445833714687 255 255 255
-234.31377663280253 7.011166405339066 64.6884541795071 255 255 255
-235.99459359280974 5.761787117712927 64.07130456641889 255 255 255
-234.71333047209433 6.265343619365305 63.93733188785677 255 255 255
-244.11380105041926 12.38693419206639 78.252215670774 255 255 255
-237.33987689779286 12.356994217225639 77.0464758267939 255 255 255
-238.45245925643792 12.140777713779045 76.2954475787889 255 255 255
-238.512432733962 12.016335931157762 75.556574824912 255 255 255
-238.5316370238088 12.017954408035152 75.57339297603572 255 255 255
-233.7787495341809 11.67541074368508 69.68422166404525 255 255 255
-236.9290263236443 11.45234774631589 71.93967143783998 255 255 255
-237.30225675985116 11.288808622912885 70.77761480793868 255 255 255
-237.21374904939123 11.406649955057363 71.69809137536205 255 255 255
-237.391971154731 11.298882820993017 70.98081056422645 255 255 255
-236.99984923538236 11.441819893366624 72.05260669742421 255 255 255
-228.82100871557066 12.146522514934741 73.66188876586104 255 255 255
-234.30507458762352 7.295979593201548 64.15209540391675 255 255 255
-228.14183990692501 12.078132247238782 72.92067900909558 255 255 255
-229.13830063434526 11.88993229577301 72.17035279516837 255 255 255
-228.7376249652666 11.88824224409951 71.9638236281747 255 255 255
-235.87710563852812 11.661141787165143 72.23579976200087 255 255 255
-229.98529876329064 11.673673769102447 71.10013236402243 255 255 255
-234.1825958225317 12.132476839882187 74.77331491868344 255 255 255
-237.0930454817406 12.429359956721168 75.22624880022431 255 255 255
-237.63696471525532 12.538260734800001 77.44438283377488 255 255 255
-237.20814084414417 12.394875984712256 77.30010050923507 255 255 255
-237.93507564042224 12.143841675055953 76.33432847626275 255 255 255
-238.37732031327107 11.61176428324723 72.55715088000544 255 255 255
-228.3390237756377 12.316252530896966 73.91513017769189 255 255 255
-238.86106895173504 10.283890916375093 65.11143917842372 255 255 255
-235.7843528721218 6.371170697999006 64.22391694853798 255 255 255
-236.18892990627526 4.382361708234637 64.72121138779796 255 255 255
-237.8067866767238 10.0831563912652 65.29719790557172 255 255 255
-236.30693911674993 7.740057194907239 63.56566899606143 255 255 255
-237.98065893378666 9.918183063926183 62.3597555122419 255 255 255
-234.66238071676048 9.093244553082894 56.34165584702869 255 255 255
-237.11225525869054 7.983753217444151 62.692142975692235 255 255 255
-239.9661679732588 12.067425856493351 75.1270015362988 255 255 255
-241.95906886801907 12.735279606246232 80.5212471194598 255 255 255
-236.8397668480872 12.524407675243062 78.14091999740035 255 255 255
-236.64730259094534 12.531348440560862 78.00971716831003 255 255 255
-238.04750978871598 12.097445938742812 73.91090789166273 255 255 255
-241.32254145139294 11.503225317806375 73.21538407576529 255 255 255
-237.80793201772707 12.653717115484561 78.94972260061907 255 255 255
-242.2211595187971 12.126083704748453 76.17293616828911 255 255 255
-238.39514830167326 11.949428221241401 75.63417997265364 255 255 255
-238.47480164846533 11.963425437723467 75.60090389759 255 255 255
-236.3718485596125 11.60609449790719 72.69939499233524 255 255 255
-236.7157179477073 11.447603112522863 71.62949971442384 255 255 255
-238.74655724436283 11.985356399873549 75.82586985933061 255 255 255
-239.66041673723117 11.714413361998808 74.0000733271321 255 255 255
-238.3830170544625 11.870505582690125 74.01957212560896 255 255 255
-235.2837896718035 12.038604518850432 75.16310506462297 255 255 255
-235.90687687155818 11.891139435657674 74.45518973249435 255 255 255
-236.52325843255977 11.673206859339736 69.2965687121713 255 255 255
-236.51120976972922 11.614269289857157 72.81627788096858 255 255 255
-231.31139979148872 11.856619672197834 72.39482627802371 255 255 255
-228.4996157709505 11.944595937984694 72.42401112266512 255 255 255
-231.8282737501771 11.183748068967365 68.67919360616777 255 255 255
-241.4097226251674 12.767887335487991 79.90846712037555 255 255 255
-241.63173154608765 12.754388838810229 80.14545242515224 255 255 255
-241.4819988884678 12.781800770203818 79.97837382931559 255 255 255
-244.35331976645602 12.346599068906151 78.96104317661766 255 255 255
-238.97024687482826 11.888832828147528 74.60209232344747 255 255 255
-236.4498371202604 11.941844883827017 75.8925237429784 255 255 255
-235.44663212374573 11.893496443562448 74.06732132970886 255 255 255
-235.43858860539407 11.865225836264926 74.01908682744889 255 255 255
-239.6048189597648 12.20728182595699 76.70247821834275 255 255 255
-229.89723668902394 10.955293459651827 64.98447984830672 255 255 255
-229.63030053897012 11.558651703822909 70.51092433474282 255 255 255
-228.9905265337982 11.450716863250058 69.22782409176206 255 255 255
-231.74771305109482 11.842560282594938 72.65632010367464 255 255 255
-231.46465120555803 11.359618102182182 69.12339728536205 255 255 255
-230.1970873540781 11.190495096286766 68.0822476771624 255 255 255
-227.4608784656164 11.675674901253858 70.69328082542691 255 255 255
-234.20276684999874 12.129383744588491 74.74793591381747 255 255 255
-235.54879173085982 11.793406212241232 73.32919908261323 255 255 255
-238.08015995533637 12.59873929132942 78.51529685199654 255 255 255
-237.84798899460608 12.6211551130665 78.3533641693424 255 255 255
-239.05130835859092 12.339724035071736 77.1973999788514 255 255 255
-236.81917766280964 12.535148115294266 78.14789320309899 255 255 255
-239.7631490386365 12.148486548330713 76.19065405748402 255 255 255
-240.28752400737955 12.020387992861615 75.66243875553718 255 255 255
-231.6119272945525 11.875695904497775 72.54275064882209 255 255 255
-231.66107333606615 11.849531200024206 72.5987770822873 255 255 255
-231.238347483272 11.848498634835192 72.37511255324922 255 255 255
-230.80611525200945 11.899356184518686 72.13845215272812 255 255 255
-238.74763568836892 10.260570363689377 65.2786307566929 255 255 255
-228.26783739521434 12.182787339957386 73.46679949598322 255 255 255
-230.25949962841435 11.588424943961382 70.81935600017928 255 255 255
-234.4532599804664 12.034315729346801 74.4313882837043 255 255 255
-231.51713493697116 11.891077096398028 72.45491967540453 255 255 255
-230.94177194798573 11.87441839707167 72.19019270374285 255 255 255
-227.82374917298327 12.06194661237284 72.72357736692723 255 255 255
-230.30446890121215 11.434140143560825 69.58956914199327 255 255 255
-225.84773816770723 11.614943860461857 70.02275188927283 255 255 255
-229.62823467591355 9.520715246631333 61.26063353122627 255 255 255
-235.23276924587694 7.403077560689544 51.254667455796316 255 255 255
-233.95083928536118 12.089676139238954 73.49552107844568 255 255 255
-231.8826845142634 12.342178040204141 71.52091589049687 255 255 255
-237.91260977254123 12.237896397420768 76.71205749972894 255 255 255
-239.7976418188474 12.607646022639562 78.42069120647946 255 255 255
-237.2507461542021 12.39643353241841 77.34272929448034 255 255 255
-238.14346602622217 12.184384296052784 76.04511756788258 255 255 255
-238.04924913436568 12.085341069101432 75.06305190822803 255 255 255
-235.76129536031416 11.746922099520088 73.45729293055484 255 255 255
-235.7665505788741 11.723163995583816 72.96744993408821 255 255 255
-239.5575940439854 12.214031409133293 76.67210812321844 255 255 255
-237.39266151431406 12.39571010759478 77.4411256243674 255 255 255
-236.91075027574246 12.397223985075213 77.08371859983663 255 255 255
-240.92354055357512 11.840384060882913 74.84855808332877 255 255 255
-226.58182607400772 11.17060868103847 67.46014025294545 255 255 255
-236.04383146012697 4.879317886256546 64.76572821533163 255 255 255
-236.16692913548763 4.5005457139389815 64.94769215646139 255 255 255
-234.74688699175297 7.533486499309954 65.27861863052745 255 255 255
-237.2698710879805 12.177318744909048 75.70506510038223 255 255 255
-238.12111409627465 11.97333460129969 75.29372568063721 255 255 255
-235.2769136429059 11.925391599441593 73.99552417549953 255 255 255
-235.07466957520043 11.913014205964744 73.80723957445463 255 255 255
-235.41106343356861 11.890892792148064 74.08635099369133 255 255 255
-228.38165953678833 12.061170531176906 73.02400568370875 255 255 255
-243.40693727385425 9.298483101387014 60.04549793473148 255 255 255
-228.2171273470773 11.949585127114089 72.18609791961605 255 255 255
-233.58806845285255 11.973105974504172 73.8852804712482 255 255 255
-233.42462458251924 11.99940504934736 73.80072232674996 255 255 255
-232.7991936344646 12.14479362404606 74.37120137607982 255 255 255
-234.29294142628441 11.711801352296016 72.29900373389351 255 255 255
-233.52323931271496 12.23652240682507 75.06334740104495 255 255 255
-224.61897613004209 6.03273226030972 74.09047172537768 255 255 255
-225.2404769983103 6.262722225622298 74.35141532048485 255 255 255
-228.57453655127122 10.867353040300987 63.57584545951621 255 255 255
-232.34578776935695 10.899206337483829 66.75785257686296 255 255 255
-232.50257291927088 10.896447710092566 66.95652482031409 255 255 255
-231.3359763758272 11.174331844632363 68.10288194192299 255 255 255
-229.34395115898053 11.78217682835674 72.19965137401095 255 255 255
-237.96196435954204 11.555505840406578 72.80479514507556 255 255 255
-236.60372011018146 11.467094785449342 71.45943975050446 255 255 255
-235.65284198123092 11.601721085307755 71.45057328735757 255 255 255
-234.68857695394425 11.566043982746724 71.37399296162965 255 255 255
-236.62850873617094 11.956993620248292 71.80202082988004 255 255 255
-234.87433565433824 11.961908961016988 74.0434477240473 255 255 255
-233.63505487676156 12.057495823544247 74.71593527852258 255 255 255
-236.17232860867483 11.69125473421159 73.3613884055571 255 255 255
-234.38451668847551 11.788209785095887 73.36129559774824 255 255 255
-230.28239460785227 11.457734163741208 69.63013691640627 255 255 255
-236.29195855456453 11.292525498799833 70.68353311268403 255 255 255
-236.601045834337 11.281963764245019 71.1332003795518 255 255 255
-231.58754196368787 11.850329567090789 72.55494624601499 255 255 255
-236.15673925520542 11.57191080027734 72.03015958074897 255 255 255
-228.77833168750223 11.946971282068603 72.51687695846412 255 255 255
-233.87872512083388 6.506196756876103 44.6682516712399 255 255 255
-222.7256430715495 11.801364206959008 70.99359026381555 255 255 255
-224.6012473966815 3.001735872379472 54.39589869899575 255 255 255
-228.74763982613607 5.460806845754347 59.21915314739678 255 255 255
-229.06169639301186 9.568190336373043 58.370466079334754 255 255 255
