-14.681771278381348 -16.317825317382812 -2.1761128902435303 255 255 255
-3.8797574043273926 1.0731052160263062 -6.88685941696167 255 255 255
-4.83411169052124 -1.2494099140167236 -4.080316543579102 255 255 255
-4.967536926269531 1.2051407098770142 0.31524643301963806 255 255 255
-13.688825607299805 -3.4282782077789307 -8.03507137298584 255 255 255
-16.929964065551758 -3.264106512069702 -9.665841102600098 255 255 255
-13.18907642364502 -3.703904628753662 -2.688429832458496 255 255 255
-5.660660743713379 -1.2868139743804932 -2.314095973968506 255 255 255
-11.729195594787598 -3.6953365802764893 -10.50963020324707 255 255 255
-17.07474136352539 -4.178264141082764 -16.30350685119629 255 255 255
-17.14177131652832 -0.8518040776252747 -0.3878055810928345 255 255 255
-4.3157758712768555 1.344641089439392 -3.1323466300964355 255 255 255
-10.615694999694824 -3.2844371795654297 -8.778639793395996 255 255 255
-5.05311918258667 1.3375827074050903 0.8550313115119934 255 255 255
-4.83759880065918 1.1922987699508667 -2.7630863189697266 255 255 255
-4.513274192810059 0.16534456610679626 1.686387062072754 255 255 255
-19.14868927001953 -5.014469623565674 -5.735861301422119 255 255 255
-14.55416488647461 -3.2956764698028564 -9.420618057250977 255 255 255
-16.86362075805664 -5.2743353843688965 -19.584558486938477 255 255 255
-4.920166492462158 0.967284083366394 -2.900913715362549 255 255 255
-16.50044822692871 -2.0265984535217285 -0.25873494148254395 255 255 255
-11.256832122802734 -2.4697132110595703 3.4816033840179443 255 255 255
-16.21062660217285 -2.005401611328125 3.807744026184082 255 255 255
-8.780089378356934 -2.030057191848755 0.6185135245323181 255 255 255
-3.682525634765625 -0.8631707429885864 1.0953980684280396 255 255 255
-19.713220596313477 -2.3823015689849854 -0.10927827656269073 255 255 255
-10.006302833557129 -0.5478466153144836 0.16684779524803162 255 255 255
-15.204192161560059 -0.04361015185713768 -1.560442566871643 255 255 255
-10.258624076843262 -1.5722774267196655 0.20087969303131104 255 255 255
-18.654577255249023 -1.1166757345199585 -2.7172083854675293 255 255 255
-13.365602493286133 -2.8158087730407715 -2.170102119445801 255 255 255
-4.54884147644043 1.2889068126678467 -0.8089706897735596 255 255 255
-7.522507667541504 1.482247233390808 1.1535483598709106 255 255 255
-0.6480951905250549 0.4211263060569763 1.0799208879470825 255 255 255
-7.338205337524414 1.421455979347229 4.067216873168945 255 255 255
-7.7241363525390625 -9.092107772827148 -1.1895030736923218 255 255 255
-13.668477058410645 -11.757608413696289 -13.851962089538574 255 255 255
-4.671154975891113 -1.0813111066818237 0.9046068787574768 255 255 255
-17.626420974731445 -1.571157693862915 10.269027709960938 255 255 255
-4.728362083435059 -0.03310292959213257 -12.815831184387207 255 255 255
-4.498075485229492 -0.2448061853647232 -4.302399158477783 255 255 255
-7.067256927490234 1.6526925563812256 4.710428237915039 255 255 255
-7.267799377441406 -0.1039397194981575 8.007840156555176 255 255 255
-4.270333766937256 -0.9733282327651978 6.63138484954834 255 255 255
-6.003534317016602 1.7257413864135742 7.913723945617676 255 255 255
-10.44186782836914 2.2545509338378906 13.57656478881836 255 255 255
-5.70605993270874 1.489346981048584 2.2845215797424316 255 255 255
-10.760290145874023 -1.8610689640045166 3.4830896854400635 255 255 255
-10.069831848144531 -2.1014184951782227 0.6397769451141357 255 255 255
-5.720076084136963 1.655930995941162 4.138155460357666 255 255 255
-9.400684356689453 -1.3466953039169312 0.6682747006416321 255 255 255
-10.078523635864258 -2.673701286315918 -1.0168709754943848 255 255 255
-4.227015972137451 0.01959187537431717 -11.91662311553955 255 255 255
3.152299642562866 1.1759405136108398 -0.15198877453804016 255 255 255
3.525195837020874 -1.2323611974716187 1.2389028072357178 255 255 255
-14.608418464660645 -15.637596130371094 -14.976091384887695 255 255 255
-9.049407958984375 -7.3889360427856445 -12.238931655883789 255 255 255
3.4066648483276367 -1.7550464868545532 1.126084804534912 255 255 255
-9.67261028289795 -8.367156028747559 -9.484492301940918 255 255 255
-11.583526611328125 -3.197604179382324 -0.6832554936408997 255 255 255
-3.820537805557251 -7.675454139709473 -10.566784858703613 255 255 255
-16.494630813598633 -12.252030372619629 -14.683313369750977 255 255 255
-5.4845356941223145 -0.3737003207206726 7.463171482086182 255 255 255
-4.101185321807861 -6.1383795738220215 -9.397231101989746 255 255 255
-13.570744514465332 -0.46795788407325745 45.39816665649414 255 255 255
-2.3582425117492676 -1.2182769775390625 6.750977516174316 255 255 255
-1.0544703006744385 3.879542827606201 28.802371978759766 255 255 255
-9.042086601257324 -12.032501220703125 -11.142781257629395 255 255 255
0.17650000751018524 -2.6304848194122314 -7.776176452636719 255 255 255
-15.561819076538086 -11.86599063873291 3.2263259887695312 255 255 255
-2.6757378578186035 -1.479132056236267 5.667280197143555 255 255 255
-3.411158561706543 -6.00850772857666 -6.6466474533081055 255 255 255
-4.089488506317139 -5.363447189331055 -8.496691703796387 255 255 255
-7.254091262817383 -6.849489688873291 -10.184500694274902 255 255 255
-1.8630328178405762 -0.24580709636211395 -3.698201894760132 255 255 255
-5.4372758865356445 -2.330271005630493 60.0428352355957 255 255 255
-4.021100997924805 0.3213041126728058 58.79772186279297 255 255 255
-4.624453067779541 -0.04366176947951317 -2.6995270252227783 255 255 255
-3.010770797729492 1.4210494756698608 -0.07058310508728027 255 255 255
-12.99803638458252 -2.545365810394287 -11.847786903381348 255 255 255
-2.0959270000457764 1.5494036674499512 0.32814106345176697 255 255 255
-6.7856879234313965 2.173489809036255 10.194517135620117 255 255 255
-3.2820534706115723 1.0490460395812988 -1.1142514944076538 255 255 255
-19.72416114807129 -5.392952919006348 -17.959070205688477 255 255 255
-16.291227340698242 -3.712850332260132 -5.704148292541504 255 255 255
-6.903022289276123 0.6725606322288513 -7.979979515075684 255 255 255
-4.676784038543701 1.385090947151184 -0.8400272130966187 255 255 255
-3.1291768550872803 1.379693865776062 -0.41308358311653137 255 255 255
-5.923647880554199 0.6237648129463196 -7.516453266143799 255 255 255
-5.53552770614624 -1.446771264076233 -5.2016282081604 255 255 255
-11.411545753479004 -2.3746910095214844 -2.0920236110687256 255 255 255
-4.2758307456970215 -1.3509186506271362 -0.7238587141036987 255 255 255
-7.278226852416992 -2.4724130630493164 -1.6850168704986572 255 255 255
-5.23362922668457 1.1730663776397705 0.29182031750679016 255 255 255
-8.759907722473145 -2.2290523052215576 0.08843663334846497 255 255 255
-4.608895778656006 1.227046012878418 -0.1628502607345581 255 255 255
0.997542679309845 0.7861918210983276 -4.690691947937012 255 255 255
-8.046021461486816 0.5232375264167786 -11.62535572052002 255 255 255
-15.097821235656738 -17.572237014770508 -1.5368772745132446 255 255 255
-2.895076036453247 2.2784807682037354 9.514766693115234 255 255 255
-9.441702842712402 -3.745082139968872 -8.721548080444336 255 255 255
-9.976608276367188 1.3362442255020142 0.3150676488876343 255 255 255
-1.9720094203948975 -1.0877084732055664 3.913637399673462 255 255 255
-4.447481632232666 -1.6767544746398926 7.459505558013916 255 255 255
-17.70488166809082 -0.9628247022628784 -0.4377123713493347 255 255 255
-6.737518310546875 0.5425305366516113 -7.3781561851501465 255 255 255
-14.755130767822266 -4.485066890716553 -13.257081031799316 255 255 255
-18.295879364013672 3.732877492904663 53.46809005737305 255 255 255
-22.72943687438965 -0.8720647692680359 3.851653814315796 255 255 255
-14.193197250366211 -0.7785072326660156 0.06019528582692146 255 255 255
-16.831560134887695 -1.918204665184021 -10.537306785583496 255 255 255
-14.177885055541992 0.05518205091357231 -0.5895745754241943 255 255 255
-34.946895599365234 -22.10051155090332 18.839242935180664 255 255 255
-4.870065689086914 1.3174759149551392 1.7114510536193848 255 255 255
-5.0679850578308105 1.3601529598236084 1.7841728925704956 255 255 255
-4.096225261688232 -4.077591896057129 -9.464045524597168 255 255 255
-6.434957981109619 -3.2333579063415527 -0.25866013765335083 255 255 255
-5.288087368011475 1.3759297132492065 1.832962155342102 255 255 255
-4.569143772125244 1.3249455690383911 0.13578300178050995 255 255 255
-15.989973068237305 -14.453069686889648 17.50953483581543 255 255 255
-7.1269145011901855 1.590344786643982 8.206452369689941 255 255 255
-5.6154680252075195 -1.2339346408843994 8.471088409423828 255 255 255
-6.122508525848389 1.677117109298706 6.861483573913574 255 255 255
-7.565230846405029 -1.7878392934799194 -2.0716233253479004 255 255 255
-10.829345703125 -1.6138510704040527 0.9434289932250977 255 255 255
-9.869189262390137 -1.398710012435913 1.1172975301742554 255 255 255
-5.690804481506348 -1.2826284170150757 -2.3093326091766357 255 255 255
-12.767972946166992 -2.638744354248047 -2.147671699523926 255 255 255
-6.582200050354004 -3.5590596199035645 0.08184737712144852 255 255 255
-6.4364447593688965 0.42206329107284546 -10.786458015441895 255 255 255
-2.9388010501861572 1.368991494178772 -0.8202210664749146 255 255 255
-17.07921028137207 -20.490535736083984 19.739295959472656 255 255 255
4.580696105957031 -1.2799266576766968 -12.998266220092773 255 255 255
-15.777328491210938 -17.888412475585938 -13.490538597106934 255 255 255
-4.661733627319336 1.657117247581482 2.178374767303467 255 255 255
-14.657915115356445 -0.05614083632826805 -1.5737900733947754 255 255 255
-8.032987594604492 -0.3385806381702423 2.278420925140381 255 255 255
-4.637576580047607 0.9738801717758179 -2.823427200317383 255 255 255
-11.658172607421875 -13.404800415039062 8.653595924377441 255 255 255
-16.30324363708496 -4.2021484375 0.50527024269104 255 255 255
-5.2774481773376465 1.2437114715576172 0.9573410749435425 255 255 255
-3.996629476547241 -0.2591877281665802 -15.174710273742676 255 255 255
1.4279476404190063 -7.04178524017334 -9.877397537231445 255 255 255
-5.337987899780273 1.386061429977417 5.043717384338379 255 255 255
-8.110572814941406 1.5032416582107544 6.404682636260986 255 255 255
-9.826205253601074 1.8250226974487305 7.474752902984619 255 255 255
1.477195143699646 -1.1497716903686523 0.8948736786842346 255 255 255
2.345865249633789 -0.9907744526863098 0.22300401329994202 255 255 255
-1.2849719524383545 -3.994920015335083 -9.40036678314209 255 255 255
-13.281140327453613 -14.746859550476074 -18.695457458496094 255 255 255
-5.521438121795654 0.39266732335090637 -8.665700912475586 255 255 255
-4.752091407775879 -8.36811637878418 -8.082708358764648 255 255 255
-9.061405181884766 -14.687833786010742 -9.952771186828613 255 255 255
-4.030375003814697 1.0946072340011597 -4.046999454498291 255 255 255
-12.870024681091309 -2.8159077167510986 1.6379168033599854 255 255 255
-13.729893684387207 -1.2939482927322388 -5.706341743469238 255 255 255
-5.447151184082031 0.5443561673164368 -8.719718933105469 255 255 255
-11.670188903808594 -2.473843812942505 -2.1456363201141357 255 255 255
-14.8886079788208 -8.154958724975586 -13.784547805786133 255 255 255
-10.564647674560547 -9.579072952270508 -1.6528249979019165 255 255 255
-3.5502076148986816 -6.920442581176758 -5.01832389831543 255 255 255
-3.083056688308716 -4.921145915985107 -7.882908344268799 255 255 255
-13.662569999694824 -1.9341340065002441 -5.141104221343994 255 255 255
-11.779790878295898 -2.7023940086364746 -18.616117477416992 255 255 255
0.9472397565841675 1.1026153564453125 -1.247218132019043 255 255 255
-13.928780555725098 -17.397296905517578 -18.307741165161133 255 255 255
-6.06992244720459 1.1024706363677979 7.772073745727539 255 255 255
-4.023266315460205 -0.006753992289304733 7.214681625366211 255 255 255
-4.148406982421875 1.9290797710418701 4.687561511993408 255 255 255
-2.419933557510376 -0.3018241226673126 3.4923808574676514 255 255 255
-7.450175762176514 2.0472123622894287 7.608243942260742 255 255 255
-10.182591438293457 -1.441199779510498 1.1833282709121704 255 255 255
-6.263680934906006 1.2613369226455688 1.47687828540802 255 255 255
-6.688338279724121 0.5929440855979919 -8.840570449829102 255 255 255
-4.5783185958862305 -1.2506449222564697 -4.03781270980835 255 255 255
-6.054934501647949 1.2190152406692505 0.7221250534057617 255 255 255
-0.8601202964782715 -7.8280415534973145 3.736898899078369 255 255 255
-14.749492645263672 -1.8950672149658203 -12.873771667480469 255 255 255
-16.334646224975586 -2.4252982139587402 -18.365093231201172 255 255 255
-4.587385654449463 -1.2538186311721802 -4.0490593910217285 255 255 255
-11.025384902954102 -14.390334129333496 -11.791540145874023 255 255 255
-7.1045026779174805 -2.561307907104492 -10.819993019104004 255 255 255
-13.03426456451416 -3.2905123233795166 -0.8621861934661865 255 255 255
-9.306550979614258 -6.184476375579834 -4.340712070465088 255 255 255
-5.838463306427002 -3.384063243865967 -1.3202540874481201 255 255 255
-4.306282043457031 1.2502033710479736 -1.5264972448349 255 255 255
-12.721386909484863 2.141075372695923 13.293355941772461 255 255 255
-4.814684867858887 1.6428991556167603 3.808652400970459 255 255 255
-6.231718063354492 2.01249361038208 9.114401817321777 255 255 255
-2.878732919692993 -6.587168216705322 -10.009040832519531 255 255 255
-15.246914863586426 -13.380398750305176 -15.2183198928833 255 255 255
-15.092846870422363 -10.883291244506836 -18.818584442138672 255 255 255
-4.8236517906188965 -4.696049690246582 -0.5157138109207153 255 255 255
-4.536490440368652 -2.831371307373047 -8.746274948120117 255 255 255
-14.807951927185059 -1.3792754411697388 4.352145671844482 255 255 255
-4.509803295135498 1.3276243209838867 -1.2430709600448608 255 255 255
-14.356112480163574 -2.414774179458618 -4.436309814453125 255 255 255
-12.188089370727539 -4.626555919647217 -9.362065315246582 255 255 255
-17.14433479309082 -2.5412304401397705 4.215085983276367 255 255 255
-11.800697326660156 1.005874514579773 -0.4109750986099243 255 255 255
-29.16465950012207 -22.561819076538086 38.43257522583008 255 255 255
-2.2973339557647705 2.447864532470703 36.27237319946289 255 255 255
-5.988783359527588 -2.4979493618011475 60.51761245727539 255 255 255
-10.300773620605469 1.7733490467071533 12.60234546661377 255 255 255
-6.654845237731934 2.266033411026001 59.80767822265625 255 255 255
-14.165861129760742 -18.482975006103516 2.8410699367523193 255 255 255
-21.104291915893555 -23.09463882446289 11.246102333068848 255 255 255
-14.385151863098145 -19.81556510925293 -16.31134033203125 255 255 255
-16.62900733947754 -14.125981330871582 9.14229965209961 255 255 255
-8.351156234741211 2.17236328125 19.42778968811035 255 255 255
-1.3339881896972656 1.6989234685897827 6.190291881561279 255 255 255
-12.559257507324219 -16.484188079833984 7.544804573059082 255 255 255
-5.422616481781006 0.5219046473503113 -8.172948837280273 255 255 255
-4.037827014923096 0.2838127315044403 -9.585569381713867 255 255 255
-4.768372535705566 -2.1174447536468506 -1.8206360340118408 255 255 255
-17.561548233032227 -4.721920013427734 5.617517948150635 255 255 255
-4.116998672485352 1.2538777589797974 0.1103883758187294 255 255 255
-11.103500366210938 -3.463684320449829 1.7020422220230103 255 255 255
-9.159384727478027 -10.949673652648926 7.012396335601807 255 255 255
-16.275331497192383 -2.857541561126709 -13.571669578552246 255 255 255
-5.674357891082764 -4.437638759613037 -8.859553337097168 255 255 255
-1.7659099102020264 1.3907254934310913 -0.12282449007034302 255 255 255
-6.338368892669678 0.01741471327841282 -10.013079643249512 255 255 255
-5.295104026794434 -2.6703741550445557 -5.185156345367432 255 255 255
-9.925264358520508 -1.5023951530456543 0.7683793902397156 255 255 255
-2.4794044494628906 -0.6756945252418518 0.39782941341400146 255 255 255
-5.938623905181885 1.3313275575637817 2.982668876647949 255 255 255
-10.663073539733887 5.734129905700684 67.87141418457031 255 255 255
-8.516027450561523 5.272068500518799 62.81237030029297 255 255 255
-5.901634693145752 2.435098171234131 10.241504669189453 255 255 255
-5.679895401000977 1.6508618593215942 5.783162593841553 255 255 255
-0.7744147181510925 1.7697219848632812 6.725417137145996 255 255 255
-14.697410583496094 -4.178122520446777 47.54142761230469 255 255 255
-3.2723805904388428 0.4455806314945221 6.254980087280273 255 255 255
-5.16624116897583 1.3037281036376953 -0.8525654673576355 255 255 255
-6.3443732261657715 2.2735462188720703 15.986260414123535 255 255 255
-1.5914843082427979 1.9088696241378784 6.9445061683654785 255 255 255
-16.772478103637695 -1.068223237991333 2.3620941638946533 255 255 255
-11.643237113952637 -2.7012178897857666 1.8085523843765259 255 255 255
-16.568601608276367 -0.49661239981651306 8.919288635253906 255 255 255
-5.461792945861816 -0.21898949146270752 1.6538867950439453 255 255 255
-15.977291107177734 -18.106441497802734 21.146512985229492 255 255 255
-12.966072082519531 -13.331131935119629 -4.476911544799805 255 255 255
-6.755191802978516 0.673320472240448 -6.7079691886901855 255 255 255
-9.986598014831543 -6.28394079208374 -5.674502849578857 255 255 255
2.033205270767212 1.1894086599349976 0.3815014362335205 255 255 255
-6.513901710510254 -3.5150675773620605 -0.3711196184158325 255 255 255
-5.704421043395996 -0.6163243055343628 61.0743408203125 255 255 255
-21.439838409423828 -19.868667602539062 3.4109339714050293 255 255 255
-14.79358959197998 -18.122600555419922 -2.192519187927246 255 255 255
-13.016434669494629 -17.219566345214844 12.46522045135498 255 255 255
-13.634926795959473 -16.432653427124023 -10.134194374084473 255 255 255
2.524672746658325 -18.45884895324707 -15.92930793762207 255 255 255
-4.302974700927734 0.13343307375907898 -11.020589828491211 255 255 255
-4.787047386169434 0.9503477811813354 -2.398723602294922 255 255 255
-14.060543060302734 -1.1924339532852173 -4.486990451812744 255 255 255
-5.753232955932617 -1.118949055671692 -3.221850633621216 255 255 255
-7.137407302856445 1.628064513206482 3.5437071323394775 255 255 255
-6.872979164123535 -7.912862300872803 -16.603662490844727 255 255 255
-15.612571716308594 -14.25642204284668 -17.778650283813477 255 255 255
-2.973379135131836 -4.037247180938721 -14.259923934936523 255 255 255
-5.93571138381958 -0.4261144995689392 -2.4872043132781982 255 255 255
-4.768628120422363 0.2593236267566681 -3.958405017852783 255 255 255
-13.617626190185547 -15.537765502929688 -14.646848678588867 255 255 255
-6.946070671081543 -2.708805799484253 0.20681004226207733 255 255 255
-17.339046478271484 -4.341947555541992 0.6172576546669006 255 255 255
-12.282848358154297 -11.583724975585938 -17.31367301940918 255 255 255
-13.789336204528809 -20.325050354003906 -8.600375175476074 255 255 255
-4.3083815574646 -0.06347601860761642 -12.568062782287598 255 255 255
-17.298519134521484 -3.1294593811035156 -10.821664810180664 255 255 255
-14.750771522521973 -1.74099862575531 -2.1273934841156006 255 255 255
-2.458209276199341 0.3014296591281891 -5.683219909667969 255 255 255
-5.379206657409668 -1.2939649820327759 -2.1369142532348633 255 255 255
-3.069406747817993 -2.547234058380127 -1.5034475326538086 255 255 255
-16.097620010375977 -4.246613502502441 -10.111444473266602 255 255 255
-16.406042098999023 -0.9414605498313904 4.184088230133057 255 255 255
-9.76901912689209 -1.5587010383605957 0.13169705867767334 255 255 255
-4.925756931304932 1.0700491666793823 -1.9046850204467773 255 255 255
-12.564143180847168 -3.9684221744537354 -11.974757194519043 255 255 255
-12.498185157775879 -5.861816883087158 -7.19169282913208 255 255 255
-9.991046905517578 -2.4621269702911377 -1.926116704940796 255 255 255
-4.486825942993164 0.9211409091949463 -2.0535178184509277 255 255 255
-12.743219375610352 -2.72969651222229 0.28444766998291016 255 255 255
-4.775687217712402 0.15568679571151733 -4.082037925720215 255 255 255
-5.2367987632751465 0.5377796292304993 -7.216423511505127 255 255 255
-16.359479904174805 -3.4612319469451904 -14.272574424743652 255 255 255
-4.192238807678223 -0.14312002062797546 -2.3463425636291504 255 255 255
-18.261165618896484 -3.080202579498291 -0.09626755118370056 255 255 255
-14.31965160369873 -3.9557204246520996 -11.045284271240234 255 255 255
-1.5114370584487915 1.0234065055847168 -3.5580554008483887 255 255 255
-5.750013828277588 -5.020275592803955 -8.359737396240234 255 255 255
-13.528203964233398 -3.7157418727874756 -2.6008424758911133 255 255 255
-14.503302574157715 -3.028939962387085 2.852605104446411 255 255 255
-15.633456230163574 -4.885965347290039 -2.7819530963897705 255 255 255
-15.660035133361816 -10.661042213439941 -18.44106101989746 255 255 255
-17.463228225708008 -3.508888006210327 -0.1011577844619751 255 255 255
-11.02186107635498 -0.9426845908164978 0.39501136541366577 255 255 255
-5.223877906799316 -0.10885551571846008 -14.02368450164795 255 255 255
-5.450494289398193 -4.98272705078125 -8.489681243896484 255 255 255
-10.371439933776855 2.691689968109131 16.18029022216797 255 255 255
-4.5895915031433105 2.2495687007904053 8.455743789672852 255 255 255
-18.10916519165039 -4.344265460968018 4.159346103668213 255 255 255
-11.644719123840332 -3.5402369499206543 -0.9018858075141907 255 255 255
-14.535646438598633 -0.7565615177154541 0.1309610903263092 255 255 255
-9.692194938659668 1.7842804193496704 7.866542816162109 255 255 255
-21.8272762298584 -3.1121344566345215 13.541996002197266 255 255 255
-15.219557762145996 -4.441535472869873 -11.514217376708984 255 255 255
-19.227588653564453 -2.3665499687194824 -0.5116116404533386 255 255 255
-7.000161647796631 -2.129879951477051 -4.748322010040283 255 255 255
-7.745455265045166 -2.527339220046997 -4.719784736633301 255 255 255
-7.610897541046143 -2.4922292232513428 54.02716827392578 255 255 255
-15.365898132324219 -20.264204025268555 6.115077018737793 255 255 255
-7.708715438842773 -13.064521789550781 22.05002212524414 255 255 255
-19.277584075927734 -18.933454513549805 16.955543518066406 255 255 255
-0.3690791130065918 3.0036494731903076 18.157934188842773 255 255 255
-5.469263076782227 1.4530344009399414 2.789531707763672 255 255 255
-8.291266441345215 -5.854373931884766 -5.298591613769531 255 255 255
-13.015762329101562 -3.984428644180298 -12.889443397521973 255 255 255
-6.135943412780762 1.472214937210083 3.1205389499664307 255 255 255
-10.87699031829834 2.1280229091644287 6.0968017578125 255 255 255
-4.941154956817627 1.869160771369934 4.5220561027526855 255 255 255
-4.734098434448242 1.9910788536071777 7.041060924530029 255 255 255
-7.368692398071289 -2.039245843887329 59.3003044128418 255 255 255
-16.70721435546875 -2.6120665073394775 -10.476492881774902 255 255 255
-9.146480560302734 -2.271838903427124 0.10266982018947601 255 255 255
-7.747054576873779 -0.7920359969139099 -2.836066246032715 255 255 255
-4.479259014129639 -0.19281603395938873 -4.017307758331299 255 255 255
-5.408054828643799 -0.0945231020450592 -2.351799488067627 255 255 255
-20.249862670898438 -5.871446132659912 -0.566591203212738 255 255 255
-12.685049057006836 -4.221288681030273 -5.828060150146484 255 255 255
-17.985260009765625 -0.8189584016799927 0.3936280906200409 255 255 255
-14.088690757751465 -3.8097660541534424 -5.747594833374023 255 255 255
-8.088839530944824 -0.3778214156627655 58.55960464477539 255 255 255
-10.793746948242188 -8.608158111572266 3.584451675415039 255 255 255
-13.349461555480957 -15.389281272888184 -19.185222625732422 255 255 255
-23.449716567993164 -6.067514419555664 -11.273651123046875 255 255 255
-5.916012287139893 -0.4017859101295471 -2.4620237350463867 255 255 255
-21.92795753479004 -6.44861364364624 -1.6139686107635498 255 255 255
-6.918595314025879 0.8645344972610474 -5.07848596572876 255 255 255
-16.57322120666504 -2.2647438049316406 0.3497678339481354 255 255 255
-6.934129238128662 -2.7458767890930176 2.9361724853515625 255 255 255
-10.98857593536377 -1.650120496749878 3.4110734462738037 255 255 255
-5.203297138214111 -0.124505914747715 -2.500088691711426 255 255 255
-7.0039825439453125 0.8641384243965149 -6.7885541915893555 255 255 255
-5.759288311004639 -5.023787975311279 -8.432549476623535 255 255 255
-4.327287197113037 1.233110785484314 -1.4894155263900757 255 255 255
-0.7357080578804016 1.1498645544052124 -1.6167991161346436 255 255 255
-5.922653675079346 0.6992954611778259 -7.116870880126953 255 255 255
-17.1396541595459 1.5727779865264893 28.18712043762207 255 255 255
-12.378385543823242 6.61591100692749 26.042272567749023 255 255 255
-11.022954940795898 -1.366288661956787 0.7966410517692566 255 255 255
-16.127323150634766 -3.297549247741699 0.40053847432136536 255 255 255
-13.112970352172852 -3.018470048904419 -2.136563777923584 255 255 255
-17.526521682739258 -5.057651519775391 -8.016776084899902 255 255 255
-19.29890251159668 -6.192742347717285 0.10265514999628067 255 255 255
-11.036314010620117 2.308229684829712 21.152976989746094 255 255 255
1.2177973985671997 -0.11777093261480331 9.470626831054688 255 255 255
-3.6458349227905273 2.8585686683654785 11.608329772949219 255 255 255
-3.5416054725646973 -24.994138717651367 -17.68665313720703 255 255 255
-14.145002365112305 -13.438848495483398 5.0150346755981445 255 255 255
-15.8206148147583 -17.44331169128418 8.93613338470459 255 255 255
-9.237518310546875 -13.202034950256348 0.2576296329498291 255 255 255
-19.991117477416992 -19.76093101501465 23.621652603149414 255 255 255
-10.76142692565918 -14.64570140838623 3.792289972305298 255 255 255
-16.80924415588379 -18.114910125732422 3.294236421585083 255 255 255
-12.976778984069824 -15.42361068725586 4.021910667419434 255 255 255
-2.2203853130340576 1.2703368663787842 -1.481521725654602 255 255 255
-17.335247039794922 -4.907278060913086 -15.760744094848633 255 255 255
-9.334356307983398 4.922774314880371 65.38824462890625 255 255 255
-7.746799468994141 -5.556233882904053 -10.120511054992676 255 255 255
-7.967050552368164 -3.262526512145996 -4.912746429443359 255 255 255
-10.621350288391113 -2.6565966606140137 -3.2019004821777344 255 255 255
-4.969842433929443 1.3783061504364014 0.7974423170089722 255 255 255
-8.991312980651855 -2.2780063152313232 0.09140321612358093 255 255 255
-14.981135368347168 -20.77899932861328 10.864500999450684 255 255 255
-7.967126846313477 1.4856865406036377 5.383119583129883 255 255 255
-10.771336555480957 2.278770923614502 15.47955322265625 255 255 255
-4.275087833404541 1.6070476770401 2.795186758041382 255 255 255
-3.1331424713134766 2.0164968967437744 5.085079193115234 255 255 255
-10.702262878417969 -2.526716709136963 -5.780976295471191 255 255 255
-15.27387809753418 -4.977025032043457 -5.601871013641357 255 255 255
-4.992030620574951 1.0831204652786255 -1.8901805877685547 255 255 255
-6.73438835144043 -1.8390377759933472 -2.681252956390381 255 255 255
-13.422734260559082 -0.49241897463798523 -9.786638259887695 255 255 255
-17.28497886657715 -5.054741382598877 -16.191957473754883 255 255 255
-17.354829788208008 -4.118821620941162 -9.292091369628906 255 255 255
-12.167190551757812 -3.2264206409454346 -9.070791244506836 255 255 255
-13.425293922424316 -4.6542134284973145 -12.505827903747559 255 255 255
-11.236737251281738 -2.631897449493408 -5.599099159240723 255 255 255
-13.682707786560059 -4.261964321136475 -12.062186241149902 255 255 255
-11.766640663146973 -1.1530004739761353 -3.282968044281006 255 255 255
-17.588956832885742 -2.549201011657715 3.822991132736206 255 255 255
-12.809121131896973 -6.359401702880859 -11.430180549621582 255 255 255
-3.059661626815796 1.430897831916809 -0.07646182924509048 255 255 255
-16.092008590698242 -1.0026373863220215 0.3681672513484955 255 255 255
-16.301982879638672 -2.873222589492798 -0.18824073672294617 255 255 255
-9.890271186828613 -2.291849374771118 -0.1301911175251007 255 255 255
-6.772698402404785 0.517541766166687 -7.772215366363525 255 255 255
-11.077146530151367 1.8793714046478271 13.11850643157959 255 255 255
-7.0183024406433105 2.2504489421844482 15.09771728515625 255 255 255
-15.296664237976074 -1.315500259399414 4.459375381469727 255 255 255
-11.58588695526123 -1.3794044256210327 0.8739707469940186 255 255 255
-17.135902404785156 -3.956538438796997 -5.38897180557251 255 255 255
-16.631921768188477 -1.3576432466506958 -5.68396520614624 255 255 255
-12.303580284118652 -1.8101511001586914 1.2959545850753784 255 255 255
-11.151700973510742 -14.281085968017578 0.6139726638793945 255 255 255
-16.051246643066406 -17.2801570892334 3.7350003719329834 255 255 255
-9.853337287902832 -11.233528137207031 -0.6759176850318909 255 255 255
-13.96680736541748 -18.014314651489258 -5.697909355163574 255 255 255
-14.95119857788086 -2.8008508682250977 -18.209178924560547 255 255 255
-21.58310317993164 1.6177676916122437 28.471668243408203 255 255 255
-6.694840908050537 3.730790853500366 23.31220245361328 255 255 255
-6.564507007598877 2.1243839263916016 9.566608428955078 255 255 255
-8.51786994934082 1.2693099975585938 4.76839017868042 255 255 255
-12.199724197387695 -2.4160094261169434 2.372061252593994 255 255 255
-12.887104988098145 -11.030435562133789 -18.04726219177246 255 255 255
-14.673249244689941 -16.876474380493164 1.7632068395614624 255 255 255
-12.105940818786621 -3.6878068447113037 -11.204914093017578 255 255 255
-6.2439494132995605 -2.6245055198669434 -4.7815446853637695 255 255 255
-8.993820190429688 -2.2609777450561523 -5.218271732330322 255 255 255
-15.816864967346191 -15.877620697021484 -15.296029090881348 255 255 255
-10.785038948059082 -11.118352890014648 -0.5408947467803955 255 255 255
-16.701093673706055 -17.406675338745117 -5.738792419433594 255 255 255
-13.635519981384277 -2.494584560394287 -17.393733978271484 255 255 255
-16.821542739868164 -14.78508472442627 0.8892806768417358 255 255 255
-12.505373001098633 -10.83897590637207 -10.051873207092285 255 255 255
-8.160242080688477 -9.21809196472168 -11.122848510742188 255 255 255
-16.117523193359375 -10.573932647705078 -11.374523162841797 255 255 255
-1.0229575634002686 -8.640503883361816 -3.378084659576416 255 255 255
-14.566631317138672 -3.1062395572662354 3.604417324066162 255 255 255
-13.037893295288086 3.1566224098205566 9.052151679992676 255 255 255
-9.354755401611328 1.5762202739715576 5.767550468444824 255 255 255
-14.891180038452148 -16.618545532226562 -10.495391845703125 255 255 255
-11.517632484436035 -3.2749745845794678 -15.606410026550293 255 255 255
-9.415864944458008 0.380901038646698 -14.612265586853027 255 255 255
-3.1694281101226807 1.4552736282348633 -0.057663530111312866 255 255 255
-4.252549648284912 -0.13427485525608063 -7.906445503234863 255 255 255
-18.956863403320312 -16.028409957885742 24.82970428466797 255 255 255
-15.19780445098877 -17.754867553710938 -16.19232177734375 255 255 255
-19.47785186767578 -13.296331405639648 8.641140937805176 255 255 255
-7.70206880569458 -12.7625093460083 -10.25000286102295 255 255 255
-14.42153549194336 -14.214072227478027 -16.097938537597656 255 255 255
-13.711478233337402 -0.4766392707824707 -9.902995109558105 255 255 255
-9.187581062316895 -6.152666091918945 -11.163347244262695 255 255 255
-12.79801082611084 -14.438688278198242 -18.72386932373047 255 255 255
-14.345863342285156 -10.914580345153809 7.905481815338135 255 255 255
-16.766590118408203 -12.337859153747559 3.375731945037842 255 255 255
-13.458833694458008 -12.33973503112793 -19.80852699279785 255 255 255
-16.36734962463379 -3.442742347717285 -0.1078048050403595 255 255 255
-15.495555877685547 -1.3702683448791504 3.8982231616973877 255 255 255
-8.149784088134766 -4.793951034545898 -9.026350975036621 255 255 255
-12.930529594421387 -1.679846167564392 -16.363243103027344 255 255 255
-15.484804153442383 -6.009476184844971 -11.66317367553711 255 255 255
3.5761570930480957 -5.729381561279297 -7.337828636169434 255 255 255
-3.187279224395752 -3.106865882873535 10.567302703857422 255 255 255
-1.3915061950683594 1.7814764976501465 5.990835189819336 255 255 255
-1.9142656326293945 1.2769395112991333 7.083531379699707 255 255 255
-7.113760471343994 1.2972532510757446 9.032350540161133 255 255 255
-4.4836745262146 2.1747748851776123 8.269369125366211 255 255 255
-5.214225769042969 0.38585150241851807 6.837066173553467 255 255 255
-18.246320724487305 -2.5649001598358154 -5.826107501983643 255 255 255
-14.717248916625977 -12.96396541595459 -15.272049903869629 255 255 255
-16.53420639038086 -17.245370864868164 3.4186816215515137 255 255 255
-16.506376266479492 -4.005836486816406 3.7079849243164062 255 255 255
-9.973082542419434 -0.4202781915664673 4.675455093383789 255 255 255
-15.982024192810059 -0.4963008165359497 7.772151947021484 255 255 255
-9.12846565246582 1.7714300155639648 8.612004280090332 255 255 255
-11.829010009765625 -4.875897407531738 -10.010605812072754 255 255 255
-16.960662841796875 -17.93768882751465 -4.475550174713135 255 255 255
-16.730724334716797 -10.7691068649292 -17.414196014404297 255 255 255
-8.469870567321777 -9.286826133728027 -11.239968299865723 255 255 255
-11.575516700744629 -14.179388999938965 -9.659382820129395 255 255 255
-14.179544448852539 -14.446955680847168 11.750295639038086 255 255 255
-4.441925048828125 0.13150960206985474 -11.35046672821045 255 255 255
2.8397912979125977 1.1742078065872192 0.12107791006565094 255 255 255
-17.15233612060547 -2.89681339263916 -10.7080078125 255 255 255
6.018709182739258 -0.6179685592651367 1.0628819465637207 255 255 255
-13.380741119384766 -17.758920669555664 -4.7584967613220215 255 255 255
-4.73728609085083 -0.018197881057858467 8.276253700256348 255 255 255
-15.727362632751465 -2.2733020782470703 -7.803606033325195 255 255 255
-3.7465643882751465 -6.344030380249023 -14.321415901184082 255 255 255
-16.023340225219727 -9.088069915771484 -17.526409149169922 255 255 255
-9.897721290588379 2.14088773727417 12.954034805297852 255 255 255
-6.895239353179932 2.20562481880188 10.448982238769531 255 255 255
-9.277985572814941 -14.776407241821289 -10.631356239318848 255 255 255
-12.018674850463867 -16.665721893310547 -12.28924560546875 255 255 255
-8.081028938293457 0.9834924936294556 -8.403053283691406 255 255 255
-17.291980743408203 -8.141449928283691 -10.777874946594238 255 255 255
-15.920122146606445 -4.114147663116455 0.4716828465461731 255 255 255
-4.36081600189209 1.03179931640625 -2.736926794052124 255 255 255
-24.441356658935547 -6.209370136260986 -1.8372304439544678 255 255 255
-5.33735466003418 1.451763391494751 1.9844721555709839 255 255 255
-15.854506492614746 -4.436434268951416 -2.4308345317840576 255 255 255
-13.107394218444824 -3.803609609603882 -5.640356540679932 255 255 255
-16.958208084106445 -13.927351951599121 2.7833683490753174 255 255 255
-14.353198051452637 -20.78544044494629 -3.2362518310546875 255 255 255
-4.952175140380859 1.5254420042037964 3.635051727294922 255 255 255
-5.4763641357421875 0.4603010416030884 7.42132043838501 255 255 255
-21.007551193237305 -1.4828661680221558 5.247745037078857 255 255 255
-15.200973510742188 -3.3211209774017334 2.5824296474456787 255 255 255
-4.916169166564941 1.9460562467575073 3.04888916015625 255 255 255
-1.3524837493896484 1.7097296714782715 4.238633155822754 255 255 255
-9.579572677612305 1.7285525798797607 5.877058982849121 255 255 255
-9.25398063659668 1.5663405656814575 4.5280022621154785 255 255 255
-15.664956092834473 -1.9111433029174805 -0.35758641362190247 255 255 255
-10.115978240966797 -0.507314920425415 0.16409438848495483 255 255 255
-18.383861541748047 -4.086613178253174 -1.2956717014312744 255 255 255
-13.266005516052246 -10.140539169311523 2.5660808086395264 255 255 255
-14.134453773498535 -17.846729278564453 -0.10901564359664917 255 255 255
-6.842036247253418 -2.7050681114196777 0.15938253700733185 255 255 255
-4.3499064445495605 -8.05600357055664 -7.801435947418213 255 255 255
-11.157745361328125 0.8567235469818115 67.39535522460938 255 255 255
-13.33121109008789 -11.799897193908691 -13.613099098205566 255 255 255
-14.51187515258789 -12.348004341125488 -1.3475579023361206 255 255 255
-4.68870210647583 1.454932689666748 0.41532081365585327 255 255 255
-2.4011542797088623 -1.9492206573486328 7.256036758422852 255 255 255
-1.8803611993789673 -1.071685552597046 3.885437250137329 255 255 255
-1.6906846761703491 -0.6200332045555115 2.228355646133423 255 255 255
-7.113844871520996 1.2162070274353027 3.5714876651763916 255 255 255
-9.021096229553223 1.5772730112075806 13.063024520874023 255 255 255
-18.268587112426758 0.7724632620811462 17.414026260375977 255 255 255
-10.996804237365723 -1.9022198915481567 3.7221734523773193 255 255 255
-10.976131439208984 1.9340192079544067 15.7243013381958 255 255 255
-2.886674165725708 2.1418120861053467 8.643447875976562 255 255 255
-16.196725845336914 -1.325380802154541 3.8704781532287598 255 255 255
-9.148502349853516 1.6807610988616943 5.657556056976318 255 255 255
-3.4253127574920654 -6.327430725097656 -9.05395221710205 255 255 255
-1.586967945098877 -4.005734443664551 -9.689212799072266 255 255 255
-1.9241588115692139 -4.2556047439575195 -9.240432739257812 255 255 255
-3.228921413421631 1.0364882946014404 -1.6772825717926025 255 255 255
-1.3199762105941772 -3.9389188289642334 -9.552072525024414 255 255 255
-11.59166145324707 -10.116209030151367 1.2660034894943237 255 255 255
-21.560325622558594 -10.183527946472168 -13.591374397277832 255 255 255
-6.990270137786865 -2.8884308338165283 -5.602834224700928 255 255 255
-7.956114768981934 -10.768078804016113 -17.621858596801758 255 255 255
-17.386640548706055 -19.0140438079834 16.455270767211914 255 255 255
-15.016587257385254 -20.151714324951172 6.094049453735352 255 255 255
-9.397512435913086 -2.4863932132720947 -4.3811421394348145 255 255 255
-12.313076972961426 -2.67611026763916 -11.456254005432129 255 255 255
-4.979518890380859 -1.2546169757843018 -2.170231819152832 255 255 255
-14.258173942565918 -15.775581359863281 0.6951249241828918 255 255 255
-16.22937774658203 -14.007987976074219 5.296933650970459 255 255 255
-4.0259857177734375 -6.443521499633789 -0.48016002774238586 255 255 255
-0.9129565954208374 -4.341304779052734 -1.7858887910842896 255 255 255
-14.42903995513916 -18.989994049072266 -14.629875183105469 255 255 255
-2.614579916000366 -4.464202880859375 -1.0218967199325562 255 255 255
5.744681358337402 0.2164047509431839 -7.899857044219971 255 255 255
-13.505655288696289 -4.444305419921875 50.446720123291016 255 255 255
-10.72503662109375 2.5336320400238037 19.321115493774414 255 255 255
-6.205801963806152 1.6017017364501953 8.050409317016602 255 255 255
-9.682770729064941 1.9018027782440186 8.709436416625977 255 255 255
-12.18751049041748 -12.15943717956543 7.6301589012146 255 255 255
-3.304521083831787 -19.121549606323242 18.08597183227539 255 255 255
-15.227980613708496 -17.775009155273438 6.4496169090271 255 255 255
-16.302383422851562 -18.072261810302734 -13.634156227111816 255 255 255
-1.5921293497085571 -10.389158248901367 0.6195932030677795 255 255 255
-9.839704513549805 -18.094017028808594 -14.786005020141602 255 255 255
-6.082212924957275 2.879185676574707 12.125317573547363 255 255 255
-5.667923927307129 -2.4120960235595703 2.3228816986083984 255 255 255
-1.4391694068908691 1.5629974603652954 3.216761350631714 255 255 255
-6.438701629638672 -9.081877708435059 -15.675957679748535 255 255 255
-16.95461082458496 -13.767943382263184 -20.94737434387207 255 255 255
-14.005518913269043 -19.701221466064453 -16.166475296020508 255 255 255
-14.925079345703125 -22.341259002685547 -7.1404500007629395 255 255 255
-12.3058500289917 -14.436792373657227 -18.688819885253906 255 255 255
-6.672976016998291 -3.4918620586395264 0.6496339440345764 255 255 255
-14.650712966918945 -2.0761983394622803 -8.834887504577637 255 255 255
-15.121325492858887 -4.023470878601074 -9.71483325958252 255 255 255
-12.239989280700684 -1.6638965606689453 -14.395313262939453 255 255 255
-6.110949516296387 1.3012562990188599 1.093049168586731 255 255 255
-5.785401344299316 -6.076714992523193 -4.267553329467773 255 255 255
-7.685102939605713 1.7061407566070557 4.253100395202637 255 255 255
-11.720365524291992 2.2892913818359375 15.93619155883789 255 255 255
-7.721732139587402 1.3237967491149902 1.2908943891525269 255 255 255
-5.5076751708984375 1.5179615020751953 3.729832649230957 255 255 255
-6.768563747406006 1.5812033414840698 7.8325958251953125 255 255 255
-5.850748538970947 1.4621119499206543 2.712266445159912 255 255 255
-3.243377685546875 -0.18522344529628754 -14.253752708435059 255 255 255
-10.022271156311035 -11.460203170776367 -18.20968246459961 255 255 255
-16.77423858642578 -12.986104011535645 -1.5250331163406372 255 255 255
-10.297258377075195 -13.708686828613281 -11.286343574523926 255 255 255
-16.22130584716797 -13.463072776794434 4.907451629638672 255 255 255
-10.086078643798828 -10.271985054016113 -9.400622367858887 255 255 255
-13.21903133392334 -20.853206634521484 -7.482641220092773 255 255 255
2.1664769649505615 1.117465853691101 -0.39246541261672974 255 255 255
-4.335291385650635 -5.754829406738281 -10.1464262008667 255 255 255
-4.064516544342041 0.38912925124168396 -7.5463056564331055 255 255 255
-11.485851287841797 -0.9899302124977112 -15.451642990112305 255 255 255
-6.671175003051758 -1.954744577407837 -6.124156475067139 255 255 255
-9.540043830871582 -3.2705092430114746 -4.996028900146484 255 255 255
-5.007566928863525 1.096163272857666 -1.8864167928695679 255 255 255
-4.181647777557373 1.0948103666305542 -1.6066317558288574 255 255 255
-17.358539581298828 -5.6534743309021 -7.93636417388916 255 255 255
-10.749982833862305 -3.6687240600585938 -5.317015647888184 255 255 255
-6.624647617340088 1.7157869338989258 2.7078306674957275 255 255 255
-11.80495548248291 -13.292030334472656 -4.392989158630371 255 255 255
-13.885042190551758 -13.487245559692383 17.26938247680664 255 255 255
-16.77266502380371 -14.740981101989746 14.105635643005371 255 255 255
-11.307554244995117 -13.360370635986328 -12.330095291137695 255 255 255
-9.657388687133789 1.3023879528045654 0.2580253481864929 255 255 255
-5.190162181854248 2.2293853759765625 8.966766357421875 255 255 255
1.3045623302459717 1.4185988903045654 9.368207931518555 255 255 255
0.8221984505653381 2.269256591796875 10.641291618347168 255 255 255
-11.05331802368164 -0.5714186429977417 -0.16328680515289307 255 255 255
-9.390655517578125 1.583693027496338 4.595057487487793 255 255 255
-4.991046905517578 -1.6088814735412598 1.6863436698913574 255 255 255
-10.761933326721191 -3.1981194019317627 -19.503463745117188 255 255 255
-6.002885818481445 1.210516333580017 0.6986805200576782 255 255 255
-16.088022232055664 -20.46363639831543 9.564764976501465 255 255 255
-15.866700172424316 -16.984882354736328 8.102789878845215 255 255 255
-6.930606842041016 -2.367520570755005 -2.774728298187256 255 255 255
-14.927435874938965 -16.313737869262695 -0.14929649233818054 255 255 255
-6.423239231109619 0.48834875226020813 8.026778221130371 255 255 255
-11.049521446228027 -1.240290641784668 -0.24525846540927887 255 255 255
-9.575582504272461 1.7685246467590332 7.289322376251221 255 255 255
-7.408832550048828 -1.091511607170105 2.715099573135376 255 255 255
-11.615341186523438 -2.2259504795074463 1.1320489645004272 255 255 255
-20.7570858001709 -13.52698040008545 -1.7524583339691162 255 255 255
-14.878891944885254 -17.12195587158203 1.7928568124771118 255 255 255
-13.724684715270996 -12.687149047851562 -14.86600399017334 255 255 255
-4.943621635437012 -0.1384010761976242 -3.3977463245391846 255 255 255
-0.019341783598065376 1.1023168563842773 -1.2433110475540161 255 255 255
-14.827741622924805 -5.495936393737793 -12.925142288208008 255 255 255
-5.81899881362915 2.144167900085449 10.358878135681152 255 255 255
-5.594178676605225 2.445970296859741 10.56015682220459 255 255 255
-12.269015312194824 -3.356785297393799 -10.971901893615723 255 255 255
-8.181983947753906 -10.117013931274414 -17.09853172302246 255 255 255
-0.8047073483467102 -4.112626075744629 -11.467232704162598 255 255 255
-16.110210418701172 -16.535669326782227 -9.93116569519043 255 255 255
-11.402822494506836 -10.822484016418457 -10.167612075805664 255 255 255
-20.263370513916016 -18.953432083129883 24.422025680541992 255 255 255
-9.63115119934082 -13.490250587463379 -10.978428840637207 255 255 255
-11.144723892211914 -11.079122543334961 -12.707719802856445 255 255 255
-9.291694641113281 -11.118101119995117 -12.485577583312988 255 255 255
-14.96888542175293 -14.397058486938477 -16.37616539001465 255 255 255
-4.723327159881592 0.1300409883260727 -10.695816040039062 255 255 255
-15.360904693603516 -19.933082580566406 10.225275993347168 255 255 255
-18.027584075927734 -19.691516876220703 18.1361141204834 255 255 255
-19.980329513549805 -10.675919532775879 16.19598388671875 255 255 255
-11.319853782653809 -13.27420425415039 -17.026779174804688 255 255 255
-4.668649673461914 1.0005340576171875 -1.995418667793274 255 255 255
-5.8067522048950195 -0.7178810834884644 2.0257256031036377 255 255 255
-11.41915512084961 -2.7148385047912598 -5.695239067077637 255 255 255
-17.342222213745117 -1.4615046977996826 -5.8937482833862305 255 255 255
-5.935727119445801 -1.4732458591461182 -2.5018014907836914 255 255 255
-18.0661563873291 -4.841796398162842 -7.792787551879883 255 255 255
-9.927501678466797 -3.5249428749084473 -5.627054691314697 255 255 255
-11.371260643005371 -16.756370544433594 12.229020118713379 255 255 255
-16.68832778930664 -14.034941673278809 9.341943740844727 255 255 255
-6.392904758453369 2.250875949859619 11.16858959197998 255 255 255
-10.274277687072754 2.3607394695281982 13.062500953674316 255 255 255
-10.445995330810547 1.7172682285308838 15.175963401794434 255 255 255
-4.267272472381592 -0.014718718826770782 7.5630950927734375 255 255 255
-3.4478869438171387 0.45773544907569885 2.603086233139038 255 255 255
-6.691020488739014 0.13239073753356934 6.680859565734863 255 255 255
-5.584226608276367 1.419863224029541 2.499837875366211 255 255 255
-6.4584527015686035 2.2821993827819824 11.220778465270996 255 255 255
-8.18012809753418 -0.7235845923423767 -2.015183210372925 255 255 255
-9.63898754119873 -2.153337001800537 -3.7484960556030273 255 255 255
-16.98331069946289 -1.8174546957015991 4.167503833770752 255 255 255
-5.885284900665283 1.2315571308135986 -2.0693962574005127 255 255 255
-17.534284591674805 -3.4690427780151367 -5.617513179779053 255 255 255
-13.87881088256836 -4.280178546905518 -11.663158416748047 255 255 255
-9.563920021057129 -2.9341695308685303 -5.319772720336914 255 255 255
-8.073033332824707 1.308655858039856 0.48033422231674194 255 255 255
-2.6059532165527344 -1.450255036354065 5.6144328117370605 255 255 255
-5.02103853225708 -0.8911544680595398 1.6904089450836182 255 255 255
-1.5828086137771606 1.894663691520691 5.411077976226807 255 255 255
-3.4900546073913574 -1.2246904373168945 5.799907207489014 255 255 255
-8.872897148132324 -2.2883284091949463 0.08749015629291534 255 255 255
-4.652346134185791 1.4257023334503174 1.7743053436279297 255 255 255
-13.684114456176758 7.070790767669678 64.56936645507812 255 255 255
-4.841346263885498 1.6638599634170532 1.7550362348556519 255 255 255
-10.107915878295898 -8.57602310180664 -15.911333084106445 255 255 255
1.1022326946258545 -3.806627035140991 -7.203492641448975 255 255 255
-8.977553367614746 -3.2553701400756836 -9.909402847290039 255 255 255
-6.043844223022461 0.4720090329647064 -9.06746768951416 255 255 255
-10.076315879821777 7.181580543518066 55.63792419433594 255 255 255
-1.5715276002883911 -1.0061393976211548 2.203679323196411 255 255 255
-9.908370971679688 1.791413426399231 6.541736602783203 255 255 255
-1.3639628887176514 0.9844462275505066 -0.8923754096031189 255 255 255
-1.2352993488311768 -3.9161155223846436 -9.492637634277344 255 255 255
0.10499976575374603 0.9410688281059265 -4.161377906799316 255 255 255
-3.8694167137145996 -5.383256912231445 -6.144731521606445 255 255 255
-16.0944766998291 -19.199176788330078 12.888335227966309 255 255 255
-32.09031677246094 -24.268192291259766 22.318527221679688 255 255 255
-5.301214694976807 0.5934346318244934 57.72214889526367 255 255 255
