-238.71074551852578 6.722672362430373 69.03049615201823 255 255 255
-251.84341388711613 8.862406500901471 59.33401138678505 255 255 255
-252.3974195643246 8.444780039415722 59.95079665292444 255 255 255
-251.94102637538967 7.566515157855748 57.46721611193664 255 255 255
-259.6274503053101 6.26481633853445 60.83469472898196 255 255 255
-261.53334576095847 1.156766892586095 57.53856800924184 255 255 255
-256.96325757651863 9.82529552231926 66.06376575354265 255 255 255
-246.44338655614607 11.386433674685803 74.02064420644595 255 255 255
-259.64521893780676 9.378122384972931 62.577595816681495 255 255 255
-256.02654293842176 9.96569463928944 67.83945836451973 255 255 255
-258.66585892528127 -1.4375547506690491 61.520225192405206 255 255 255
-262.3913521549766 8.5644674018343 59.8276050345559 255 255 255
-252.90644520829096 2.891782237179796 50.52353145809391 255 255 255
-256.88288460692655 9.880356854129067 66.22848127067563 255 255 255
-235.41798768302732 6.756095157442641 61.706953725652994 255 255 255
-243.00732812029352 5.510791732835661 67.3045624778799 255 255 255
-244.3712174672826 5.585088235833682 64.04703359178883 255 255 255
-245.075998070474 10.738217185217975 66.52727441106386 255 255 255
-244.6708666820901 0.9954581182947049 55.134915169981795 255 255 255
-256.9869676720932 9.948542062393141 68.08446866653127 255 255 255
-243.2334746110916 6.61856906911351 66.6785816155828 255 255 255
-264.57435031659116 2.2699751514233055 60.70915047214902 255 255 255
-252.1922400564588 -5.076369697857507 48.568953339374204 255 255 255
-245.056765259586 3.5608096866848555 64.47524089987589 255 255 255
-263.08589908260876 2.5924728818934737 56.00400959235097 255 255 255
-254.87889547112798 -6.615805003490128 49.434757897031204 255 255 255
-239.50670081167584 9.14656132735302 57.71305945007191 255 255 255
-254.64019170058145 10.549045942717923 72.43175569412305 255 255 255
-251.48308763855752 10.477479450108316 69.64365898475947 255 255 255
-258.3437422760615 -0.2055484306869504 63.0152940029958 255 255 255
-254.3149151372215 1.3812470306951639 50.93605553178284 255 255 255
-254.49539773563916 -2.590365184972688 51.29272006700374 255 255 255
-255.9502590540869 -2.927047723269709 49.63272117939577 255 255 255
-249.8465768231849 6.227775353882949 83.18326988596009 255 255 255
-238.47712663680375 13.754589393962004 90.30729563024966 255 255 255
-228.08320042261863 7.528040805959643 91.41775846478215 255 255 255
-247.02294644554004 12.885067654606202 87.67744659876828 255 255 255
-243.7559347478629 13.375001988448584 90.31158603453981 255 255 255
-243.84581415744515 10.874450856984497 70.06732404360628 255 255 255
-249.71378456402996 12.134151170650961 105.159517381783 255 255 255
-259.3257301035291 -3.6485222407560913 75.18956413383987 255 255 255
-257.62002118524026 13.484552551459258 97.69137151759605 255 255 255
-223.449243561492 5.810290478097826 85.76419374461916 255 255 255
-232.24222935557347 6.802712133735281 103.10325882874304 255 255 255
-233.1991307149452 7.253746645033726 96.81748503710952 255 255 255
-258.36965386167765 12.780452950412563 97.59237159101636 255 255 255
-260.9557456873712 -10.029135614314564 65.94382972595142 255 255 255
-249.67200299340658 12.353057347745583 105.51359732826491 255 255 255
-242.0181921764741 5.409382125995945 67.72162994786551 255 255 255
-240.82597447240963 6.312529824150796 63.91895655656914 255 255 255
-250.9613725362493 14.965634308697503 107.67440640486278 255 255 255
-231.2343596652496 6.8483096985556235 93.58147171690666 255 255 255
-257.244267180609 -1.7979713020181824 84.21206478210506 255 255 255
-236.98847012574674 14.34185011711149 94.1106745783933 255 255 255
-247.96201154366003 12.962795793317298 89.09358692125869 255 255 255
-242.5563254726539 12.372762737253641 83.20508616598516 255 255 255
-247.55938005555709 13.939106373362193 96.21994621120697 255 255 255
-243.57979567981076 12.875287759398837 86.94399765889355 255 255 255
-226.55278947808515 12.171030140726778 72.17977349799425 255 255 255
-265.18102335745584 7.180157471001682 60.90968884555798 255 255 255
-245.35219289805184 11.147186618639747 72.33311010450737 255 255 255
-264.8189546124976 0.8676330341762011 57.28065885757334 255 255 255
-256.75939185192857 10.051479361859954 69.97070950345359 255 255 255
-247.8966603635132 9.419441339689149 97.1535962409557 255 255 255
-248.22548339645508 10.381238318931814 102.85258391447336 255 255 255
-257.5468555755604 5.4352201208793325 95.42642739179439 255 255 255
-246.8006471202791 16.258164712921655 113.99785307084012 255 255 255
-250.28913560490315 15.168465729635525 106.8234672665785 255 255 255
-244.4153826694029 15.108474356114698 104.32942575330956 255 255 255
-256.2752221426036 12.7209217492752 92.51183898308643 255 255 255
-247.98323007222456 13.618042446054227 95.22376756147287 255 255 255
-222.0724231145923 3.114414481282087 82.83755527053934 255 255 255
-248.5523354000749 10.501625699193983 102.80937153712708 255 255 255
-226.14131598658153 7.6479968750797385 89.07427338956654 255 255 255
-242.5723307665697 15.31736603958349 103.76492062893061 255 255 255
-246.61653131672637 9.6569780103197 99.01249186458175 255 255 255
-248.00452634380423 11.707409883441365 105.74116240060957 255 255 255
-236.8268968066888 14.292418569433224 94.03419383764351 255 255 255
-247.45105465071532 12.505678848299926 86.80080876436338 255 255 255
-265.78692808946397 -7.926100706542134 73.81272239153286 255 255 255
-267.6630714346981 -8.97747362226211 66.59719077513473 255 255 255
-249.10076320149068 14.873590947617101 103.90875816686626 255 255 255
-211.7965380229677 10.185077259003222 83.4607339201677 255 255 255
-243.34501778050787 16.526302300021257 113.15975190780259 255 255 255
-233.76241971014423 9.139784491610856 103.36356219895357 255 255 255
-203.61069381564613 7.91007500030285 113.7752098369103 255 255 255
-186.80638813945717 1.9404134836828888 90.14520598294064 255 255 255
-249.08565334623756 -3.573558329227968 67.11706936099765 255 255 255
-236.3920249965476 8.210399979348837 68.07870241326192 255 255 255
-183.0949329422007 4.845028156391303 79.80496118641469 255 255 255
-252.21804737861518 -18.421708426162837 83.79731009152412 255 255 255
-235.0829900936739 8.90336705848852 103.45361138125494 255 255 255
-230.52402161246178 7.868582796386901 103.14229623786682 255 255 255
-233.46753724184234 6.459882653091279 100.33577415460172 255 255 255
-232.02826085214576 7.252269169375499 103.08684377517375 255 255 255
-247.73276347726596 16.23243403275867 114.39903808951416 255 255 255
-232.33301611744983 12.203250414067009 120.92806835190264 255 255 255
-234.16510806465675 12.70382908278752 120.38086595768189 255 255 255
-229.93841770183323 7.088813742747448 93.98478128258306 255 255 255
-251.3350453086495 10.508934249394734 70.07300581262528 255 255 255
-235.47139303931914 13.712342824443574 120.87891015924421 255 255 255
-248.25824503751025 10.142484092609969 103.12012497727399 255 255 255
-231.80990207898108 6.631317981252467 94.58836839183319 255 255 255
-256.3565466953825 -10.428361250119082 51.92386829388458 255 255 255
-258.12306494204614 11.147305604543316 74.04570346024902 255 255 255
-241.89636400288026 14.405008321191712 96.99047911219864 255 255 255
-248.6618470032517 10.807497599135043 107.18566672968967 255 255 255
-249.3893537285848 14.965774017947961 105.36481871236595 255 255 255
-239.02247843735458 14.79409031617913 111.73952500142838 255 255 255
-254.25313417652796 13.195034180183942 102.88301364434801 255 255 255
-244.11714459473944 16.33397205921522 112.43352629059295 255 255 255
-247.90898565267995 12.754723195085845 89.2752050389392 255 255 255
-205.6469724842251 17.063162024432305 119.19030324512502 255 255 255
-247.85736260729473 8.774960590449297 98.80300565172172 255 255 255
-243.81675615754423 14.977887749337318 102.1267159263404 255 255 255
-228.79369462005252 -38.77919822385924 98.77848933941542 255 255 255
-249.71096644745217 0.993058910515713 80.07665668264808 255 255 255
-232.05669952886052 13.386659340196074 113.47380109463731 255 255 255
-242.2048591116652 15.261394334122025 102.66903507757168 255 255 255
-226.15354813480172 15.998675133544092 105.67936641262614 255 255 255
-259.72755949938784 2.800246190148907 60.40109254942284 255 255 255
-243.69544340236814 11.25178451522433 73.52508685843466 255 255 255
-240.91388141672763 0.0573160450255763 56.52904930197306 255 255 255
-260.5817158796405 2.0451858578736815 59.218468714315534 255 255 255
-273.36049227586875 -17.887864094344543 63.57186319878551 255 255 255
-247.10515276520317 9.729362887417302 98.49995911277205 255 255 255
-247.62682026073273 9.549773010475759 98.45160433876619 255 255 255
-236.56355117891792 8.147287082950111 68.71797828378915 255 255 255
-247.85909855226157 16.234146708711155 114.3142198234266 255 255 255
-234.6223162682301 13.73936946815026 115.64250525530959 255 255 255
-230.48773459878737 12.557837763414305 79.61237692165216 255 255 255
-245.00708986859382 1.1125781070701608 55.528183475596464 255 255 255
-257.1213964837594 7.48401182833526 68.56085747509088 255 255 255
-255.56891924893753 4.129604817604851 51.488152663650055 255 255 255
-263.7813240482158 4.372919484052016 55.83521302447454 255 255 255
-198.06898765110367 11.952457739274385 92.68474547360357 255 255 255
-217.3580947581947 15.589764818218589 93.80754568943641 255 255 255
-244.64918720226257 -0.10130958903084775 95.58554331938747 255 255 255
-230.66212291149043 12.959544936011785 84.37979050467712 255 255 255
-247.56730813551624 13.555775398894767 92.63460569392308 255 255 255
-231.6883466661355 12.313579193512648 79.44587191101773 255 255 255
-242.23238001690868 15.187780713594666 103.002024368295 255 255 255
-229.7196136456189 6.859489114048364 91.91503883041977 255 255 255
-230.7847146141931 12.722459094098145 107.84037060064362 255 255 255
-248.81492440536218 9.575201866458336 96.87686886307588 255 255 255
-248.38582963253563 13.277887012928897 99.99632259561159 255 255 255
-248.6758528149471 10.627923276368843 97.48416545644 255 255 255
-242.94874322520747 16.4334112827422 111.35407129797316 255 255 255
-229.19401141010374 14.148703778827777 120.13012434215159 255 255 255
-242.7637932899903 15.563992168472126 105.51553212602644 255 255 255
-253.53833411394743 12.31122926611976 97.42410725697911 255 255 255
-247.15004929408818 9.466648897950359 90.61473638076 255 255 255
-262.306987816915 6.93491649029331 59.10028497951001 255 255 255
-262.7920429556987 2.3489722380274003 57.39002879291243 255 255 255
-261.7940543760324 9.018284836001165 61.33874196624649 255 255 255
-262.0926833888155 2.2527092767750903 56.284865197132106 255 255 255
-256.44588371165395 4.486703212575859 106.54993111805345 255 255 255
-252.8494753688443 7.763504942909516 53.606344088031534 255 255 255
-261.3380958576289 3.0377013616290256 59.39351438078896 255 255 255
-267.55995317411924 7.077225518811518 56.85004101599711 255 255 255
-245.18421134821574 12.835460978263042 86.43020834405822 255 255 255
-243.30240079483463 12.441120665710766 84.15065173194377 255 255 255
-230.75780299502952 7.714768157562201 78.02730112559257 255 255 255
-253.00621735742033 2.460799114805914 51.53841298437389 255 255 255
-220.93389344706793 7.014155343265502 91.82156891093418 255 255 255
-252.49137132128982 11.466078115134383 88.76965249461591 255 255 255
-231.6025059315232 16.26591517366287 113.22441281107537 255 255 255
-244.38042927693417 5.64697631791232 64.18688909793076 255 255 255
-237.34045036299727 11.89825186159689 78.40581235761145 255 255 255
-234.1347820304687 11.76744775117702 75.52210040500044 255 255 255
-255.09300139446466 -4.159766088346379 50.74706107424251 255 255 255
-226.9847902015425 15.7664668505098 105.35814796533728 255 255 255
-260.58213852387945 -0.05730049919407154 57.05117482753707 255 255 255
-251.3609806030451 -45.41260989215118 61.103042730537084 255 255 255
-225.17589563665035 4.945389242918358 68.27185858573073 255 255 255
-248.4669653868545 12.955654527539995 89.12533376139835 255 255 255
-241.27614329551034 6.962366160776967 67.42148638436876 255 255 255
-252.69041309337598 11.774189529916164 86.71851202202897 255 255 255
-253.89485233789068 12.083971712957307 96.2342752346207 255 255 255
-249.1793158685521 14.696773501451707 100.86963988549888 255 255 255
-243.5381581226793 16.542575904655546 114.68410629169095 255 255 255
-247.24440523009335 16.441846213721107 116.19978362981387 255 255 255
-178.06602775879003 3.3233884841827805 92.88651559789014 255 255 255
-259.77232783127533 -3.8289840524613545 86.81939665349623 255 255 255
-231.48933552570128 6.318439226816416 103.22361699225829 255 255 255
-259.3709442471132 -3.980668891207805 86.31843180845529 255 255 255
-247.20660586465215 13.231318522615943 89.85725659285036 255 255 255
-225.56599682806475 4.079853814249539 67.60098913548154 255 255 255
-258.1291790453478 -1.9337407465458556 84.8858226219022 255 255 255
-249.42591010012902 10.323273365133986 105.97232906743437 255 255 255
-231.27341302347153 8.727676648203225 96.41296342182454 255 255 255
-249.50378722016424 14.4889443453018 102.43813882775187 255 255 255
-253.05884610144818 2.3664261710677224 51.32877232592355 255 255 255
-234.4855680358538 11.774956894802774 76.06896638568924 255 255 255
-233.7060243997535 4.032811695067861 62.612064330003406 255 255 255
-265.5629915261174 8.705071995804904 59.18855901926749 255 255 255
-259.89947097405746 8.328454119450466 61.707310883039554 255 255 255
-207.69121720489326 13.287377307484206 103.09082707640111 255 255 255
-238.70377893348865 13.729388167181577 114.86567459531483 255 255 255
-227.6660142281675 2.4077891270679697 84.24992120452526 255 255 255
-236.25734464262212 8.880439811063484 101.80747891489311 255 255 255
-243.41137945758288 16.556197045257978 113.7891171922696 255 255 255
-229.8246948573698 7.245821185376439 71.40754572103809 255 255 255
-229.2334427884553 5.714014746031976 92.84701514249015 255 255 255
-228.85938901677386 11.938172902406809 73.03078636107828 255 255 255
-272.6866631422816 -16.505157206820165 68.09256474030525 255 255 255
-234.50899754107476 12.593708349917264 121.7532123086577 255 255 255
-235.97342699706567 14.349367192869291 120.34866235587019 255 255 255
-225.660787584775 15.98792623781688 105.20747397673468 255 255 255
-265.60620250468185 8.22161405337702 59.87040662291743 255 255 255
-265.2161635855906 8.259556337308467 60.19031772043789 255 255 255
-249.8053549505293 12.01831233281117 104.7606184485887 255 255 255
-229.72889305598758 6.709275608685653 64.20597714595837 255 255 255
-242.02952569081057 14.424120016284808 97.0846458305251 255 255 255
-225.02856299178939 13.522273019846331 83.6634183081868 255 255 255
-240.7630075557363 16.831339118483655 115.60530984423877 255 255 255
-257.9668849611574 -4.706161427379135 85.57911269636 255 255 255
-269.5072698118252 5.834159755899746 57.77170380828052 255 255 255
-265.00744551326665 -1.4672712976075584 57.065991481381815 255 255 255
-265.41984692407544 4.73530180531155 60.378578155778314 255 255 255
-261.19298570830506 5.395376633597913 60.93859260853846 255 255 255
-260.6559410694588 -1.137050349235226 57.695263010317305 255 255 255
-248.52684928475438 6.852152292978092 48.697250265486815 255 255 255
-253.25862640953056 12.22952760407216 93.81315783409482 255 255 255
-261.69660308548345 0.8068140449508494 56.797356748313206 255 255 255
-262.2841031357956 4.006428012913363 59.55222208689533 255 255 255
-249.5394378556612 10.2239766932775 67.33176999881742 255 255 255
-239.93292287894238 7.903578703186 67.06373596215211 255 255 255
-229.1949856867341 10.37245510676306 63.81477426822984 255 255 255
-244.35550001664782 7.192449907970209 63.89331474596817 255 255 255
-247.4225817644653 14.435432872477485 102.26234770390263 255 255 255
-230.37410334328567 6.653756382443788 94.08452711221659 255 255 255
-245.29955988640378 14.912769326988233 102.05967156313079 255 255 255
-242.2001395786739 15.172206226934094 102.88402932047187 255 255 255
-248.60001516504465 10.689990114781946 106.68085478790671 255 255 255
-245.57653684997854 12.832926548239836 86.66502834819373 255 255 255
-249.7961698077086 12.014950846483917 104.83507874709308 255 255 255
-250.95371145403575 14.981104337320843 107.75810745753095 255 255 255
-253.79396674568324 12.14863886254241 96.58280079215425 255 255 255
-233.9201274581911 5.452694300995022 67.56466295703925 255 255 255
-251.91715924583318 13.317872891571183 104.15417853801382 255 255 255
-233.78920767536175 9.044406763979781 107.69057518325734 255 255 255
-234.39420883066015 11.433533264491553 121.83686728803026 255 255 255
-225.536274884141 5.712588782254063 66.97715274800258 255 255 255
-224.13964189137243 4.779353977599079 64.5091831959489 255 255 255
-248.65929060295443 14.732502353797901 102.4825273503668 255 255 255
-258.4806567376655 10.498008425150516 61.27912491039528 255 255 255
-224.66738727294435 4.734945615782749 66.8156221637718 255 255 255
-246.76804117793054 12.968447381038494 89.17524630311566 255 255 255
-226.19411739408815 4.664414720439471 67.96275904053124 255 255 255
-246.90616062378436 6.710295322256321 88.30165253634968 255 255 255
-245.4502279333905 15.000792545012665 103.49783818676471 255 255 255
-242.04102650872136 15.859070446209675 108.83770623865739 255 255 255
-234.2965163549892 13.699020420833223 111.14611589105402 255 255 255
-235.06439934542038 13.91140120519598 112.84073476301631 255 255 255
-234.64288783159603 12.890031953741556 85.7686347999396 255 255 255
-248.57240363082883 11.667094871260293 102.37799741493713 255 255 255
-248.00344312949866 7.930272450797077 96.89762334157341 255 255 255
-254.22062476334185 14.51703821931617 105.68349740289584 255 255 255
-249.16280210477026 14.933962381387403 104.51287303225247 255 255 255
-262.5178610368627 -9.143052786470495 61.301728319283015 255 255 255
-230.52666225343222 6.427461635007354 100.92111524118447 255 255 255
-227.29110216563862 8.087220477143239 102.81719560870677 255 255 255
-228.52500755826486 7.848696022458179 100.24971621528789 255 255 255
-254.62758664485182 13.217637500021084 98.2191861842753 255 255 255
-254.219388371304 11.1751540083939 103.37659899102088 255 255 255
-265.4084995959918 8.692524077979012 59.3340350505717 255 255 255
-264.042395150983 2.3971761737321815 56.51159829826126 255 255 255
-266.78291363288423 1.8858882340036347 56.208362594698215 255 255 255
-264.7682729679588 8.720390206639877 59.86501436312763 255 255 255
-251.8848612757397 8.697129862736777 59.25045390534777 255 255 255
-257.3870092478594 -3.594245889885342 87.67548248552556 255 255 255
-234.16084153642743 7.841490839056563 100.13783140970966 255 255 255
-231.6288747746604 14.060104469806946 96.88490966735965 255 255 255
-232.44131563017766 7.032374597924213 99.1143101011247 255 255 255
-240.84019608154574 16.869397454607476 115.85112995401525 255 255 255
-243.87565493064378 16.61411101107622 115.71460689649152 255 255 255
-247.28270838667297 10.020480442809593 98.51791004901 255 255 255
-227.1633607720384 7.64271784849156 88.93679823742659 255 255 255
-224.7355507549336 4.9668593077245164 65.7206698064975 255 255 255
-249.1516687901245 12.020056371698931 103.27754931917032 255 255 255
-247.57415552026978 8.79346443594337 98.04504540581475 255 255 255
-239.26507959679068 14.93536655351104 99.1692465052896 255 255 255
-242.00723993989124 15.179412122197572 102.4172602844608 255 255 255
-237.4320589472925 10.746252573569894 70.51853622784992 255 255 255
-250.94236114834302 14.935257350387577 107.65768599690537 255 255 255
-235.67459704981522 14.59678522828144 105.09020114181752 255 255 255
-246.87421585478035 13.674181955687768 92.37783867429133 255 255 255
-241.9650017496329 14.410252814382655 96.97173511262153 255 255 255
-248.56480627388103 10.78394372686432 104.09488761075 255 255 255
-248.19145987473638 10.207965323568189 103.2246145527098 255 255 255
-248.7704458877053 10.336010837524618 104.28327746917502 255 255 255
-228.03694731949852 5.674660751676217 92.14602608690873 255 255 255
-260.21384112155044 8.35486505465741 54.095733965360296 255 255 255
-253.9607894126705 8.259637299954822 51.66924260762859 255 255 255
-262.1815048429413 8.366040645444496 58.895202936379334 255 255 255
-260.2964639246225 6.172272236722862 59.75081118636926 255 255 255
-263.11518329858563 8.532081333232604 55.18469435203906 255 255 255
-236.11505537420166 10.588374193315305 66.75050865431768 255 255 255
-251.66494674412996 14.331921397043406 109.43107887629117 255 255 255
-254.37091073216584 12.820484321619873 102.13114680274832 255 255 255
-246.80517510547367 16.23961473202236 114.46113056315046 255 255 255
-260.7985309578162 11.234339201656688 83.06604407190561 255 255 255
-235.39928745818563 12.537695995072028 117.00736190930272 255 255 255
-247.753822179943 12.85042770371266 92.13758293194891 255 255 255
-232.80051512606647 6.157836116502494 100.29622958684158 255 255 255
-245.40759108245126 14.887164242293807 102.94050356552523 255 255 255
-247.6773281335029 8.373589255322383 96.68002470437976 255 255 255
-247.22116752138996 10.034683881095505 97.62055733272119 255 255 255
-262.18661177917824 1.2675253428606972 57.6966158876579 255 255 255
-251.9851706171054 8.010440687528133 50.75733541292696 255 255 255
-257.5628908500842 9.851711395161306 67.92094024652181 255 255 255
-264.09438652559845 8.44200093308235 56.621993772554134 255 255 255
-247.9245053783609 13.19214652165805 86.1474065458486 255 255 255
-226.85209758977575 7.924103657510027 101.85356729313318 255 255 255
-240.9623260036152 16.89791044223607 116.28545600517349 255 255 255
-263.2066066886274 2.8276223338752633 56.477459943887396 255 255 255
-262.5862700223789 2.3569250533489727 55.801168147800794 255 255 255
-223.81820389300307 6.394633963987484 66.76147391833369 255 255 255
-242.84899182751647 13.676132958189836 91.22790335187254 255 255 255
-251.49503267758874 7.244303262481247 88.40475843940764 255 255 255
-249.11801528746963 14.788522213136314 102.23510936932156 255 255 255
-231.3452654818093 6.910906294305159 93.70306976505637 255 255 255
-249.1215284223941 12.812890893196712 91.43176257745787 255 255 255
-247.77449939175045 11.73999470568003 98.21288957779821 255 255 255
-231.66807322580175 12.400049020329892 79.05354359289485 255 255 255
-250.91253223270772 10.413125056578114 69.01370159969831 255 255 255
-262.3735242564778 2.6834908326560765 59.05268004197876 255 255 255
-254.11266184304966 13.809289787670906 99.33552501604414 255 255 255
-229.09730700710085 6.250876104525696 100.5087753890166 255 255 255
-233.48295192152148 14.154556611071397 114.30529378007539 255 255 255
-228.69243025077694 9.417793063121636 106.78795104708784 255 255 255
-247.54009925456074 13.694939928530532 93.53872451493602 255 255 255
-261.7786095204956 6.316256637208267 66.88295243787131 255 255 255
-254.07967058122497 12.679461666380192 95.8107825871075 255 255 255
-245.5558302257068 4.513159846295274 62.81597478914624 255 255 255
-241.8576929387057 5.184426474196242 66.60575764580783 255 255 255
-234.30032807775012 4.475951091513309 64.81396636804729 255 255 255
-234.60261090193063 14.817287139050261 114.06695531147678 255 255 255
-230.76352282362822 4.82281005723781 86.007865362505 255 255 255
-230.09181721136753 7.471105671296481 103.98265941393028 255 255 255
-260.36162487165967 5.89641158343173 59.695518481341495 255 255 255
-243.98366040409059 13.369699698165451 91.53388551047281 255 255 255
-247.13906037974687 13.235656882488481 90.23288200506691 255 255 255
-244.15786266504705 12.840499538587757 85.50244200660278 255 255 255
-246.07243102957526 12.992803395924161 86.95546785189161 255 255 255
-263.2975663172148 -0.08005635188015603 59.391928612481365 255 255 255
-255.3964296100971 4.230647175180737 52.065393049480704 255 255 255
-251.91971304633267 8.704046234371354 59.564701682207655 255 255 255
-265.5469725325576 8.64168528010168 59.184971742469926 255 255 255
-251.9347957266355 8.716006357002385 59.80241086453441 255 255 255
-231.3812468916198 7.848036849630287 97.57381688798367 255 255 255
-245.71956572961105 16.493354781620333 114.64152649042165 255 255 255
-247.34357903449353 9.892121538452658 97.97347138416382 255 255 255
-248.16420215176922 14.387580642084497 99.52567337000343 255 255 255
-232.4210188868194 8.909703345121592 60.47559115275233 255 255 255
-258.0757362917048 1.7205976084161456 66.12426931433421 255 255 255
-261.03719600569 8.123351657996245 53.02109885948994 255 255 255
-259.46981980670387 6.369976211073473 61.01816430357897 255 255 255
-242.7914743502212 10.084485748997261 66.01227914905361 255 255 255
-242.12111025927757 7.4469409961026045 67.04634324680885 255 255 255
-246.41524017867323 9.37098581054641 92.55001094554986 255 255 255
-241.64985734616647 13.34908669390081 89.88875027116126 255 255 255
-245.29258865191125 15.71789916380912 108.47100422599591 255 255 255
-236.20320756379957 8.791612989003571 104.56134133190186 255 255 255
-246.65358764751352 9.176298137188668 91.33585161706856 255 255 255
-246.9239357597695 9.414317540707227 92.02182199108684 255 255 255
-263.9973184007491 8.878794235113798 61.525772925686425 255 255 255
-237.45325177549768 13.58528503535359 88.73723866643545 255 255 255
-246.517707689679 9.222461330794694 91.71031732410646 255 255 255
-230.3080870895119 12.460196255274438 79.52339320752756 255 255 255
-246.59576529541258 9.304536942462406 91.6153147264333 255 255 255
-228.0662403288351 12.851115088402468 80.9224908684769 255 255 255
-225.37085488381047 6.131811744769264 67.59781071640529 255 255 255
-244.30735717707557 12.896595553185666 86.99188965659273 255 255 255
-255.7498022033314 -4.652476434379042 50.30414115654908 255 255 255
-246.30975324215586 9.33171674739167 59.986298198229406 255 255 255
-245.25452874771474 0.9270494837478376 54.4110873807378 255 255 255
-246.98163307224146 9.701069249237733 97.82022442564555 255 255 255
-247.34171655607136 9.83506765321652 97.82814737520818 255 255 255
-221.66939873890414 5.032079002907799 86.85745824890124 255 255 255
-247.21124571605938 13.19502726684616 89.62804484178086 255 255 255
-229.74258262065663 12.55264783689904 79.80801446586972 255 255 255
-247.16082606430584 13.193814679053464 89.88168089564687 255 255 255
-230.5909999901673 12.403396623278375 77.78287818860586 255 255 255
-224.53679171362683 5.828584962657752 66.26547244298622 255 255 255
-244.7153598123952 12.532993639334707 84.48898600972937 255 255 255
-255.20580813699456 4.440853023154323 52.894079536293404 255 255 255
-246.22261209887142 9.415615593197124 61.18433080620889 255 255 255
-265.7590829580966 1.7517475984856103 60.77683258441324 255 255 255
-244.71915156416074 9.689029502268724 63.95932593895449 255 255 255
-238.59011379207158 6.654738256473916 68.6855230146059 255 255 255
-257.86385807230886 -4.410124703285378 85.93695630316277 255 255 255
-232.3755917299362 6.749189185894714 102.95369749713433 255 255 255
-248.70673942337834 10.59793697693352 106.49965440883696 255 255 255
-253.86417641592138 12.106743336073935 96.34027734190563 255 255 255
-235.61943654371115 14.005381571408437 116.00571295188682 255 255 255
-253.3987178758958 14.252829269368155 112.79693961008942 255 255 255
-243.4452962576744 16.503115389433667 113.51253522276899 255 255 255
-251.01878720538747 4.953201410791824 89.27445652625781 255 255 255
-241.07380665327395 6.726255252827695 66.1677729859097 255 255 255
-238.44113129192903 10.574356326527935 108.25705079205741 255 255 255
-265.71926019558305 1.8926539270703806 56.57284651530894 255 255 255
-260.9303379113115 -0.5937355434554927 58.12193835105131 255 255 255
-252.507668403669 10.150309159121633 67.85077476044515 255 255 255
-248.2097244791165 11.009279421393881 72.91765931572547 255 255 255
-263.7368724511254 2.82750769787473 59.29521266079199 255 255 255
-253.2167039840007 12.220956596907165 90.02711346865331 255 255 255
-249.94117121062666 15.170498723284012 107.17372228667708 255 255 255
-258.80431111041514 12.711992679981059 96.68464623362628 255 255 255
-237.2466969208294 9.682551208325595 104.7716384188726 255 255 255
-232.6807806886225 9.796179379565567 104.15793094338969 255 255 255
-253.7499764027107 12.895042879170806 96.59582262600053 255 255 255
-266.5519078848453 8.480026607076717 56.7936668985559 255 255 255
-225.40929393860216 12.792426673626112 80.06136352260185 255 255 255
-249.93019813959916 14.98304036437021 102.45787046542048 255 255 255
-246.7303120272992 7.805892678140999 90.24751967476752 255 255 255
-236.34598402498662 14.338490439246181 93.13314330110667 255 255 255
-237.49903076170966 14.49368578269496 95.13414934780596 255 255 255
-247.57760070506717 10.360367968654828 97.75907158026563 255 255 255
-248.34821993584552 12.879401020685789 89.78295347510314 255 255 255
-248.36215728207492 12.853743315180363 89.58642024698774 255 255 255
-246.76708903971058 7.770990963472073 91.14393719604466 255 255 255
-252.6681065397035 -4.8172884623045045 49.01424080731803 255 255 255
-241.83163124158332 6.99627234563481 67.23774320760442 255 255 255
-242.85074124493184 14.386236193673007 85.17436858668681 255 255 255
-252.91571584359045 -2.9495709297739046 49.1369012855758 255 255 255
-246.91550185949518 8.190474380274189 95.84226795663164 255 255 255
-248.40181498318077 8.278502234918374 97.90050682919676 255 255 255
-230.84036719738006 12.481203791445598 79.94821653972056 255 255 255
-232.81859904929433 14.602573021442758 117.11823587907692 255 255 255
-254.4193003973024 3.703857314432267 94.5570997956793 255 255 255
-229.76708698829495 6.9706938137468555 97.70744500496203 255 255 255
-232.66900401553215 6.028104070155148 99.89497095629115 255 255 255
-231.44866696174077 14.259052587659447 115.93694318734497 255 255 255
-234.5949286722801 14.818901920818082 121.4539846406917 255 255 255
-180.80555611005514 2.9642544522019314 89.85638311271028 255 255 255
-231.76692100399282 6.293485020204878 94.7299765072219 255 255 255
-247.24843313221064 8.42465045040895 92.60430756028389 255 255 255
-247.75223276720357 9.08108527649914 93.03287753012731 255 255 255
-247.16735057608076 8.775308283535885 91.60160911215397 255 255 255
-247.99054581440538 9.074185079611908 92.58823054574924 255 255 255
-236.49759004533198 14.291631059139174 93.23954271163738 255 255 255
-248.57457941862467 9.848533357107488 97.83412813209189 255 255 255
-259.39905322495684 -1.2993599540464835 87.11060932768494 255 255 255
-248.38760758594145 7.108902738410577 49.350731277181694 255 255 255
-232.41399290026757 5.858751602758724 99.08048802250363 255 255 255
-262.75815411765205 2.722662734039922 56.35311285924725 255 255 255
-252.9049182765408 2.761916993170736 50.067679368644775 255 255 255
-264.8809242954381 4.069260793193673 55.129990479771465 255 255 255
-247.87942521713845 8.996356360271122 92.57510166965889 255 255 255
-247.63721964431198 9.650330703621748 92.1351708066675 255 255 255
-249.53572276127795 14.49181588324006 102.29820087829462 255 255 255
-247.96187400415326 12.969088562504304 88.89848137406213 255 255 255
-214.51257078564927 16.688621931047628 106.78427569302919 255 255 255
-178.72875521323078 10.007099746096507 74.36971402259095 255 255 255
-236.23786062936588 9.439366854579358 105.48671838682013 255 255 255
-232.6169469409917 9.120305182175647 98.35397681177619 255 255 255
-249.0482232964915 10.898754061704405 108.15717053348472 255 255 255
-261.3897494222801 8.67409657715551 60.82061849498615 255 255 255
-255.59843453860745 4.103723812528459 51.27390069848178 255 255 255
-264.45412010613626 1.6305677686345863 57.35716385882317 255 255 255
-231.88843144410427 8.886741692629823 103.67203406212032 255 255 255
-217.9712867216351 15.614061254085694 94.87828243811853 255 255 255
-246.71064297138236 16.233521393511555 112.82635519106839 255 255 255
-251.70794666452338 13.648052877070057 106.08143731610357 255 255 255
-259.6697860533141 -5.5232395454373595 84.79107335265785 255 255 255
-237.9302056711112 16.68335261280651 118.73754214044446 255 255 255
-236.87065269882675 14.679220042556814 117.53689970087865 255 255 255
-258.2575861895134 -6.97188134831403 66.953451954647 255 255 255
-204.6522126148242 10.058175547928276 107.80504960600845 255 255 255
-247.06919138367698 16.372269975355685 114.89092307428935 255 255 255
-227.08392031405208 16.108125038963205 107.23425881942093 255 255 255
-232.18656364487194 6.431357687342375 96.04669753108087 255 255 255
-228.55380955343858 15.667583400303885 105.93667733379345 255 255 255
-203.14814268282106 7.860019385832057 113.38470656357411 255 255 255
-233.57033614808842 7.101000969342403 97.48686394730584 255 255 255
-244.1696761818715 16.31272072228532 112.55607601718495 255 255 255
-260.70640564774124 8.822749230514027 60.71401061930136 255 255 255
-248.9556237030398 10.185775497136591 67.99013990699929 255 255 255
-242.23032633026352 15.201567068215954 103.12085478230969 255 255 255
-249.0787201322304 12.100106551897174 103.53537449323376 255 255 255
-239.87488137476967 7.844893120157987 66.78731750276023 255 255 255
-167.15452528206973 6.766810817374477 78.06611186487753 255 255 255
-249.08267032941947 14.938397176538341 104.668592312965 255 255 255
-243.6314535465635 16.69708587884992 114.31696173887053 255 255 255
-254.1604430150844 13.571559636705471 102.49198632510394 255 255 255
-253.7048069759411 13.72613440962736 103.56404803906872 255 255 255
-232.72709952911976 12.954391844031512 85.46694267400133 255 255 255
-238.4092287869392 15.168993591711294 111.70536245167571 255 255 255
-248.82233846017013 10.931626134157302 105.04234823711874 255 255 255
-249.75931340876247 10.547777259928708 101.32715941933915 255 255 255
-233.24119712928578 7.451613879516525 98.94351538862269 255 255 255
-246.88604720917385 9.726920288973211 91.01173659360866 255 255 255
-231.38016987672665 6.939943612300166 93.73021324111902 255 255 255
-215.31046155435658 6.4316179109832134 96.69269460059917 255 255 255
-233.32813913655616 10.808898387026977 117.17055587252408 255 255 255
-198.33736791935712 10.727445359975126 79.52081959968575 255 255 255
-232.24596957885464 7.400873318485059 102.30972455104948 255 255 255
-221.5646179146268 5.928295892931943 81.37246118024123 255 255 255
-194.90832382786817 10.330904400259175 75.38419483790327 255 255 255
-232.21011451377345 10.240976159815316 104.80948941005238 255 255 255
-234.38289346666195 6.04932589854885 64.6861783594092 255 255 255
-223.3314750509976 9.627320564034529 118.90860651352266 255 255 255
-252.21816852422188 11.0796453998665 85.45930695876642 255 255 255
-246.78433518278902 9.482755081416276 99.55673030608342 255 255 255
-241.87783650635228 14.398332538912143 96.8420953087263 255 255 255
-246.51858306138496 9.047769802796527 97.47564344907967 255 255 255
-236.5230356764119 14.358901930809312 93.43274686486788 255 255 255
-247.82650118472415 10.223492364387315 103.12213254347046 255 255 255
-217.24428365742992 8.711976361368766 105.59860158621554 255 255 255
-227.3495788122173 5.66111884702226 92.37200011010921 255 255 255
-253.95268023526617 -6.881712393825732 49.644210334776815 255 255 255
-232.5865950094226 11.725152500815668 119.86981564635627 255 255 255
-228.85690971165954 15.528641664999832 105.76309963643219 255 255 255
-235.70410507545063 5.2686895346373674 66.03865047194707 255 255 255
-233.78028691685418 8.336246428147014 101.91156435699104 255 255 255
-230.5502439816243 7.26793104439459 93.35663319208287 255 255 255
-247.16701818657825 9.587647056973914 98.57692216963619 255 255 255
-249.7361568466566 12.144072836203353 105.00205818115245 255 255 255
-258.31411375394856 -6.112372392988452 81.3764025852883 255 255 255
-245.29143933794688 11.076643249680105 73.08175088049629 255 255 255
-236.1826851718898 9.463913734443235 60.31960284208209 255 255 255
-242.70748369901264 13.594792033645051 91.48943377632331 255 255 255
-254.01913010314698 -0.6776682241926393 89.93588050539303 255 255 255
-234.66473613343004 13.828561099372937 112.38562385351116 255 255 255
-263.46646172834596 -25.062377773301236 73.39906507883411 255 255 255
-225.67101251106052 4.331796797942596 68.1009360239069 255 255 255
-237.4033149938895 14.90503559763409 108.95092652280564 255 255 255
-233.0402267610221 14.020216998595805 116.50719251948263 255 255 255
-253.7805738825415 -7.401402512560908 56.04671829259904 255 255 255
-250.01497089985475 14.990752880148495 113.3799964572466 255 255 255
-242.64497067425097 12.12943107181825 79.01864271790792 255 255 255
-230.89496376762938 12.596174679252151 79.14443975636048 255 255 255
-247.971467481964 11.59399889167036 94.23039416047123 255 255 255
-233.36932491948704 11.171912027969755 120.98205513854107 255 255 255
-245.9338376737672 12.808606742111298 87.70321518097319 255 255 255
-241.67628119231003 12.291125493829677 82.02527200419799 255 255 255
-247.35642445443324 13.183811648203836 88.8733767710952 255 255 255
-234.1876919275151 13.677636476612884 110.58546078041279 255 255 255
-230.2416326069511 16.24532724887098 112.91933422677859 255 255 255
-234.2748547038799 13.882532112517893 112.96354233062785 255 255 255
-226.49845401538866 15.641137859750103 100.77644634342329 255 255 255
-220.26028054063187 3.3835296924419014 70.58311452189439 255 255 255
-248.72482892166946 14.819248538143942 101.75728457276773 255 255 255
-248.25643226168972 11.039664583671687 97.71930182623258 255 255 255
-238.72792419878607 13.770040190324643 90.83171119961631 255 255 255
-246.48428845048446 9.290461630817022 98.1614810331386 255 255 255
-249.61915323579868 13.600624657286046 102.109734308265 255 255 255
-247.1269882308958 8.581636300748773 95.5825423604494 255 255 255
-248.11150036939222 11.250385001649958 92.59398910395689 255 255 255
-260.85460938056934 1.9138726145547302 59.028177066507055 255 255 255
-255.5715311053192 -5.728921532985638 49.33373638681141 255 255 255
-234.16492294302802 12.432556076655462 80.1917808976994 255 255 255
-233.01887560348635 11.482011976189277 112.96992466127503 255 255 255
-207.71341892738 10.846101833143743 83.63264249015404 255 255 255
-261.2677621629832 8.73662235740711 60.988546643832706 255 255 255
-252.8664147645172 -2.525002600989321 49.85681132005412 255 255 255
-251.95127517304735 -4.653401125498167 49.68549815604372 255 255 255
-261.97449975245866 -0.27419758503233815 57.85392580389055 255 255 255
-263.9385427436172 8.409717366583013 54.983269855563364 255 255 255
-268.5384644349236 6.294155569592386 60.56850898106879 255 255 255
-227.68425696792016 12.000786407488896 98.64898876946079 255 255 255
-237.7584903826106 14.92979079907311 109.54927206639458 255 255 255
-234.82482650836602 7.592511794117348 101.74040184067856 255 255 255
-242.05776286611533 15.963665349592706 109.05210512138399 255 255 255
-237.11248432621895 9.408730634481966 104.77373842161029 255 255 255
-262.19091715939277 -3.2850220599565008 89.34400305962306 255 255 255
-249.11298236788295 14.896673672058444 103.68410642685076 255 255 255
-277.2768925141737 -18.646879769247693 62.2599333089603 255 255 255
-247.09104005896583 9.21172216877746 97.37732736218179 255 255 255
-224.38130247952918 5.571575232476836 68.3374609113471 255 255 255
-249.26060678170967 14.89334137693788 104.49676842540278 255 255 255
-252.83565254917957 11.71983113538846 86.1498466356672 255 255 255
-247.34507328904968 8.777579907671521 97.4497002818089 255 255 255
-248.4762079186163 12.309345764999627 96.89195886448428 255 255 255
-226.3287634194315 13.145166548215512 82.15427467868864 255 255 255
-230.28781083414654 11.258962439870688 123.00162819768207 255 255 255
-252.7245522555523 11.007212549053992 86.54995375859316 255 255 255
-233.1753338632665 6.4970682417035945 99.2340080566398 255 255 255
-226.10099028723727 7.2512814790426035 90.30769630517567 255 255 255
-226.52950050192865 5.991680569641071 91.35287058095301 255 255 255
-247.74553442033258 12.519748356670197 86.52899848845593 255 255 255
-234.04018488188143 14.536219266791711 98.5267986150042 255 255 255
-255.93849276047368 13.208402689560621 98.64307255224062 255 255 255
-261.162911685386 -3.3539701529587838 83.64136238286757 255 255 255
-247.55414459459286 13.616031746408657 92.7757187247274 255 255 255
-222.18428525130136 12.208842665563687 74.5029563870946 255 255 255
-233.11602441589721 6.490054336685976 100.98288638054062 255 255 255
-245.32139502197788 14.937231198596278 102.22835782522178 255 255 255
-237.4814665863883 15.725205412189194 105.51264561406478 255 255 255
-250.01062586333998 14.805283613768841 104.67953617386982 255 255 255
-241.0634191194095 14.21516875679477 95.03757058252788 255 255 255
-215.99033528245022 2.6499543738198525 79.28702852468663 255 255 255
-245.30509864270914 14.910758682010645 102.27349286207138 255 255 255
-249.63933024607815 13.599837865228995 102.07102315110802 255 255 255
-248.9985732571748 8.485233272225763 99.60766402236496 255 255 255
-248.43620735335276 10.244007050276423 104.06111183263562 255 255 255
-224.70117417419283 13.018032227788476 125.14181343128666 255 255 255
-236.41315011557523 13.982774285529024 120.91224198573708 255 255 255
-248.40025821904123 11.35595443811414 105.48435088992444 255 255 255
-248.8968950882821 14.921782840751344 105.65998765014467 255 255 255
-252.5579309917637 11.110519226623211 87.2662251336251 255 255 255
-249.78999941600864 11.875967409938752 103.31103549883238 255 255 255
-262.129175207479 1.2536634613814321 59.286776124962714 255 255 255
-261.2316300236679 2.68368296559764 59.788331390594195 255 255 255
-239.11784450849854 10.304298248893259 68.35039857758848 255 255 255
-231.71892707055744 0.4022729061701522 59.563501980991106 255 255 255
-263.68674980823596 0.49633890691073734 56.80038007601439 255 255 255
-243.5379514720639 3.381547794724237 61.36772279978328 255 255 255
-249.64312910637483 13.954647115977558 105.03693381542055 255 255 255
-233.6959105317307 7.721092317524201 99.54107198226674 255 255 255
-266.85684739043234 -2.0789428974375888 93.39012364786379 255 255 255
-236.46324692810072 -3.5323404048539437 60.979906741062265 255 255 255
-187.6051028252934 10.145936815442504 78.70791707187756 255 255 255
-239.842685591084 6.888742538667794 107.93988253988296 255 255 255
-231.43051100888238 13.010024592750286 118.4138941466438 255 255 255
-243.50854510547526 10.995329471208166 70.31777088760796 255 255 255
-237.2767632769344 7.376940295065879 67.82364740406587 255 255 255
-258.16701554294536 0.9365651734944374 103.2825732132603 255 255 255
-226.93504597408025 19.292337560908372 121.73514806636213 255 255 255
-182.38707768407735 0.5395052282496611 78.26710015604064 255 255 255
-248.81828198554382 14.740330970887783 109.88564047617314 255 255 255
-258.0889301714173 -11.783336999412342 60.49558435519464 255 255 255
-253.64139768995415 3.0855532090582702 94.55138401303064 255 255 255
-253.83008031492824 12.1055457210214 91.0946283820566 255 255 255
-254.32282855044917 12.836366252319515 102.15772802418242 255 255 255
-240.19042659481195 15.910217751302062 107.71063250684298 255 255 255
-250.91730837150337 11.174201017192331 86.72127664327304 255 255 255
-248.5572541955705 11.566624295014483 99.82529510493652 255 255 255
-248.01399474259875 12.826802606855125 91.08907197922414 255 255 255
-247.0060641899083 16.268950056206656 114.13110548064863 255 255 255
-254.61525697644262 12.501771479311193 94.06742412144534 255 255 255
-234.77543637724838 9.461561100130316 102.62900683105883 255 255 255
-265.83494999515096 -7.940079259694768 73.14546325446177 255 255 255
-240.0330099830203 12.154378884617932 80.06040938727449 255 255 255
-242.85513725675244 13.686828363381615 91.26484932617092 255 255 255
-247.62513232486546 11.94582816264574 80.73676003589358 255 255 255
-258.83160409490273 0.8715617396629005 61.552121336178885 255 255 255
-252.56206450217476 11.81508777905638 87.40335187497351 255 255 255
-220.11393553200088 -53.45663851434843 67.7667966006763 255 255 255
-239.99502075487337 6.649475005967299 69.68019173895114 255 255 255
-259.1723802473305 3.842009737862778 91.71176707446143 255 255 255
-228.48155577117814 15.442512525931942 105.83066755014853 255 255 255
-248.98391310303109 14.83359650908966 103.22244012539096 255 255 255
-213.27070492215225 11.029007899984926 92.75976848812519 255 255 255
-232.90210381374 12.302631183594599 79.38711443984846 255 255 255
-240.68519909002833 0.6472048448296386 57.755256932138494 255 255 255
-253.0234010223131 2.3298725359788985 51.27179078450153 255 255 255
-196.6674110519642 11.700958759403678 87.66002639538337 255 255 255
-196.79162542111342 10.592485973463877 77.6126426817963 255 255 255
-248.64234811545919 14.733113558674415 110.56287314403353 255 255 255
-265.21211827825977 3.4390645330927994 56.40390915202475 255 255 255
-187.86292845574846 11.314692548734005 84.92053195095686 255 255 255
-249.36241466040022 15.010347971020455 105.41284138537884 255 255 255
-248.63078811819966 0.4758327734586265 72.97930738099879 255 255 255
-251.4079229735055 4.77284573053044 85.64461460724921 255 255 255
-228.47917706530214 7.827211387521954 92.24410470511849 255 255 255
-249.3785768648288 14.633537984959972 109.47405338595719 255 255 255
-237.8176856278513 10.148258070665605 66.17123667717287 255 255 255
-259.4856349554553 -3.124273510925838 87.19004446609662 255 255 255
-229.64868846183114 4.111481730121635 92.88106693077984 255 255 255
-253.98702761086247 15.164557957800431 108.99885985332755 255 255 255
-257.96931313280953 -4.895141507402082 69.11617024119282 255 255 255
-266.4542810463268 1.112464693363182 94.57547112076507 255 255 255
-234.4531881381925 10.39726036776949 110.92992082494914 255 255 255
-237.89224374435426 14.71315389434601 120.3191184395644 255 255 255
-227.22574115217884 13.30946734542708 110.5887190304046 255 255 255
-236.22383007871912 14.672818345202476 119.32132820933063 255 255 255
-266.70667954028994 0.8720930546106178 93.769689778691 255 255 255
-248.72709670455734 11.360035081658278 101.37772311999451 255 255 255
-247.69140308420475 8.170651488615368 96.5401209786465 255 255 255
-235.43948351576353 10.076417366887013 106.43007112616421 255 255 255
-257.8299095194297 1.4326846267444697 96.04125075052639 255 255 255
-233.8727520179468 7.488033860556137 103.09156870183277 255 255 255
-248.56303141770678 11.51296664327238 99.80392272194581 255 255 255
-250.21385731485924 12.725124226153076 109.51959867571203 255 255 255
-230.85342697373352 7.42470755792262 102.26489905153817 255 255 255
-256.91627367082344 2.067307923829617 94.48831556470782 255 255 255
-250.01897990757604 10.289236055009395 102.36926084507581 255 255 255
-248.44839993351917 9.383475289491207 98.08928080570332 255 255 255
-248.84835662415543 9.836176860087807 96.40219191694673 255 255 255
-247.86534996334598 10.5092631992603 98.61877518759188 255 255 255
-259.80207021031424 7.213964446457982 61.91665936565265 255 255 255
-262.5435764352549 6.855793083849482 58.70208828847734 255 255 255
-261.99331821135775 9.022348616998826 64.10173938748513 255 255 255
-253.13876085223396 8.101177354085598 51.03997851351744 255 255 255
-253.10791411587977 8.446028725812297 54.11828812930352 255 255 255
-257.277508579195 9.896963957020596 67.9930523485645 255 255 255
-262.2369870648467 6.927132379040366 59.07764464667167 255 255 255
-252.88241814494043 2.1579160448022563 48.591521934070244 255 255 255
-260.83054146691654 0.6895863310590293 56.856058815519006 255 255 255
-262.62034156766055 1.3644809626304761 57.18814063204084 255 255 255
-249.72806364947172 11.79140770605167 83.99387606413578 255 255 255
-247.92989514305194 13.673258175382482 95.03380622649595 255 255 255
-247.567123232783 14.038321688148766 95.88458679488261 255 255 255
-230.57497396653835 9.541786270941403 107.16704883918224 255 255 255
-228.17403300369173 8.663867129588102 90.48831809355244 255 255 255
-245.4107478585459 14.966572081450725 102.72108549375612 255 255 255
-260.79167989942914 -7.315005703290145 55.31928379880317 255 255 255
-234.1723160028745 14.554086749632 98.79928019556039 255 255 255
-260.6737437130567 -3.134361254978395 85.97695208706767 255 255 255
