-138.3215789794922 -14.165040969848633 -44.48996353149414 255 255 255
-132.61538696289062 -3.626570701599121 -31.292158126831055 255 255 255
-129.6487579345703 -7.529677391052246 -27.195716857910156 255 255 255
-129.0404510498047 -8.523979187011719 -27.92983627319336 255 255 255
-124.32322692871094 -3.846953868865967 -35.934078216552734 255 255 255
-141.52508544921875 -15.5621337890625 -47.01667022705078 255 255 255
-134.82252502441406 -8.12220287322998 -46.47786331176758 255 255 255
-133.5474090576172 -3.5904934406280518 -31.400020599365234 255 255 255
-102.05594635009766 -2.56559157371521 -29.676794052124023 255 255 255
-106.35411834716797 -3.401639461517334 -31.43174171447754 255 255 255
-168.18028259277344 -7.977741718292236 -39.84730529785156 255 255 255
-119.10733795166016 -8.397196769714355 -27.180021286010742 255 255 255
-116.3065185546875 -2.958392858505249 -31.214834213256836 255 255 255
-113.74966430664062 -2.63153338432312 -23.01967430114746 255 255 255
-169.8127899169922 -11.57591724395752 -64.0422592163086 255 255 255
-176.73165893554688 -9.100261688232422 -25.725555419921875 255 255 255
-114.73807525634766 -3.3706259727478027 -34.18981170654297 255 255 255
-176.0630645751953 -6.581679821014404 -20.5168399810791 255 255 255
-262.4722900390625 -10.657102584838867 -12.632598876953125 255 255 255
-144.99658203125 -14.315661430358887 -47.77743148803711 255 255 255
-139.9408721923828 -3.8125290870666504 -30.80280303955078 255 255 255
-187.55812072753906 -6.317601203918457 -31.032512664794922 255 255 255
-148.3074493408203 -8.73111629486084 -46.33324432373047 255 255 255
-139.01687622070312 -10.042125701904297 -45.259464263916016 255 255 255
-121.77362823486328 -8.319851875305176 -26.781038284301758 255 255 255
-128.654541015625 -8.54846477508545 -28.958921432495117 255 255 255
-119.55545806884766 -7.202994346618652 -39.75559616088867 255 255 255
-131.1646270751953 -7.344400882720947 -26.682720184326172 255 255 255
-129.82032775878906 -7.569217205047607 -27.23726463317871 255 255 255
-124.22718811035156 -3.525467872619629 -29.868379592895508 255 255 255
-124.04400634765625 -3.7136471271514893 -31.821216583251953 255 255 255
-130.00650024414062 -8.173733711242676 -29.09393310546875 255 255 255
-130.62962341308594 -5.472894668579102 -27.49496841430664 255 255 255
-138.12646484375 -8.429733276367188 -37.97782516479492 255 255 255
-127.62104797363281 -7.746484756469727 -26.77955436706543 255 255 255
-109.9723129272461 -7.620955944061279 -21.42305564880371 255 255 255
-108.26238250732422 -8.720368385314941 -22.385784149169922 255 255 255
-106.51412963867188 -3.802196979522705 -20.063295364379883 255 255 255
-122.3543701171875 -2.197113037109375 -28.996484756469727 255 255 255
-235.16036987304688 -2.616917848587036 11.367040634155273 255 255 255
-252.145263671875 -8.016069412231445 9.11086654663086 255 255 255
-242.8223876953125 -6.928290843963623 18.42511749267578 255 255 255
-266.2636413574219 -10.729851722717285 -20.715456008911133 255 255 255
-254.85850524902344 -9.518988609313965 8.172436714172363 255 255 255
-125.37686157226562 -9.504429817199707 -34.20051193237305 255 255 255
-125.9992446899414 -9.824474334716797 -34.64277267456055 255 255 255
-124.45185852050781 -3.178943395614624 -27.475065231323242 255 255 255
-125.92050170898438 -10.52027702331543 -32.91891098022461 255 255 255
-191.6811065673828 -15.51761245727539 -45.32777786254883 255 255 255
-107.1020278930664 -2.3787691593170166 -28.021543502807617 255 255 255
-104.28650665283203 -2.425877094268799 -26.23896026611328 255 255 255
-121.46919250488281 -3.6850976943969727 -33.21120071411133 255 255 255
-121.97673797607422 -8.568565368652344 -33.464420318603516 255 255 255
-165.8533935546875 -8.903639793395996 -55.24718475341797 255 255 255
-130.88336181640625 -3.7087974548339844 -30.633014678955078 255 255 255
-124.73345947265625 -3.463125705718994 -33.568416595458984 255 255 255
-175.1117706298828 -7.715876579284668 -59.17961502075195 255 255 255
-194.15643310546875 -15.279677391052246 -59.00204086303711 255 255 255
-138.38169860839844 -7.591540813446045 -28.482582092285156 255 255 255
-271.69671630859375 -15.27560043334961 -1.865071415901184 255 255 255
-245.7473602294922 -3.331041097640991 1.549412727355957 255 255 255
-273.90948486328125 -17.112754821777344 1.4236066341400146 255 255 255
-190.71556091308594 -11.756667137145996 -31.44745635986328 255 255 255
-144.99583435058594 -4.090570449829102 -30.02398109436035 255 255 255
-145.26246643066406 -7.740015506744385 -29.958818435668945 255 255 255
-173.350341796875 -12.447528839111328 -52.11028289794922 255 255 255
-133.8585205078125 -4.041097640991211 -37.70196533203125 255 255 255
-167.21669006347656 -7.371403217315674 -66.6058578491211 255 255 255
-130.2265625 -8.29433536529541 -28.486053466796875 255 255 255
-114.8475341796875 -8.063899993896484 -36.860740661621094 255 255 255
-124.97603607177734 -10.4007568359375 -33.18206024169922 255 255 255
-150.16477966308594 -3.8737006187438965 -32.50242614746094 255 255 255
-142.70364379882812 -4.551786422729492 -39.4908447265625 255 255 255
-138.729736328125 -8.717373847961426 -37.462074279785156 255 255 255
-180.2375946044922 -14.070680618286133 -42.69874954223633 255 255 255
-176.76087951660156 -6.401604652404785 -17.721176147460938 255 255 255
-154.15994262695312 -4.072984218597412 -27.88467025756836 255 255 255
-180.001220703125 -10.923526763916016 -27.98257827758789 255 255 255
-154.02273559570312 -4.1496901512146 -28.07774543762207 255 255 255
-229.49185180664062 -17.8985595703125 31.851375579833984 255 255 255
-185.2247772216797 -11.729330062866211 23.188518524169922 255 255 255
-184.3541717529297 -13.687267303466797 22.480453491210938 255 255 255
-122.46742248535156 -3.109219789505005 -28.27557945251465 255 255 255
-125.46092987060547 -3.093371629714966 -27.722312927246094 255 255 255
-127.14571380615234 -3.4624836444854736 -31.930788040161133 255 255 255
-118.09768676757812 -2.8061156272888184 -26.598041534423828 255 255 255
-130.4888153076172 -8.322051048278809 -29.189191818237305 255 255 255
-170.06654357910156 -12.313262939453125 -51.287532806396484 255 255 255
-143.90863037109375 -10.791707992553711 -44.4011344909668 255 255 255
-144.165771484375 -10.041937828063965 -46.68949890136719 255 255 255
-253.00498962402344 -2.8469197750091553 26.6251277923584 255 255 255
-236.60023498535156 -2.6312882900238037 19.453641891479492 255 255 255
-249.497314453125 -5.6803998947143555 25.83430290222168 255 255 255
-254.13587951660156 -7.260621070861816 12.397871971130371 255 255 255
-239.53875732421875 -2.497652292251587 12.792004585266113 255 255 255
-236.69740295410156 -7.235319137573242 18.864614486694336 255 255 255
-236.3508758544922 -2.708857774734497 19.361616134643555 255 255 255
-102.1462173461914 -1.8917855024337769 -21.286245346069336 255 255 255
-117.05574798583984 -10.770513534545898 -25.485380172729492 255 255 255
-112.51071166992188 -6.411961555480957 -21.803775787353516 255 255 255
-152.07203674316406 -8.381230354309082 -33.977317810058594 255 255 255
-117.2518539428711 -11.549455642700195 -23.627429962158203 255 255 255
-106.8812484741211 -6.676501750946045 -32.6915168762207 255 255 255
-213.96275329589844 -4.319178581237793 -9.119549751281738 255 255 255
-174.64727783203125 -5.182241916656494 -29.452556610107422 255 255 255
-195.53738403320312 -4.808036804199219 -18.665061950683594 255 255 255
-182.57769775390625 -5.132086753845215 -28.807819366455078 255 255 255
-124.83881378173828 -3.0952517986297607 -27.469438552856445 255 255 255
-165.8633270263672 -6.096163272857666 -56.06538391113281 255 255 255
-119.8219985961914 -7.937556743621826 -37.400962829589844 255 255 255
-130.7899932861328 -5.181615829467773 -41.4150505065918 255 255 255
-122.15401458740234 -12.916903495788574 -38.289695739746094 255 255 255
-200.5023651123047 -10.938091278076172 -45.985103607177734 255 255 255
-140.97705078125 -10.1293306350708 -25.653104782104492 255 255 255
-233.80307006835938 -2.3565032482147217 15.827855110168457 255 255 255
-123.76033782958984 -3.1986005306243896 -30.05108642578125 255 255 255
-122.48094940185547 -3.375722885131836 -33.127593994140625 255 255 255
-117.79216766357422 -3.1144988536834717 -32.227088928222656 255 255 255
-133.14634704589844 -3.6439261436462402 -28.697185516357422 255 255 255
-121.79527282714844 -3.898902177810669 -33.483306884765625 255 255 255
-142.7679443359375 -12.833391189575195 -45.58885955810547 255 255 255
-170.6151580810547 -6.394871234893799 -59.51862716674805 255 255 255
-145.08319091796875 -13.5943603515625 -47.2101936340332 255 255 255
-124.29576110839844 -3.9588303565979004 -36.85722351074219 255 255 255
-179.54647827148438 -16.051673889160156 21.493606567382812 255 255 255
-126.61366271972656 -3.52177357673645 -33.85929870605469 255 255 255
-145.55862426757812 -8.60003662109375 -39.96213150024414 255 255 255
-114.4654541015625 -3.393742322921753 -33.823455810546875 255 255 255
-118.84186553955078 -8.294638633728027 -27.104352951049805 255 255 255
-126.74533081054688 -9.819382667541504 -34.793304443359375 255 255 255
-126.08867645263672 -10.108903884887695 -33.35612869262695 255 255 255
-115.05863189697266 -7.630976676940918 -26.22386360168457 255 255 255
-117.14929962158203 -8.75858211517334 -31.238941192626953 255 255 255
-212.0177764892578 -9.390220642089844 -66.18840026855469 255 255 255
-137.36477661132812 -7.360250949859619 -44.99247360229492 255 255 255
-139.49420166015625 -14.9397554397583 -46.85464096069336 255 255 255
-148.96896362304688 -17.867359161376953 -53.36152648925781 255 255 255
-118.4688949584961 -8.463711738586426 -37.676414489746094 255 255 255
-129.2465362548828 -6.785735130310059 -27.254030227661133 255 255 255
-179.9269256591797 -13.950837135314941 -42.37141799926758 255 255 255
-186.97586059570312 -5.8934502601623535 -25.6397762298584 255 255 255
-205.75106811523438 -11.601941108703613 -29.299638748168945 255 255 255
-177.1970672607422 -7.052231311798096 -16.421180725097656 255 255 255
-145.51815795898438 -12.279961585998535 -48.49065399169922 255 255 255
-184.3828887939453 -10.697566032409668 -43.51976776123047 255 255 255
-157.08131408691406 -4.335324764251709 -29.851009368896484 255 255 255
-157.4012908935547 -4.403122425079346 -31.85544204711914 255 255 255
-156.4420623779297 -4.448301315307617 -31.189960479736328 255 255 255
-231.7677001953125 -8.481478691101074 -53.78183364868164 255 255 255
-183.2453155517578 -12.779117584228516 -29.442371368408203 255 255 255
-144.2246551513672 -18.50579071044922 -49.37074661254883 255 255 255
-145.57858276367188 -8.705286026000977 -40.91407012939453 255 255 255
-177.27647399902344 -12.703161239624023 -39.64071273803711 255 255 255
-126.22982025146484 -3.5702617168426514 -33.46519088745117 255 255 255
-144.99172973632812 -8.48654842376709 -42.24813461303711 255 255 255
-125.97553253173828 -3.1952998638153076 -29.078248977661133 255 255 255
-121.74836730957031 -3.911454200744629 -33.42618942260742 255 255 255
-184.56378173828125 -12.243906021118164 22.223482131958008 255 255 255
-172.56874084472656 -2.94427227973938 -8.966011047363281 255 255 255
-151.1245880126953 -6.894399642944336 -29.049097061157227 255 255 255
-210.2301025390625 -12.009448051452637 -36.69620895385742 255 255 255
-130.58355712890625 -7.983391284942627 -28.0090389251709 255 255 255
-131.9463348388672 -3.6364834308624268 -31.060354232788086 255 255 255
-136.56333923339844 -10.448431015014648 -44.267242431640625 255 255 255
-121.20687103271484 -8.692758560180664 -34.05015563964844 255 255 255
-224.2945098876953 -5.653409481048584 22.53672218322754 255 255 255
-222.48289489746094 -13.044536590576172 52.45875930786133 255 255 255
-225.99327087402344 -16.571739196777344 53.435035705566406 255 255 255
-214.5137939453125 -3.6243510246276855 12.011061668395996 255 255 255
-223.98370361328125 -16.71921730041504 58.12558364868164 255 255 255
-155.60365295410156 -7.610334873199463 -47.6068229675293 255 255 255
-147.25096130371094 -3.8652265071868896 -29.85436248779297 255 255 255
-257.8783264160156 -4.76715087890625 -8.937591552734375 255 255 255
-175.55307006835938 -10.857976913452148 -26.6795597076416 255 255 255
-152.1313934326172 -4.98398494720459 -43.04081344604492 255 255 255
-234.56776428222656 -11.604616165161133 48.063663482666016 255 255 255
-183.1424560546875 -8.806063652038574 14.971695899963379 255 255 255
-111.86144256591797 -7.0147905349731445 -21.42060661315918 255 255 255
-106.0743408203125 -2.3087775707244873 -27.744491577148438 255 255 255
-109.03585052490234 -3.1745307445526123 -32.044715881347656 255 255 255
-102.44242858886719 -1.8814289569854736 -21.382457733154297 255 255 255
-126.31941986083984 -10.244134902954102 -33.536705017089844 255 255 255
-117.29877471923828 -3.1482441425323486 -31.6953125 255 255 255
-283.0004577636719 -8.648353576660156 -4.59512996673584 255 255 255
-268.041259765625 -3.164673089981079 10.994810104370117 255 255 255
-272.078857421875 -7.049439907073975 -3.500720500946045 255 255 255
-203.05027770996094 -2.454416275024414 11.05172348022461 255 255 255
-235.26161193847656 -4.138297080993652 30.267038345336914 255 255 255
-215.54957580566406 -3.4942822456359863 12.044706344604492 255 255 255
-204.55490112304688 -2.533276081085205 11.11818790435791 255 255 255
-189.06983947753906 -4.177925109863281 -3.376755714416504 255 255 255
-169.7519073486328 -3.1756503582000732 -11.851469039916992 255 255 255
-109.83818054199219 -7.538032531738281 -18.858325958251953 255 255 255
-180.005126953125 -13.217440605163574 -43.282615661621094 255 255 255
-144.11843872070312 -4.540063858032227 -39.97356414794922 255 255 255
-147.8136444091797 -4.062205791473389 -32.20643615722656 255 255 255
-139.8550567626953 -7.5807271003723145 -30.536569595336914 255 255 255
-144.29966735839844 -9.384821891784668 -40.317771911621094 255 255 255
-146.61463928222656 -8.197493553161621 -40.92109298706055 255 255 255
-126.34030151367188 -9.461647033691406 -34.1518669128418 255 255 255
-139.2578125 -6.250511169433594 -38.5261116027832 255 255 255
-116.69352722167969 -10.71385669708252 -25.400434494018555 255 255 255
-111.68608093261719 -2.703230142593384 -21.795703887939453 255 255 255
-99.17320251464844 -3.0277957916259766 -29.13458824157715 255 255 255
-98.35584259033203 -2.756892442703247 -28.911924362182617 255 255 255
-134.17434692382812 -10.812542915344238 -40.11231994628906 255 255 255
-97.90882873535156 -2.3455429077148438 -28.521207809448242 255 255 255
-113.76197814941406 -9.055253982543945 -30.554405212402344 255 255 255
-105.95299530029297 -3.31327748298645 -31.08989143371582 255 255 255
-262.1463623046875 -9.143509864807129 -9.603862762451172 255 255 255
-109.80540466308594 -6.605659484863281 -20.489437103271484 255 255 255
-215.09873962402344 -2.2153797149658203 11.916891098022461 255 255 255
-208.2283935546875 -1.9595961570739746 14.667976379394531 255 255 255
-240.3218994140625 -6.9632248878479 17.290693283081055 255 255 255
-225.70773315429688 -6.278087139129639 23.904069900512695 255 255 255
-219.5538787841797 -2.3614695072174072 24.61921501159668 255 255 255
-224.4163360595703 -2.4661381244659424 23.30863380432129 255 255 255
-231.5299530029297 -3.2230467796325684 25.886524200439453 255 255 255
-224.19680786132812 -2.0412492752075195 18.885332107543945 255 255 255
-269.0728759765625 -6.630930423736572 10.183810234069824 255 255 255
-238.75079345703125 -3.456812858581543 17.870346069335938 255 255 255
-242.08016967773438 -3.6015055179595947 13.255400657653809 255 255 255
-243.45248413085938 -7.651534557342529 16.302583694458008 255 255 255
-242.1563720703125 -10.013904571533203 0.7583394050598145 255 255 255
-241.72708129882812 -7.103063106536865 18.524255752563477 255 255 255
-268.3217468261719 -7.912629127502441 -21.749982833862305 255 255 255
-272.1398620605469 -9.565479278564453 7.209133148193359 255 255 255
-248.63111877441406 -3.743795394897461 -4.038772106170654 255 255 255
-268.950927734375 -15.436487197875977 -20.534486770629883 255 255 255
-246.8655242919922 -3.2860617637634277 3.0851335525512695 255 255 255
-273.5979309082031 -8.058014869689941 -5.189569473266602 255 255 255
-258.59326171875 -4.31693172454834 -9.222949028015137 255 255 255
-247.7377166748047 -3.394228935241699 2.7614407539367676 255 255 255
-270.7041015625 -6.977783203125 8.14730453491211 255 255 255
-273.49273681640625 -11.45123291015625 4.2349066734313965 255 255 255
-260.2901306152344 -4.180054187774658 -4.380571365356445 255 255 255
-267.8767395019531 -9.230812072753906 -0.028716059401631355 255 255 255
-261.8810729980469 -8.258506774902344 2.0314841270446777 255 255 255
-274.0668640136719 -11.477481842041016 6.407418251037598 255 255 255
-267.9083557128906 -9.924164772033691 3.37691593170166 255 255 255
-261.0087585449219 -6.304666519165039 -1.5017777681350708 255 255 255
-266.57635498046875 -9.707221984863281 -1.047261118888855 255 255 255
-259.4400939941406 -5.793290615081787 2.0658764839172363 255 255 255
-269.00189208984375 -12.99338150024414 -0.529280960559845 255 255 255
-250.82093811035156 -3.247971534729004 7.613805770874023 255 255 255
-250.23545837402344 -3.276751756668091 7.83232307434082 255 255 255
-262.17132568359375 -6.69801664352417 -2.3857545852661133 255 255 255
-249.5046844482422 -3.820281744003296 -1.1672184467315674 255 255 255
-268.85906982421875 -12.511015892028809 -2.4125325679779053 255 255 255
-257.1558837890625 -5.682023048400879 3.3895671367645264 255 255 255
-261.0605773925781 -8.084161758422852 -1.5215139389038086 255 255 255
-270.4517517089844 -15.108752250671387 0.33433616161346436 255 255 255
-269.799560546875 -15.527621269226074 -10.732779502868652 255 255 255
-260.5776062011719 -7.856203556060791 -2.4497103691101074 255 255 255
-272.53717041015625 -11.545472145080566 4.710726737976074 255 255 255
-272.04254150390625 -5.950379848480225 8.842328071594238 255 255 255
-269.7679443359375 -12.305563926696777 -19.194852828979492 255 255 255
-262.4529724121094 -8.04571533203125 -12.63389778137207 255 255 255
-263.7026672363281 -3.9722394943237305 -1.3183422088623047 255 255 255
-252.357421875 -11.533153533935547 -15.314027786254883 255 255 255
-259.1172790527344 -7.884631156921387 -5.459501266479492 255 255 255
-271.5810852050781 -16.656234741210938 -12.35586166381836 255 255 255
-251.8479766845703 -3.1375913619995117 8.066425323486328 255 255 255
-251.94105529785156 -10.944167137145996 -15.728442192077637 255 255 255
-267.289794921875 -8.544124603271484 7.968572616577148 255 255 255
-250.00674438476562 -3.221196174621582 5.19419527053833 255 255 255
-250.3795623779297 -3.2670304775238037 7.085874080657959 255 255 255
-249.59323120117188 -4.637438774108887 -8.938170433044434 255 255 255
-269.6191711425781 -16.617738723754883 -5.114053726196289 255 255 255
-252.97467041015625 -11.497906684875488 -17.9798641204834 255 255 255
-250.4226531982422 -3.331916093826294 5.074641227722168 255 255 255
-261.3985290527344 -8.605257987976074 -8.943321228027344 255 255 255
-272.18157958984375 -6.232961654663086 -3.443812131881714 255 255 255
-270.41705322265625 -15.4860258102417 -12.944380760192871 255 255 255
-272.8637390136719 -12.697065353393555 -7.778826713562012 255 255 255
-273.8846130371094 -11.45520305633545 -1.239266037940979 255 255 255
-271.7530822753906 -9.317035675048828 2.020906448364258 255 255 255
-282.2477111816406 -12.99046802520752 -4.6233930587768555 255 255 255
-270.8515625 -14.716782569885254 1.190542221069336 255 255 255
-272.5739440917969 -15.1145658493042 -13.194926261901855 255 255 255
-269.0716857910156 -7.5750017166137695 -0.7946138381958008 255 255 255
-271.0341491699219 -8.65155029296875 3.7506816387176514 255 255 255
-266.88970947265625 -13.499091148376465 -4.316769123077393 255 255 255
-267.7418212890625 -3.229316473007202 10.789828300476074 255 255 255
-264.7131042480469 -3.596872329711914 5.150983810424805 255 255 255
-282.0206298828125 -9.72421646118164 -4.874624252319336 255 255 255
-274.2467956542969 -11.635151863098145 5.771467685699463 255 255 255
-269.53619384765625 -15.867105484008789 -9.770556449890137 255 255 255
-259.5374755859375 -7.943038463592529 -3.411482334136963 255 255 255
-246.9800262451172 -3.28547739982605 2.9387307167053223 255 255 255
-263.9238586425781 -9.599709510803223 -20.30300521850586 255 255 255
-268.3742370605469 -3.316920518875122 9.180401802062988 255 255 255
-265.29541015625 -3.528909683227539 4.791473388671875 255 255 255
-267.1785888671875 -8.907733917236328 -0.11660988628864288 255 255 255
-252.23065185546875 -3.4513416290283203 5.300295829772949 255 255 255
-259.9371032714844 -6.917466640472412 -4.674687385559082 255 255 255
-262.09954833984375 -10.514664649963379 -0.9192859530448914 255 255 255
-269.7137756347656 -16.117631912231445 -4.046359539031982 255 255 255
-254.33621215820312 -3.7016208171844482 8.765283584594727 255 255 255
-248.40953063964844 -3.1290926933288574 9.692280769348145 255 255 255
-270.8758239746094 -16.161333084106445 -9.870462417602539 255 255 255
-270.8614501953125 -14.447285652160645 -4.695962905883789 255 255 255
-260.0359802246094 -7.06910514831543 -4.298612117767334 255 255 255
-271.614990234375 -14.97922420501709 -2.098360300064087 255 255 255
-271.01995849609375 -15.059096336364746 -12.088360786437988 255 255 255
-270.5561218261719 -9.300395965576172 7.11390495300293 255 255 255
-270.64166259765625 -5.184038162231445 -2.6905102729797363 255 255 255
-265.8241271972656 -11.28854751586914 -17.387571334838867 255 255 255
-265.0126037597656 -9.410648345947266 0.19924396276474 255 255 255
-267.4781494140625 -7.85258674621582 -1.4635659456253052 255 255 255
-260.03631591796875 -7.378675937652588 -4.899525165557861 255 255 255
-265.3644714355469 -7.9020771980285645 -1.2751389741897583 255 255 255
-261.4407653808594 -10.173622131347656 -1.74932861328125 255 255 255
-253.25413513183594 -11.681111335754395 -18.58005142211914 255 255 255
-262.44781494140625 -6.65236759185791 -2.535832643508911 255 255 255
-248.99050903320312 -3.7751526832580566 -5.033206462860107 255 255 255
-245.651611328125 -3.294921636581421 1.5083441734313965 255 255 255
-260.5882263183594 -4.676502227783203 -4.778345584869385 255 255 255
-266.8785400390625 -7.11671781539917 -1.6402630805969238 255 255 255
-268.3577575683594 -12.691648483276367 -4.877415657043457 255 255 255
-268.0600280761719 -9.603035926818848 -6.071988105773926 255 255 255
-267.9628601074219 -9.641095161437988 -0.667850136756897 255 255 255
-272.0027160644531 -14.06859016418457 4.4426445960998535 255 255 255
-260.06646728515625 -7.65191650390625 -2.6674232482910156 255 255 255
-271.4566955566406 -13.360112190246582 1.2033103704452515 255 255 255
-252.73385620117188 -11.693913459777832 -15.826647758483887 255 255 255
-262.8916931152344 -4.052809238433838 -0.39693087339401245 255 255 255
-245.35934448242188 -3.460015296936035 -1.157233715057373 255 255 255
-252.62449645996094 -12.099246978759766 -15.93606948852539 255 255 255
-270.8629150390625 -8.052103996276855 -2.2251205444335938 255 255 255
-238.84652709960938 -3.1072535514831543 27.23717498779297 255 255 255
-252.59793090820312 -3.2918643951416016 -0.4914136230945587 255 255 255
-243.45440673828125 -5.764088153839111 28.733592987060547 255 255 255
-205.43247985839844 -1.5123264789581299 22.619680404663086 255 255 255
-208.66610717773438 -6.831350803375244 12.173574447631836 255 255 255
-237.861572265625 -23.176599502563477 45.212894439697266 255 255 255
-244.0186004638672 -8.110414505004883 14.571011543273926 255 255 255
-241.17239379882812 -7.046167850494385 17.92144203186035 255 255 255
-239.16441345214844 -4.8032050132751465 18.137163162231445 255 255 255
-207.23178100585938 -1.7981311082839966 24.280183792114258 255 255 255
-212.53475952148438 -1.652942180633545 20.16402244567871 255 255 255
-239.30650329589844 -13.86622428894043 26.9613094329834 255 255 255
-253.7898406982422 -9.661310195922852 8.566732406616211 255 255 255
-280.4718933105469 -12.404361724853516 -3.777355194091797 255 255 255
-266.4416809082031 -13.394604682922363 -2.6555898189544678 255 255 255
-266.7718811035156 -8.048295021057129 -4.4115777015686035 255 255 255
-270.1526794433594 -8.118953704833984 -1.773727297782898 255 255 255
-271.6572570800781 -14.660296440124512 -12.268431663513184 255 255 255
-271.070068359375 -13.769448280334473 -15.289295196533203 255 255 255
-251.28697204589844 -3.339630365371704 6.571466445922852 255 255 255
-241.59413146972656 -7.232264518737793 15.765005111694336 255 255 255
-262.25201416015625 -3.361877918243408 8.95283317565918 255 255 255
-257.9591064453125 -3.5010225772857666 7.9701972007751465 255 255 255
-236.43177795410156 -5.568843841552734 19.169679641723633 255 255 255
-242.03184509277344 -7.448843955993652 15.149043083190918 255 255 255
-243.0576934814453 -2.9779767990112305 28.340110778808594 255 255 255
-260.2488708496094 -9.118827819824219 -8.636092185974121 255 255 255
-267.001953125 -12.495209693908691 -0.9357500076293945 255 255 255
-252.20668029785156 -12.51166820526123 20.778520584106445 255 255 255
-218.557861328125 -2.1098430156707764 23.99227523803711 255 255 255
-205.32449340820312 -5.100226402282715 21.764625549316406 255 255 255
-210.87266540527344 -7.221875190734863 24.445188522338867 255 255 255
-233.33706665039062 -13.624679565429688 49.994239807128906 255 255 255
-213.5378875732422 -5.129100322723389 24.08871078491211 255 255 255
-213.12527465820312 -5.586233615875244 25.131406784057617 255 255 255
-222.00491333007812 -6.376277923583984 25.00293731689453 255 255 255
-208.10177612304688 -2.0165131092071533 14.645748138427734 255 255 255
-206.99195861816406 -6.661994934082031 12.11583423614502 255 255 255
-236.39675903320312 -7.592365264892578 18.468242645263672 255 255 255
-270.65106201171875 -12.695477485656738 -0.16232286393642426 255 255 255
-240.67779541015625 -2.582552671432495 14.269372940063477 255 255 255
-256.9662170410156 -4.565310478210449 20.474071502685547 255 255 255
-241.33416748046875 -7.748585224151611 15.945234298706055 255 255 255
-246.54678344726562 -4.458039283752441 -5.245586395263672 255 255 255
-264.8070373535156 -8.628616333007812 -1.2640893459320068 255 255 255
-269.0623474121094 -16.521181106567383 -3.4956374168395996 255 255 255
-247.10791015625 -3.4928390979766846 12.926862716674805 255 255 255
-263.70758056640625 -9.795988082885742 1.1840791702270508 255 255 255
-275.32470703125 -15.177431106567383 -9.215313911437988 255 255 255
-243.88783264160156 -3.4426026344299316 0.07548724114894867 255 255 255
-232.53257751464844 -7.863365650177002 20.245630264282227 255 255 255
-260.85784912109375 -3.749440908432007 12.851096153259277 255 255 255
-238.67933654785156 -8.3096923828125 17.352346420288086 255 255 255
-238.7221221923828 -4.761714458465576 18.165021896362305 255 255 255
-233.00521850585938 -5.41005802154541 22.754037857055664 255 255 255
-207.98471069335938 -1.6434786319732666 21.602819442749023 255 255 255
-203.53350830078125 -1.667405128479004 23.34499168395996 255 255 255
-208.49557495117188 -1.675630807876587 20.469724655151367 255 255 255
-206.25601196289062 -5.719715118408203 25.441211700439453 255 255 255
-198.73095703125 -8.530045509338379 9.839406967163086 255 255 255
-226.56625366210938 -4.802123546600342 22.14773941040039 255 255 255
-194.38316345214844 -2.335832118988037 7.249894618988037 255 255 255
-244.9781951904297 -17.684120178222656 35.24782180786133 255 255 255
-270.8309020996094 -15.069001197814941 -13.511062622070312 255 255 255
-268.23388671875 -12.645730018615723 -1.4893325567245483 255 255 255
-265.7685241699219 -9.577423095703125 -0.7128105759620667 255 255 255
-268.27337646484375 -4.172317028045654 5.031826496124268 255 255 255
-273.70611572265625 -15.71745491027832 -14.055964469909668 255 255 255
-275.37451171875 -9.054465293884277 2.844484806060791 255 255 255
-268.76934814453125 -11.223307609558105 1.7762351036071777 255 255 255
-228.30406188964844 -6.183088302612305 22.509113311767578 255 255 255
-234.90846252441406 -8.35085678100586 46.63411331176758 255 255 255
-260.6959533691406 -7.8898444175720215 -2.529052257537842 255 255 255
-239.9905242919922 -9.409469604492188 4.260571002960205 255 255 255
-271.19891357421875 -16.376314163208008 -13.493586540222168 255 255 255
-231.09014892578125 -2.2084944248199463 18.58827781677246 255 255 255
-234.05313110351562 -2.3655290603637695 11.31972599029541 255 255 255
-231.9957733154297 -2.24031400680542 18.275911331176758 255 255 255
-234.6790313720703 -1.6129534244537354 20.45014762878418 255 255 255
-239.87921142578125 -9.384506225585938 4.362234592437744 255 255 255
-235.5642852783203 -7.089524269104004 19.527379989624023 255 255 255
-256.9114074707031 -8.256072998046875 25.37823486328125 255 255 255
-258.8023986816406 -7.702028751373291 16.320592880249023 255 255 255
-248.85171508789062 -3.3498849868774414 3.3714160919189453 255 255 255
-212.00961303710938 -6.205665588378906 32.780548095703125 255 255 255
-232.40347290039062 -11.043798446655273 50.62205123901367 255 255 255
-190.08840942382812 -1.6950613260269165 14.061132431030273 255 255 255
-200.4895782470703 -9.052783012390137 7.235024452209473 255 255 255
-227.22239685058594 -4.765020847320557 22.36847686767578 255 255 255
-193.18951416015625 -3.7725372314453125 29.60464859008789 255 255 255
-200.8469696044922 -8.828702926635742 9.73473834991455 255 255 255
-198.7109832763672 -8.520216941833496 9.795506477355957 255 255 255
-188.11744689941406 -1.8075617551803589 12.81296157836914 255 255 255
-229.11883544921875 -2.399390935897827 11.6570463180542 255 255 255
-216.24688720703125 -4.200741767883301 29.717721939086914 255 255 255
-221.69320678710938 -5.53056526184082 22.070621490478516 255 255 255
-217.9455108642578 -14.019407272338867 25.706562042236328 255 255 255
-236.77268981933594 -15.402769088745117 28.615100860595703 255 255 255
-193.57127380371094 -2.9991707801818848 6.786321640014648 255 255 255
-194.0716552734375 -1.7032760381698608 15.772445678710938 255 255 255
-235.66310119628906 -10.58048152923584 35.036617279052734 255 255 255
-241.1050567626953 -7.901099681854248 16.857059478759766 255 255 255
-236.14405822753906 -7.3939032554626465 19.592912673950195 255 255 255
-267.1429748535156 -13.590124130249023 -3.1357133388519287 255 255 255
-272.66094970703125 -14.764403343200684 -3.230952024459839 255 255 255
-232.69407653808594 -2.6013388633728027 12.604604721069336 255 255 255
-250.6400146484375 -3.3924989700317383 2.5044658184051514 255 255 255
-266.6492004394531 -7.079224109649658 -1.5393600463867188 255 255 255
-251.63327026367188 -3.263899326324463 6.418420791625977 255 255 255
-250.81619262695312 -10.349733352661133 20.994874954223633 255 255 255
-276.971923828125 -16.901226043701172 1.4494134187698364 255 255 255
-230.41818237304688 -7.407405376434326 20.278337478637695 255 255 255
-269.7043151855469 -16.852737426757812 -1.0226439237594604 255 255 255
-274.4753723144531 -13.590150833129883 -9.002470016479492 255 255 255
-248.42288208007812 -12.173739433288574 -10.965129852294922 255 255 255
-227.60955810546875 -6.123922348022461 22.36966896057129 255 255 255
-239.52801513671875 -13.979304313659668 27.07674789428711 255 255 255
-206.48165893554688 -10.439547538757324 56.61241149902344 255 255 255
-238.35147094726562 -17.01120376586914 27.89809799194336 255 255 255
-183.27732849121094 -2.0033984184265137 11.986896514892578 255 255 255
-236.05300903320312 -8.105793952941895 18.022722244262695 255 255 255
-231.76153564453125 -2.333617925643921 16.59619140625 255 255 255
-272.5287170410156 -16.74985694885254 -14.584454536437988 255 255 255
-276.10516357421875 -17.223968505859375 3.3013391494750977 255 255 255
-270.5558776855469 -6.7653889656066895 7.998737812042236 255 255 255
-260.75177001953125 -7.875064849853516 -13.107156753540039 255 255 255
-240.49234008789062 -2.565871000289917 14.999273300170898 255 255 255
-262.03607177734375 -4.503812313079834 -0.19697237014770508 255 255 255
-273.5135192871094 -9.534566879272461 7.011286735534668 255 255 255
-271.8072204589844 -8.962602615356445 3.5136547088623047 255 255 255
-271.8049011230469 -6.137136936187744 -3.3251945972442627 255 255 255
-253.49676513671875 -4.020063400268555 -8.527694702148438 255 255 255
-268.3414306640625 -13.971179962158203 -5.366454124450684 255 255 255
-254.36343383789062 -3.8380367755889893 -1.42330002784729 255 255 255
-262.4176940917969 -8.786774635314941 -15.675834655761719 255 255 255
-201.60369873046875 -2.2230746746063232 10.151795387268066 255 255 255
-236.03823852539062 -19.432849884033203 41.22663879394531 255 255 255
-197.12623596191406 -8.129850387573242 33.26458740234375 255 255 255
-192.7328338623047 -2.314817190170288 6.102099895477295 255 255 255
-243.1287078857422 -6.586684703826904 18.4596004486084 255 255 255
-241.057373046875 -7.980865001678467 16.692888259887695 255 255 255
-240.09637451171875 -2.711369276046753 12.315943717956543 255 255 255
-242.8765106201172 -6.929626941680908 18.63526725769043 255 255 255
-243.4146728515625 -8.911287307739258 16.67791748046875 255 255 255
-270.9820556640625 -13.507169723510742 -1.6491971015930176 255 255 255
-256.09393310546875 -4.551941394805908 1.403934121131897 255 255 255
-272.49591064453125 -16.57054901123047 -15.010454177856445 255 255 255
-265.7608642578125 -9.394948959350586 -2.2776577472686768 255 255 255
-267.1663818359375 -13.056169509887695 -4.197704792022705 255 255 255
-269.5538330078125 -10.095535278320312 -0.8035672903060913 255 255 255
-273.43939208984375 -9.907536506652832 5.377121448516846 255 255 255
-272.64984130859375 -10.11894702911377 4.733530044555664 255 255 255
-227.654296875 -2.1937098503112793 22.34269142150879 255 255 255
-228.68899536132812 -2.293381452560425 15.094766616821289 255 255 255
-250.25042724609375 -3.2888267040252686 5.19211483001709 255 255 255
-239.38436889648438 -2.758553981781006 8.45934009552002 255 255 255
-244.87832641601562 -3.135638952255249 4.0967254638671875 255 255 255
-241.87486267089844 -2.807460308074951 6.400400161743164 255 255 255
-185.2090606689453 -7.883743762969971 -0.0035095657221972942 255 255 255
-181.7333984375 -2.133845567703247 6.302036285400391 255 255 255
-179.67562866210938 -2.1043028831481934 9.239784240722656 255 255 255
-182.3602752685547 -2.27728271484375 4.727738380432129 255 255 255
-241.614990234375 -8.11992359161377 17.551021575927734 255 255 255
-271.9058837890625 -15.816253662109375 2.5635430812835693 255 255 255
-241.3456268310547 -2.912226915359497 7.304771423339844 255 255 255
-250.4732666015625 -11.754308700561523 -10.729480743408203 255 255 255
-251.3605194091797 -2.858948230743408 26.25294303894043 255 255 255
-239.54635620117188 -2.6613106727600098 12.630819320678711 255 255 255
-240.10116577148438 -2.4762957096099854 14.83426570892334 255 255 255
-249.98471069335938 -10.017465591430664 18.044450759887695 255 255 255
-232.5693817138672 -5.937264919281006 21.062665939331055 255 255 255
-218.2115936279297 -4.261934280395508 24.22224235534668 255 255 255
-275.75732421875 -17.506052017211914 0.3194453716278076 255 255 255
-239.6192626953125 -2.6766462326049805 12.566591262817383 255 255 255
-223.4488067626953 -9.731473922729492 11.960749626159668 255 255 255
-262.041015625 -3.6652324199676514 4.458694934844971 255 255 255
-264.728515625 -3.6007206439971924 4.91099739074707 255 255 255
-274.2344055175781 -10.762791633605957 5.892070293426514 255 255 255
-200.55828857421875 -8.672633171081543 9.612444877624512 255 255 255
-193.09817504882812 -2.1112520694732666 7.337545394897461 255 255 255
-227.22671508789062 -17.939353942871094 58.77082443237305 255 255 255
-196.88580322265625 -7.892857074737549 8.284313201904297 255 255 255
-260.20623779296875 -4.202493667602539 -4.314057350158691 255 255 255
-235.7106170654297 -9.354087829589844 25.34449005126953 255 255 255
-245.26434326171875 -15.370857238769531 34.87355041503906 255 255 255
-240.79891967773438 -22.399547576904297 41.53385543823242 255 255 255
-212.05580139160156 -4.814820766448975 24.212862014770508 255 255 255
-227.69805908203125 -2.3254120349884033 48.561439514160156 255 255 255
-212.74685668945312 -4.503756046295166 23.859149932861328 255 255 255
-243.45977783203125 -7.220860481262207 18.169143676757812 255 255 255
-232.7404022216797 -7.554235458374023 20.724180221557617 255 255 255
-261.37432861328125 -5.547190189361572 -11.953750610351562 255 255 255
-235.99093627929688 -7.215242862701416 19.487680435180664 255 255 255
-230.22230529785156 -6.8881916999816895 21.91774559020996 255 255 255
-235.83119201660156 -8.26017951965332 19.34514808654785 255 255 255
-240.0675811767578 -2.8796887397766113 8.177189826965332 255 255 255
-229.8965606689453 -2.4308624267578125 18.686622619628906 255 255 255
-257.083740234375 -9.06575870513916 -3.1649980545043945 255 255 255
-229.225830078125 -2.51377534866333 16.033971786499023 255 255 255
-181.84486389160156 -2.3964638710021973 4.3514723777771 255 255 255
-179.7611083984375 -10.083292961120605 19.174558639526367 255 255 255
-184.9369659423828 -7.901708602905273 22.307926177978516 255 255 255
-183.54006958007812 -8.363557815551758 15.767287254333496 255 255 255
-217.23240661621094 -0.7324777841567993 43.65723419189453 255 255 255
-180.76319885253906 -2.449492931365967 5.031834125518799 255 255 255
-184.34963989257812 -2.287015676498413 2.7846174240112305 255 255 255
-192.3902587890625 -2.596959114074707 6.080852508544922 255 255 255
-185.16976928710938 -7.867888927459717 -0.023197032511234283 255 255 255
-229.38438415527344 -2.124300003051758 19.64700698852539 255 255 255
-229.46815490722656 -2.186617612838745 18.597524642944336 255 255 255
-230.55868530273438 -7.234835147857666 20.24669075012207 255 255 255
-267.7239074707031 -15.817689895629883 -4.125585079193115 255 255 255
-259.0007019042969 -8.14651870727539 -5.185983180999756 255 255 255
-234.92715454101562 -7.67908239364624 18.83783721923828 255 255 255
-241.31578063964844 -2.826234817504883 7.254177093505859 255 255 255
-250.71876525878906 -10.761773109436035 -9.816730499267578 255 255 255
-266.0860900878906 -3.6602015495300293 5.109513282775879 255 255 255
-269.1333923339844 -10.433568000793457 3.126208782196045 255 255 255
-271.7301330566406 -9.720796585083008 7.287794589996338 255 255 255
-266.191162109375 -7.395803451538086 -3.4169743061065674 255 255 255
-281.13507080078125 -13.213278770446777 -3.544827699661255 255 255 255
-270.9107360839844 -6.848306179046631 -2.7978551387786865 255 255 255
-241.18515014648438 -8.483549118041992 16.58898162841797 255 255 255
-257.7293701171875 -3.2934694290161133 11.801597595214844 255 255 255
-209.2361602783203 -1.8975952863693237 15.332444190979004 255 255 255
-217.0432586669922 -4.69357442855835 23.30353546142578 255 255 255
-210.4795684814453 -2.007850408554077 16.25648307800293 255 255 255
-242.97401428222656 -1.8061888217926025 35.5694465637207 255 255 255
-267.4679260253906 -4.20017671585083 -2.1385061740875244 255 255 255
-268.58746337890625 -12.50423526763916 -12.313389778137207 255 255 255
-241.92965698242188 -7.582283020019531 15.207329750061035 255 255 255
-253.6240997314453 -9.645105361938477 8.508871078491211 255 255 255
-213.7132110595703 -5.14946985244751 24.207202911376953 255 255 255
-207.6076202392578 -6.697029113769531 24.56882667541504 255 255 255
-230.76148986816406 -3.209705114364624 43.66291046142578 255 255 255
-239.19784545898438 -4.8255839347839355 18.03303337097168 255 255 255
-211.2067108154297 -5.307877540588379 22.140806198120117 255 255 255
-229.79998779296875 -3.5935397148132324 42.76207733154297 255 255 255
-249.03932189941406 -12.73158073425293 26.66077423095703 255 255 255
-192.53085327148438 -3.057305335998535 4.719269752502441 255 255 255
-239.45030212402344 -9.022741317749023 40.26660919189453 255 255 255
-191.25294494628906 -0.2159120738506317 44.55845642089844 255 255 255
-190.34153747558594 -9.329988479614258 35.72601318359375 255 255 255
-216.43597412109375 -12.398918151855469 19.17094612121582 255 255 255
-207.18368530273438 -5.6483683586120605 26.315216064453125 255 255 255
-225.1956787109375 -4.917787551879883 22.190202713012695 255 255 255
-239.1639404296875 -6.929588317871094 16.723047256469727 255 255 255
-271.82562255859375 -8.943973541259766 1.0168101787567139 255 255 255
-266.0386657714844 -8.64509105682373 -0.27992916107177734 255 255 255
-265.4041442871094 -8.86986255645752 -0.024550383910536766 255 255 255
-268.2401428222656 -9.810128211975098 -0.8363317251205444 255 255 255
-270.9144287109375 -5.052635669708252 -2.95316743850708 255 255 255
-268.6761169433594 -9.18765926361084 3.9841456413269043 255 255 255
-247.24888610839844 -13.864856719970703 25.431514739990234 255 255 255
-237.17941284179688 -14.77878475189209 28.775480270385742 255 255 255
-238.651123046875 -12.866504669189453 28.2015323638916 255 255 255
-208.6569061279297 -1.6195515394210815 20.493532180786133 255 255 255
-225.44740295410156 -2.408602237701416 23.568449020385742 255 255 255
-243.03533935546875 -7.1303534507751465 15.453557014465332 255 255 255
-241.87510681152344 -7.297351360321045 17.910858154296875 255 255 255
-240.0497283935547 -2.624727725982666 12.320236206054688 255 255 255
-272.8658752441406 -14.006880760192871 0.15131938457489014 255 255 255
-242.5379180908203 -7.777194499969482 17.570858001708984 255 255 255
-242.3971710205078 -9.915009498596191 0.7790221571922302 255 255 255
-239.84629821777344 -7.397546291351318 15.970865249633789 255 255 255
-264.4186096191406 -8.4883451461792 -1.3773540258407593 255 255 255
-271.48419189453125 -16.633024215698242 -14.235967636108398 255 255 255
-225.95741271972656 -2.759225368499756 24.458293914794922 255 255 255
-226.3413848876953 -5.762697219848633 25.43649673461914 255 255 255
-225.63433837890625 -6.220731258392334 23.833606719970703 255 255 255
-267.6614685058594 -13.719429969787598 -0.778116762638092 255 255 255
-218.2719268798828 -5.4530229568481445 24.247554779052734 255 255 255
-246.6652374267578 -3.3801345825195312 0.8294553756713867 255 255 255
-228.202392578125 -4.638769626617432 26.524694442749023 255 255 255
-233.90989685058594 -4.057297706604004 32.6175537109375 255 255 255
-219.43572998046875 -1.9108680486679077 18.602243423461914 255 255 255
-213.15200805664062 -1.8522427082061768 16.426868438720703 255 255 255
-217.62843322753906 -1.9870413541793823 16.286087036132812 255 255 255
-238.1978302001953 -5.836567401885986 21.41631317138672 255 255 255
-271.4778747558594 -16.231002807617188 1.1757190227508545 255 255 255
-239.84619140625 -14.294885635375977 28.254837036132812 255 255 255
-224.19410705566406 -5.127284049987793 24.50200843811035 255 255 255
-226.58201599121094 -7.791879653930664 22.234249114990234 255 255 255
-276.25482177734375 -16.92271614074707 3.418766975402832 255 255 255
-248.6196746826172 -3.769284248352051 -3.302394390106201 255 255 255
-262.0102233886719 -9.404431343078613 -9.251850128173828 255 255 255
-252.54148864746094 -6.970534324645996 16.837284088134766 255 255 255
-240.9354705810547 -4.794551849365234 26.699430465698242 255 255 255
-226.42010498046875 -2.0052363872528076 21.773231506347656 255 255 255
-192.63999938964844 -2.183882236480713 7.000523090362549 255 255 255
-236.5484619140625 -10.95548152923584 35.603431701660156 255 255 255
-239.90142822265625 -18.90625762939453 38.05885696411133 255 255 255
-241.01324462890625 -2.872845411300659 7.402353286743164 255 255 255
-228.77467346191406 -13.266190528869629 48.00436782836914 255 255 255
-206.5389862060547 -5.648077964782715 22.010478973388672 255 255 255
-216.63442993164062 -2.795762777328491 12.242465019226074 255 255 255
-240.64891052246094 -13.587390899658203 28.890562057495117 255 255 255
-191.5410614013672 -2.732027769088745 3.6019790172576904 255 255 255
-200.388427734375 -9.611058235168457 7.3044962882995605 255 255 255
-184.50106811523438 -11.011225700378418 23.428524017333984 255 255 255
-270.8646545410156 -16.245407104492188 -6.226917266845703 255 255 255
-241.501953125 -8.030322074890137 17.067230224609375 255 255 255
-241.35983276367188 -2.8752667903900146 16.75562858581543 255 255 255
-261.8518981933594 -10.736289978027344 -27.11034393310547 255 255 255
-260.4737854003906 -7.068681716918945 -2.9957385063171387 255 255 255
-249.61097717285156 -3.2352404594421387 5.499513149261475 255 255 255
-249.1810302734375 -3.7581188678741455 -5.49375057220459 255 255 255
-273.8224182128906 -17.474199295043945 -12.472879409790039 255 255 255
-251.71694946289062 -7.737176418304443 14.376140594482422 255 255 255
-265.33087158203125 -7.186503887176514 -2.698260545730591 255 255 255
-197.8785858154297 -6.35128116607666 33.73122787475586 255 255 255
-186.4239959716797 -9.073840141296387 24.492042541503906 255 255 255
-216.44615173339844 -1.9078683853149414 23.693363189697266 255 255 255
-217.9754638671875 -1.6938523054122925 24.46170997619629 255 255 255
-239.128662109375 -13.801409721374512 26.89851188659668 255 255 255
-230.93341064453125 -6.085791110992432 21.97873306274414 255 255 255
-240.575439453125 -2.6493637561798096 11.924360275268555 255 255 255
-242.47903442382812 -9.50932502746582 -0.36063337326049805 255 255 255
-242.7256317138672 -6.9774980545043945 18.749942779541016 255 255 255
-249.54666137695312 -11.902307510375977 -10.269235610961914 255 255 255
-219.0576171875 -5.84741735458374 23.95756721496582 255 255 255
-235.11767578125 -4.150115489959717 30.206764221191406 255 255 255
-252.7543182373047 -12.869285583496094 21.022855758666992 255 255 255
-202.97764587402344 -9.095948219299316 7.252227306365967 255 255 255
-253.87826538085938 -15.709053039550781 23.21145248413086 255 255 255
-252.86679077148438 -15.361014366149902 22.988584518432617 255 255 255
-213.0137176513672 -1.940086841583252 24.500179290771484 255 255 255
-213.89764404296875 -5.294536113739014 23.414287567138672 255 255 255
-243.63735961914062 -2.91325044631958 15.048335075378418 255 255 255
-241.89645385742188 -2.8392443656921387 16.700885772705078 255 255 255
-269.8224792480469 -5.083621025085449 2.1289994716644287 255 255 255
-193.3673858642578 -1.4956778287887573 24.445178985595703 255 255 255
-209.1526641845703 -6.944018840789795 23.369041442871094 255 255 255
-236.11166381835938 -17.891624450683594 44.630653381347656 255 255 255
-239.91578674316406 -2.906484842300415 8.436654090881348 255 255 255
-240.6278076171875 -7.165833473205566 18.064918518066406 255 255 255
-260.42236328125 -8.734770774841309 -2.4060397148132324 255 255 255
-240.3750457763672 -7.4568915367126465 16.49711799621582 255 255 255
-247.64056396484375 -3.3543334007263184 2.610095500946045 255 255 255
-269.7800598144531 -14.4646635055542 -13.382741928100586 255 255 255
-271.203369140625 -7.397320747375488 -17.62568473815918 255 255 255
-269.65875244140625 -14.230412483215332 1.6265780925750732 255 255 255
-225.61727905273438 -4.338525295257568 23.838001251220703 255 255 255
-233.62486267089844 -2.2660446166992188 15.987203598022461 255 255 255
-230.08551025390625 -6.792158603668213 22.994060516357422 255 255 255
-269.31512451171875 -15.70640754699707 -19.413341522216797 255 255 255
-268.0049133300781 -10.509367942810059 3.847501277923584 255 255 255
-264.1232604980469 -8.365327835083008 -0.8274877667427063 255 255 255
-234.6967010498047 -2.5572543144226074 11.438703536987305 255 255 255
-238.8138885498047 -2.655125617980957 17.839202880859375 255 255 255
-237.25035095214844 -7.325985908508301 18.565744400024414 255 255 255
-246.64317321777344 -3.4230003356933594 13.302281379699707 255 255 255
-235.38905334472656 -2.58682918548584 11.128312110900879 255 255 255
-240.93487548828125 -6.945442199707031 18.498607635498047 255 255 255
-267.9703369140625 -3.1488113403320312 13.086065292358398 255 255 255
-236.1968536376953 -21.62360382080078 41.60151672363281 255 255 255
-185.93014526367188 -8.891499519348145 26.912548065185547 255 255 255
-188.05201721191406 -10.714877128601074 28.41360092163086 255 255 255
-181.4998321533203 -12.716187477111816 22.180356979370117 255 255 255
