-314.2940673828125 29.263568878173828 72.50228881835938 74 205 254
-313.5523986816406 29.010089874267578 70.67323303222656 74 205 254
-312.59124755859375 28.734100341796875 69.09254455566406 74 205 254
-314.62158203125 29.112842559814453 71.13636016845703 75 204 254
-315.2030029296875 28.691986083984375 72.27779388427734 75 204 254
-310.6621398925781 28.497610092163086 69.45819854736328 75 205 254
-311.6668701171875 28.601341247558594 68.97022247314453 74 204 254
-316.92242431640625 30.075469970703125 75.05619812011719 75 205 254
-309.0899658203125 28.250734329223633 68.30915069580078 75 205 254
-314.55291748046875 29.27593421936035 72.22449493408203 75 205 254
-312.34967041015625 28.709335327148438 69.19829559326172 75 205 254
-316.6933288574219 29.541215896606445 71.90492248535156 74 205 254
-312.880126953125 28.477561950683594 66.75421905517578 75 205 254
-312.1448974609375 28.387142181396484 67.45063781738281 75 204 254
-311.45806884765625 28.295852661132812 67.55521392822266 75 204 254
-312.0624084472656 28.325220108032227 66.76859283447266 74 204 254
-309.868408203125 28.497337341308594 70.2964096069336 75 205 254
-311.3572082519531 28.74555778503418 70.73106384277344 75 204 254
-311.8451843261719 28.763582229614258 70.32183074951172 75 205 254
-314.8727722167969 29.11411476135254 70.78980255126953 75 204 254
-314.2415771484375 29.04227638244629 70.79769134521484 75 204 254
-310.75164794921875 28.35359764099121 67.51800537109375 74 205 254
-308.40301513671875 28.58599090576172 72.24205017089844 75 205 254
-312.9560852050781 28.84296226501465 69.76789855957031 75 205 254
-311.29681396484375 28.388629913330078 68.1569595336914 75 205 254
-311.1405029296875 28.398807525634766 68.44430541992188 74 205 254
-313.1966552734375 29.07050895690918 71.85092163085938 75 204 254
-312.5718078613281 28.842866897583008 70.20127868652344 75 204 254
-311.8677062988281 29.095476150512695 72.35449981689453 75 205 254
-309.2099304199219 28.41016960144043 70.42229461669922 75 204 254
-313.4819030761719 28.74411964416504 68.4861068725586 75 204 254
-310.5359802246094 28.434185028076172 68.78807067871094 75 204 254
-313.8923034667969 29.120649337768555 71.39827728271484 75 205 254
-311.0458679199219 28.37853240966797 66.73664093017578 74 204 254
-310.9694519042969 28.344507217407227 66.43631744384766 75 205 254
-312.0370178222656 28.688846588134766 69.20852661132812 75 204 254
-315.9754333496094 28.622034072875977 66.52755737304688 74 205 254
-314.65667724609375 28.347244262695312 65.48734283447266 74 205 254
-319.1641540527344 29.54690933227539 71.59324645996094 75 205 254
-315.1679382324219 28.457914352416992 65.83301544189453 75 205 254
-312.9535217285156 28.366477966308594 64.10752868652344 74 205 254
-314.8747863769531 28.644424438476562 67.8604736328125 75 204 254
-315.46038818359375 28.644332885742188 67.17430877685547 75 204 254
-317.3962707519531 29.04782485961914 69.15357971191406 75 205 254
-313.4847412109375 28.377933502197266 65.66670227050781 74 205 254
-315.1398010253906 28.6424560546875 67.57543182373047 75 204 254
-313.2878723144531 28.44034194946289 65.28160095214844 75 205 254
-313.783935546875 28.418142318725586 66.96086883544922 74 204 254
-314.5390930175781 28.347888946533203 65.66159057617188 74 205 254
-319.8254699707031 29.480758666992188 71.4847183227539 75 204 254
-316.6319580078125 28.871843338012695 68.08723449707031 75 204 254
-316.3516845703125 28.710838317871094 66.81729125976562 75 205 254
-317.6498107910156 29.02452278137207 68.85879516601562 75 205 254
-313.8923034667969 29.120649337768555 71.39827728271484 75 205 254
-316.2183837890625 28.80887794494629 67.75469970703125 75 204 254
-315.72955322265625 28.6476993560791 66.87980651855469 75 205 254
-315.6441345214844 28.814250946044922 68.48404693603516 75 204 254
-316.8029479980469 28.931188583374023 68.31761932373047 75 205 254
-313.1999816894531 28.37192726135254 64.34257507324219 75 204 254
-316.7603759765625 28.819108963012695 67.18933868408203 75 205 254
-316.7361755371094 28.794464111328125 67.10399627685547 75 205 254
-314.98614501953125 28.588838577270508 67.4799575805664 75 204 254
-314.1355285644531 28.50246238708496 67.2022933959961 75 204 254
-317.2341613769531 28.92685317993164 67.9299545288086 74 205 254
-312.826171875 28.39158058166504 64.27818298339844 75 205 254
-314.667236328125 28.489368438720703 66.53981018066406 75 204 254
-316.7057189941406 28.9616756439209 68.91592407226562 74 205 254
-316.21917724609375 28.87269401550293 68.40162658691406 74 204 254
-317.39666748046875 28.91853904724121 67.71070861816406 75 205 254
-316.0132751464844 28.89109230041504 68.7782211303711 75 204 254
-314.3678894042969 28.301267623901367 65.42398071289062 75 205 254
-315.27288818359375 28.733983993530273 68.17900848388672 75 204 254
-314.8213806152344 28.399656295776367 65.63465118408203 74 205 254
-313.92584228515625 28.344160079956055 65.1919937133789 75 204 254
-317.10223388671875 28.842784881591797 67.3945083618164 75 205 254
-316.4717102050781 28.887557983398438 68.41236877441406 75 205 254
-314.3570251464844 28.493581771850586 66.93582916259766 75 205 254
-313.59320068359375 28.33938217163086 64.63566589355469 75 204 254
-315.57470703125 28.571552276611328 66.19768524169922 75 205 254
-313.57427978515625 28.385366439819336 66.32654571533203 75 204 254
-314.5863952636719 28.396257400512695 65.88213348388672 75 204 254
-319.47503662109375 29.65791130065918 71.63628387451172 75 205 254
-314.01080322265625 28.40914535522461 66.68087005615234 75 204 254
-316.0484619140625 28.71818733215332 67.12779998779297 74 205 254
-313.2884216308594 28.330163955688477 66.51148223876953 75 205 254
-315.493896484375 28.529308319091797 66.08206176757812 75 205 254
-316.43231201171875 28.859437942504883 68.00863647460938 75 205 254
-316.4083557128906 28.974042892456055 69.23155975341797 75 205 254
-317.9930419921875 28.995559692382812 68.49413299560547 75 205 254
-316.25164794921875 28.707494735717773 66.80404663085938 75 205 254
-314.293212890625 28.40281105041504 66.24917602539062 75 204 254
-316.89453125 28.848228454589844 67.65265655517578 75 204 254
-315.8283996582031 28.72242546081543 67.4564208984375 75 204 254
-318.0741271972656 28.971210479736328 68.14097595214844 74 205 254
-316.9184875488281 28.935047149658203 68.33354187011719 74 205 254
-316.216552734375 28.711130142211914 66.9987564086914 74 205 254
-313.35345458984375 28.390697479248047 64.80780029296875 75 205 254
-313.305419921875 28.329421997070312 66.1044692993164 74 205 254
-315.8082275390625 28.621910095214844 66.7103271484375 74 204 254
-317.8168640136719 28.971689224243164 68.43516540527344 75 205 254
-317.5223083496094 28.99696922302246 68.7318115234375 74 204 254
-313.21392822265625 28.318584442138672 66.38414001464844 75 205 254
-313.9114990234375 28.375526428222656 65.9479751586914 75 204 254
-315.8125 28.61978530883789 66.29776763916016 75 205 254
-314.7173767089844 28.580408096313477 67.26145935058594 75 205 254
-313.9481201171875 28.303939819335938 64.93978118896484 74 205 254
-316.4998474121094 28.98004913330078 69.33777618408203 74 205 254
-315.3613586425781 28.578258514404297 66.43159484863281 75 204 254
-313.5247497558594 28.754314422607422 68.63570404052734 75 205 254
-315.5866394042969 29.064697265625 71.72046661376953 75 205 254
-311.7087097167969 28.4908447265625 68.44259643554688 75 205 254
-311.1405029296875 28.398807525634766 68.44430541992188 74 205 254
-313.84930419921875 29.0891170501709 71.12662506103516 75 205 254
-315.44488525390625 28.770727157592773 72.22443389892578 75 204 254
-315.7356262207031 28.727153778076172 71.85828399658203 75 204 254
-316.800048828125 29.02657127380371 69.41216278076172 75 205 254
-311.6428527832031 28.342527389526367 67.07504272460938 75 205 254
-310.9564208984375 28.510351181030273 69.03306579589844 75 204 254
-311.45263671875 28.262279510498047 66.9195556640625 75 205 254
-315.47235107421875 28.547916412353516 66.3604507446289 75 205 254
-314.6780090332031 28.98041534423828 69.38692474365234 75 204 254
-314.9768981933594 28.480384826660156 66.14363098144531 75 204 254
-313.08172607421875 28.65703582763672 68.22740936279297 75 204 254
-310.84307861328125 28.595264434814453 70.04852294921875 75 204 254
-318.2881774902344 28.971607208251953 68.33226013183594 74 205 254
-314.4956970214844 28.88765525817871 68.80071258544922 74 205 254
-313.4532775878906 28.91853141784668 69.7536849975586 74 205 254
-314.3983154296875 28.289539337158203 65.26714324951172 74 205 254
-315.51922607421875 28.72568702697754 67.85140228271484 75 205 254
-312.6781921386719 28.419078826904297 66.76118469238281 74 205 254
-314.419677734375 28.79981803894043 68.504638671875 75 204 254
-315.86767578125 29.15492820739746 70.29653930664062 75 204 254
-314.89251708984375 28.95509147644043 69.52559661865234 75 204 254
-315.9356994628906 29.082988739013672 69.68183898925781 75 204 254
-311.465576171875 28.673982620239258 70.02847290039062 75 204 254
-309.797607421875 28.399606704711914 69.25846862792969 74 205 254
-316.8013610839844 29.184585571289062 69.92671203613281 75 205 254
-315.94036865234375 28.767078399658203 71.51018524169922 75 205 254
-310.2399597167969 28.41810417175293 69.18366241455078 75 204 254
-311.3637390136719 28.600744247436523 69.31836700439453 75 204 254
-316.47467041015625 28.8103084564209 67.45463562011719 74 204 254
-315.01885986328125 28.569643020629883 66.81816101074219 75 204 254
-313.67633056640625 28.740238189697266 68.2144775390625 75 205 254
-315.2949523925781 29.0467586517334 69.39505767822266 75 205 254
-314.2772521972656 28.894062042236328 69.09246826171875 75 204 254
-313.3647155761719 28.765640258789062 68.77432250976562 75 205 254
-313.0854797363281 28.344135284423828 64.51024627685547 75 204 254
-319.69384765625 30.40494155883789 72.8851089477539 75 204 254
-315.7435302734375 29.29837417602539 71.01143646240234 75 205 254
-311.8769836425781 28.613054275512695 68.63190460205078 75 205 254
-315.90692138671875 28.8117733001709 68.15814971923828 75 205 254
-316.5325012207031 28.948057174682617 68.82744598388672 74 205 254
-315.18865966796875 28.471088409423828 65.88078308105469 75 205 254
-314.1086120605469 28.795387268066406 68.9225082397461 75 204 254
-313.34893798828125 28.99891471862793 70.7685317993164 75 204 254
-314.08026123046875 28.96275520324707 70.21611785888672 75 204 254
-313.60589599609375 28.797924041748047 69.59842681884766 75 204 254
-314.2108459472656 28.857830047607422 69.6286392211914 75 205 254
-318.5857849121094 28.828046798706055 68.53693389892578 75 204 254
-314.5112609863281 28.86366844177246 69.23002624511719 75 204 254
-315.8067321777344 29.054475784301758 71.43350219726562 74 205 254
-316.5951843261719 28.842546463012695 67.69184875488281 75 205 254
-315.5063171386719 29.247838973999023 71.21358489990234 74 204 254
-311.9164123535156 28.393836975097656 67.31349182128906 75 204 254
-309.755126953125 28.366575241088867 68.53031158447266 75 205 254
-316.9935302734375 29.067724227905273 69.58016204833984 75 205 254
-313.5686340332031 29.142833709716797 72.13195037841797 75 205 254
-311.9544372558594 28.566762924194336 69.05742645263672 74 205 254
-314.307861328125 28.350717544555664 66.0269546508789 75 205 254
-314.19097900390625 29.2803955078125 72.61961364746094 74 205 254
-316.83990478515625 29.31223487854004 70.49826049804688 75 205 254
-312.0231018066406 28.834110260009766 70.97251892089844 75 204 254
-312.42822265625 28.92777442932129 71.22604370117188 75 204 254
-319.0411071777344 29.44280433654785 71.6734619140625 75 204 254
-313.6939392089844 29.066160202026367 70.99754333496094 74 204 254
-311.0458679199219 28.37853240966797 66.73664093017578 74 204 254
-314.4793701171875 28.577781677246094 67.4463119506836 75 205 254
-316.58673095703125 28.793155670166016 67.28170776367188 74 205 254
-313.50921630859375 29.051006317138672 71.11920166015625 75 205 254
-314.2940673828125 29.263568878173828 72.50228881835938 74 205 254
-313.5523986816406 29.010089874267578 70.67323303222656 74 205 254
-312.59124755859375 28.734100341796875 69.09254455566406 74 205 254
-314.62158203125 29.112842559814453 71.13636016845703 75 204 254
-315.2030029296875 28.691986083984375 72.27779388427734 75 204 254
-310.6621398925781 28.497610092163086 69.45819854736328 75 205 254
-312.880126953125 28.477561950683594 66.75421905517578 75 205 254
-311.6668701171875 28.601341247558594 68.97022247314453 74 204 254
-316.92242431640625 30.075469970703125 75.05619812011719 75 205 254
-309.0899658203125 28.250734329223633 68.30915069580078 75 205 254
-314.55291748046875 29.27593421936035 72.22449493408203 75 205 254
-312.34967041015625 28.709335327148438 69.19829559326172 75 205 254
-316.6933288574219 29.541215896606445 71.90492248535156 74 205 254
-312.1448974609375 28.387142181396484 67.45063781738281 75 204 254
-316.8502502441406 29.06734848022461 69.53457641601562 75 205 254
-311.45806884765625 28.295852661132812 67.55521392822266 75 204 254
-317.1850891113281 29.03466033935547 69.15888977050781 74 205 254
-312.0624084472656 28.325220108032227 66.76859283447266 74 204 254
-309.868408203125 28.497337341308594 70.2964096069336 75 205 254
-311.3572082519531 28.74555778503418 70.73106384277344 75 204 254
-311.8451843261719 28.763582229614258 70.32183074951172 75 205 254
-314.8727722167969 29.11411476135254 70.78980255126953 75 204 254
-314.2415771484375 29.04227638244629 70.79769134521484 75 204 254
-314.1947326660156 28.327247619628906 65.49627685546875 75 204 254
-310.75164794921875 28.35359764099121 67.51800537109375 74 205 254
-308.40301513671875 28.58599090576172 72.24205017089844 75 205 254
-312.9560852050781 28.84296226501465 69.76789855957031 75 205 254
-311.29681396484375 28.388629913330078 68.1569595336914 75 205 254
-313.1966552734375 29.07050895690918 71.85092163085938 75 204 254
-312.5718078613281 28.842866897583008 70.20127868652344 75 204 254
-311.8677062988281 29.095476150512695 72.35449981689453 75 205 254
-309.2099304199219 28.41016960144043 70.42229461669922 75 204 254
-313.4819030761719 28.74411964416504 68.4861068725586 75 204 254
-310.5359802246094 28.434185028076172 68.78807067871094 75 204 254
-314.6415100097656 28.79288101196289 68.2135009765625 74 205 254
-310.9694519042969 28.344507217407227 66.43631744384766 75 205 254
-312.0370178222656 28.688846588134766 69.20852661132812 75 204 254
-316.7353210449219 28.69463348388672 66.39124298095703 74 205 254
-313.35791015625 28.385404586791992 63.653419494628906 75 205 254
-317.3155822753906 28.911975860595703 67.71326446533203 75 205 254
-315.3463134765625 28.387676239013672 65.01984405517578 74 205 254
-316.0971984863281 28.557323455810547 65.58683013916016 75 205 254
-315.50225830078125 28.574480056762695 66.86615753173828 75 204 254
-314.8150939941406 28.391300201416016 65.63172149658203 75 204 254
-318.5877380371094 28.949440002441406 67.54301452636719 74 205 254
-316.4201354980469 28.794677734375 67.54918670654297 75 205 254
-317.00750732421875 28.960376739501953 68.73194885253906 74 205 254
-313.8088684082031 28.320541381835938 65.88892364501953 75 205 254
-314.8936767578125 28.290498733520508 64.80680847167969 75 205 254
-317.74871826171875 28.907133102416992 67.32775115966797 74 205 254
-315.78582763671875 28.718236923217773 67.5667953491211 75 204 254
-314.476318359375 28.29461097717285 64.32051086425781 74 205 254
-316.1557312011719 28.797365188598633 67.87377166748047 75 204 254
-316.4963684082031 28.60657501220703 65.91875457763672 74 205 254
-314.30230712890625 28.40695571899414 66.34088134765625 74 204 254
-317.1042785644531 28.77554702758789 66.67613220214844 74 205 254
-316.9837951660156 28.868959426879883 67.80631256103516 75 205 254
-314.87567138671875 28.48118019104004 66.31879425048828 75 205 254
-315.6920166015625 28.44496726989746 65.22000122070312 75 205 254
-315.9939880371094 28.533729553222656 65.7490463256836 75 205 254
-317.2154541015625 28.942018508911133 68.31111145019531 74 205 254
-313.8825378417969 28.382801055908203 64.18566131591797 75 205 254
-314.5305480957031 28.39777374267578 66.06201171875 75 204 254
-317.9123229980469 28.898706436157227 67.10931396484375 75 205 254
-317.9049987792969 29.026412963867188 68.55230712890625 75 205 254
-316.99139404296875 28.792753219604492 66.84851837158203 74 204 254
-315.1878662109375 28.476730346679688 65.92432403564453 75 204 254
-319.6617431640625 29.518997192382812 71.00132751464844 75 205 254
-316.91656494140625 28.954683303833008 68.6252670288086 75 205 254
-317.35711669921875 29.046701431274414 68.93058776855469 75 205 254
-317.11077880859375 28.82447052001953 67.08636474609375 75 205 254
-315.4994812011719 28.467510223388672 65.5296859741211 75 204 254
-313.8146667480469 28.43206787109375 64.65918731689453 75 205 254
-319.97265625 29.629276275634766 71.04603576660156 75 205 254
-315.1100769042969 28.38451385498047 65.26614379882812 75 204 254
-318.0330505371094 28.975746154785156 68.13111877441406 74 204 254
-316.5666198730469 28.701913833618164 66.51946258544922 74 205 254
-316.7336120605469 28.791549682617188 67.14730072021484 75 204 254
-317.6937561035156 29.01369857788086 68.55654907226562 74 205 254
-317.41033935546875 28.829547882080078 67.04867553710938 75 204 254
-316.7713928222656 28.69113540649414 66.19671630859375 75 205 254
-316.3282775878906 28.606613159179688 66.10067749023438 74 204 254
-316.3449401855469 28.706268310546875 66.84697723388672 75 204 254
-313.4860534667969 28.36021614074707 63.483375549316406 74 205 254
-310.9694519042969 28.344507217407227 66.43631744384766 75 205 254
-316.8713684082031 28.69424819946289 66.21045684814453 75 205 254
-314.4348449707031 28.36517333984375 65.3285903930664 75 204 254
-315.2345886230469 28.566871643066406 66.64631652832031 75 205 254
-313.827880859375 28.320209503173828 65.48200988769531 74 205 254
-315.9781494140625 28.62928009033203 66.56295013427734 75 204 254
-318.8008117675781 28.94916343688965 67.73536682128906 74 205 254
-314.123046875 28.33115577697754 64.0146713256836 75 204 254
-315.53826904296875 28.555936813354492 66.20452117919922 75 204 254
-317.2784423828125 28.801225662231445 66.58466339111328 75 205 254
-316.7312927246094 28.85465431213379 67.79429626464844 74 204 254
-316.248779296875 28.632389068603516 66.26979064941406 75 205 254
-316.5235595703125 28.87308692932129 68.16986846923828 75 204 254
-315.8826904296875 28.56423568725586 65.8196792602539 75 204 254
-315.1822509765625 28.335783004760742 64.87165832519531 74 205 254
-317.61932373046875 28.823936462402344 66.79156494140625 75 205 254
-317.30743408203125 29.006168365478516 68.80789184570312 75 205 254
-318.15997314453125 29.002883911132812 68.2587661743164 75 205 254
-320.3234558105469 29.4515323638916 70.89602661132812 75 204 254
-316.0168762207031 28.515380859375 65.47075653076172 75 205 254
-314.09576416015625 28.375329971313477 65.70548248291016 75 204 254
-316.94635009765625 28.841367721557617 67.40235137939453 75 205 254
-315.3891296386719 28.62989044189453 67.24617767333984 75 204 254
-318.50494384765625 28.97357749938965 67.89579010009766 75 205 254
-313.6159362792969 28.33714485168457 63.88671875 75 204 254
-314.8307189941406 28.339418411254883 65.4095230102539 75 205 254
-313.7313537597656 28.364871978759766 63.71965408325195 75 204 254
-317.50018310546875 29.046716690063477 68.97689819335938 75 205 254
-314.4529113769531 28.334604263305664 64.57266235351562 75 204 254
-315.65557861328125 28.62765884399414 66.96245574951172 75 204 254
-313.7349853515625 28.309263229370117 65.76119995117188 75 205 254
-317.04266357421875 28.92887306213379 68.22175598144531 74 205 254
-315.18865966796875 28.471088409423828 65.88078308105469 75 205 254
-314.92486572265625 28.27887725830078 64.65010070800781 74 205 254
-317.43109130859375 28.91556739807129 67.72976684570312 74 205 254
-317.1456298828125 28.853254318237305 67.48196411132812 75 204 254
-314.6528625488281 28.490249633789062 66.58415985107422 75 204 254
-317.2546081542969 28.7767276763916 66.49917602539062 75 205 254
-314.4956970214844 28.88765525817871 68.80071258544922 74 205 254
-313.4532775878906 28.91853141784668 69.7536849975586 74 205 254
-314.3983154296875 28.289539337158203 65.26714324951172 74 205 254
-315.51922607421875 28.72568702697754 67.85140228271484 75 205 254
-312.6781921386719 28.419078826904297 66.76118469238281 74 205 254
-314.419677734375 28.79981803894043 68.504638671875 75 204 254
-311.465576171875 28.673982620239258 70.02847290039062 75 204 254
-314.89251708984375 28.95509147644043 69.52559661865234 75 204 254
-315.9356994628906 29.082988739013672 69.68183898925781 75 204 254
-315.86767578125 29.15492820739746 70.29653930664062 75 204 254
-316.47467041015625 28.8103084564209 67.45463562011719 74 204 254
-316.8013610839844 29.184585571289062 69.92671203613281 75 205 254
-315.94036865234375 28.767078399658203 71.51018524169922 75 205 254
-310.2399597167969 28.41810417175293 69.18366241455078 75 204 254
-311.3637390136719 28.600744247436523 69.31836700439453 75 204 254
-309.797607421875 28.399606704711914 69.25846862792969 74 205 254
-315.01885986328125 28.569643020629883 66.81816101074219 75 204 254
-313.67633056640625 28.740238189697266 68.2144775390625 75 205 254
-315.2949523925781 29.0467586517334 69.39505767822266 75 205 254
-314.2772521972656 28.894062042236328 69.09246826171875 75 204 254
-313.3647155761719 28.765640258789062 68.77432250976562 75 205 254
-313.0854797363281 28.344135284423828 64.51024627685547 75 204 254
-319.69384765625 30.40494155883789 72.8851089477539 75 204 254
-315.7435302734375 29.29837417602539 71.01143646240234 75 205 254
-311.8769836425781 28.613054275512695 68.63190460205078 75 205 254
-315.90692138671875 28.8117733001709 68.15814971923828 75 205 254
-316.5325012207031 28.948057174682617 68.82744598388672 74 205 254
-314.99566650390625 28.564558029174805 66.82997131347656 75 205 254
-314.0094909667969 28.368812561035156 65.04519653320312 74 205 254
-314.1086120605469 28.795387268066406 68.9225082397461 75 204 254
-313.34893798828125 28.99891471862793 70.7685317993164 75 204 254
-314.08026123046875 28.96275520324707 70.21611785888672 75 204 254
-313.60589599609375 28.797924041748047 69.59842681884766 75 204 254
-314.2108459472656 28.857830047607422 69.6286392211914 75 205 254
-318.5857849121094 28.828046798706055 68.53693389892578 75 204 254
-319.09710693359375 28.80473518371582 67.94136810302734 75 204 254
-314.5112609863281 28.86366844177246 69.23002624511719 75 204 254
-315.8067321777344 29.054475784301758 71.43350219726562 74 205 254
-316.5951843261719 28.842546463012695 67.69184875488281 75 205 254
-318.3289794921875 28.950153350830078 67.83592224121094 75 205 254
-315.5063171386719 29.247838973999023 71.21358489990234 74 204 254
-311.9164123535156 28.393836975097656 67.31349182128906 75 204 254
-314.72021484375 28.316776275634766 64.87826538085938 75 204 254
-309.755126953125 28.366575241088867 68.53031158447266 75 205 254
-316.9935302734375 29.067724227905273 69.58016204833984 75 205 254
-313.5686340332031 29.142833709716797 72.13195037841797 75 205 254
-311.9544372558594 28.566762924194336 69.05742645263672 74 205 254
-314.19097900390625 29.2803955078125 72.61961364746094 74 205 254
-315.7125244140625 28.458044052124023 65.26789093017578 75 205 254
-316.83990478515625 29.31223487854004 70.49826049804688 75 205 254
-312.0231018066406 28.834110260009766 70.97251892089844 75 204 254
-312.42822265625 28.92777442932129 71.22604370117188 75 204 254
-319.0411071777344 29.44280433654785 71.6734619140625 75 204 254
-313.6939392089844 29.066160202026367 70.99754333496094 74 204 254
-314.4793701171875 28.577781677246094 67.4463119506836 75 205 254
-316.58673095703125 28.793155670166016 67.28170776367188 74 205 254
-315.06378173828125 28.336490631103516 65.04531860351562 74 205 254
-313.50921630859375 29.051006317138672 71.11920166015625 75 205 254
-316.0337829589844 28.709766387939453 67.24040985107422 75 205 254
-319.5380554199219 29.415069580078125 71.080810546875 75 204 254
-314.2940673828125 29.263568878173828 72.50228881835938 74 205 254
-316.3345947265625 28.604930877685547 65.68814849853516 75 205 254
-313.5523986816406 29.010089874267578 70.67323303222656 74 205 254
-312.59124755859375 28.734100341796875 69.09254455566406 74 205 254
-314.62158203125 29.112842559814453 71.13636016845703 75 204 254
-315.2030029296875 28.691986083984375 72.27779388427734 75 204 254
-310.6621398925781 28.497610092163086 69.45819854736328 75 205 254
-312.880126953125 28.477561950683594 66.75421905517578 75 205 254
-311.6668701171875 28.601341247558594 68.97022247314453 74 204 254
-316.92242431640625 30.075469970703125 75.05619812011719 75 205 254
-309.0899658203125 28.250734329223633 68.30915069580078 75 205 254
-314.55291748046875 29.27593421936035 72.22449493408203 75 205 254
-312.34967041015625 28.709335327148438 69.19829559326172 75 205 254
-316.6933288574219 29.541215896606445 71.90492248535156 74 205 254
-312.1448974609375 28.387142181396484 67.45063781738281 75 204 254
-316.8502502441406 29.06734848022461 69.53457641601562 75 205 254
-311.45806884765625 28.295852661132812 67.55521392822266 75 204 254
-317.1850891113281 29.03466033935547 69.15888977050781 74 205 254
-312.0624084472656 28.325220108032227 66.76859283447266 74 204 254
-309.868408203125 28.497337341308594 70.2964096069336 75 205 254
-311.3572082519531 28.74555778503418 70.73106384277344 75 204 254
-311.8451843261719 28.763582229614258 70.32183074951172 75 205 254
-314.8727722167969 29.11411476135254 70.78980255126953 75 204 254
-314.2415771484375 29.04227638244629 70.79769134521484 75 204 254
-314.1947326660156 28.327247619628906 65.49627685546875 75 204 254
-310.75164794921875 28.35359764099121 67.51800537109375 74 205 254
-308.40301513671875 28.58599090576172 72.24205017089844 75 205 254
-312.9560852050781 28.84296226501465 69.76789855957031 75 205 254
-311.29681396484375 28.388629913330078 68.1569595336914 75 205 254
-313.1966552734375 29.07050895690918 71.85092163085938 75 204 254
-312.5718078613281 28.842866897583008 70.20127868652344 75 204 254
-311.8677062988281 29.095476150512695 72.35449981689453 75 205 254
-309.2099304199219 28.41016960144043 70.42229461669922 75 204 254
-313.4819030761719 28.74411964416504 68.4861068725586 75 204 254
-310.5359802246094 28.434185028076172 68.78807067871094 75 204 254
-314.6415100097656 28.79288101196289 68.2135009765625 74 205 254
-311.0458679199219 28.37853240966797 66.73664093017578 74 204 254
-312.0370178222656 28.688846588134766 69.20852661132812 75 204 254
-314.307861328125 28.350717544555664 66.0269546508789 75 205 254
-317.8893737792969 28.59255599975586 65.08618927001953 75 205 254
-316.5859680175781 28.4090576171875 65.11900329589844 74 204 254
-315.558837890625 28.393360137939453 65.31595611572266 74 205 254
-318.414794921875 28.85176658630371 68.3205337524414 74 205 254
-318.8066711425781 28.81533432006836 66.3662338256836 74 204 254
-318.5467834472656 28.941545486450195 67.90342712402344 74 205 254
-315.59332275390625 28.125566482543945 63.22222900390625 74 205 254
-315.20147705078125 28.310802459716797 64.58364868164062 74 204 254
-314.4650573730469 28.09158706665039 64.3402099609375 75 204 254
-316.6611633300781 28.252094268798828 63.99562072753906 75 204 254
-316.2123718261719 28.362573623657227 64.85587310791016 75 204 254
-316.4533386230469 28.251615524291992 63.93115234375 75 205 254
-317.0473327636719 28.69009017944336 66.02188110351562 75 205 254
-314.1474914550781 28.01436996459961 63.70540237426758 75 204 254
-316.1479187011719 28.460987091064453 65.9254150390625 75 204 254
-319.39739990234375 28.808568954467773 66.29632568359375 75 205 254
-314.98480224609375 28.433671951293945 62.617950439453125 75 204 254
-318.5198974609375 28.903688430786133 66.71772003173828 75 205 254
-321.76458740234375 29.687665939331055 69.46591186523438 75 204 254
-317.3115234375 28.763538360595703 66.39120483398438 74 205 254
-318.9718322753906 28.786685943603516 65.96749877929688 75 205 254
-316.9695129394531 28.44694709777832 64.75545501708984 75 204 254
-318.1532897949219 28.87189292907715 66.36015319824219 74 204 254
-314.3177795410156 28.040414810180664 63.98011016845703 75 205 254
-316.005859375 28.194957733154297 63.53948974609375 75 205 254
-318.5259704589844 28.76725196838379 66.07673645019531 74 205 254
-314.6772766113281 28.09589195251465 63.51750564575195 74 204 254
-313.1966552734375 29.07050895690918 71.85092163085938 75 204 254
-321.36859130859375 29.56798553466797 69.75906372070312 75 205 254
-316.47747802734375 28.396137237548828 65.71601104736328 75 205 254
-317.02496337890625 28.561176300048828 65.43379974365234 75 204 254
-317.73443603515625 28.83550453186035 67.49906158447266 75 205 254
-317.5367126464844 28.52680015563965 64.78804016113281 75 205 254
-316.22479248046875 28.432281494140625 65.51295471191406 75 205 254
-321.6824035644531 29.34355926513672 69.40377044677734 75 204 254
-317.67071533203125 28.615400314331055 65.37890625 75 204 254
-318.0040283203125 28.683841705322266 65.65916442871094 75 204 254
-319.3247985839844 28.87303352355957 67.1976089477539 75 204 254
-321.158447265625 29.549575805664062 69.97882080078125 75 205 254
-315.1641845703125 28.11085319519043 62.901145935058594 74 205 254
-320.8033447265625 29.464441299438477 70.28433227539062 75 204 254
-318.5023193359375 28.96917724609375 67.81746673583984 75 205 254
-316.145263671875 28.181324005126953 63.90174865722656 75 205 254
-316.624267578125 28.328123092651367 64.7774887084961 75 205 254
-314.3189392089844 28.097557067871094 64.33306121826172 75 205 254
-316.6448059082031 28.541664123535156 65.79316711425781 75 205 254
-314.61370849609375 27.968294143676758 62.903892517089844 74 205 254
-316.5550537109375 28.32732582092285 64.80397033691406 75 205 254
-315.8813781738281 28.40587043762207 65.23709106445312 75 205 254
-319.2851257324219 28.82975196838379 66.64409637451172 75 204 254
-317.30731201171875 28.534772872924805 65.05921936035156 75 204 254
-319.15869140625 28.873485565185547 66.98283386230469 75 205 254
-317.4042053222656 28.697084426879883 65.69418334960938 75 205 254
-319.0135803222656 28.91506004333496 67.7867202758789 74 205 254
-315.8392639160156 28.301734924316406 64.50313568115234 75 204 254
-316.481689453125 28.344350814819336 64.42945098876953 75 204 254
-315.3034362792969 28.198366165161133 63.50892639160156 75 205 254
-315.0235900878906 28.449649810791016 62.75688552856445 75 204 254
-314.2875671386719 27.91140365600586 63.35151672363281 75 204 254
-314.881591796875 28.027427673339844 62.630802154541016 75 205 254
-314.3468322753906 27.870546340942383 62.71860122680664 74 205 254
-317.6326904296875 28.81678009033203 67.25701904296875 74 205 254
-315.36383056640625 28.338315963745117 65.19420623779297 74 205 254
-319.7821350097656 28.744924545288086 66.68608093261719 75 205 254
-316.2024230957031 28.15065574645996 63.622196197509766 74 205 254
-318.30145263671875 28.946308135986328 66.97028350830078 75 205 254
-316.3865966796875 28.188322067260742 63.816619873046875 75 205 254
-318.9040832519531 28.91351318359375 66.99828338623047 75 205 254
-316.4406433105469 28.551538467407227 66.1343002319336 75 204 254
-315.00689697265625 28.196231842041016 63.19022750854492 75 205 254
-315.4393310546875 28.252429962158203 64.20021057128906 75 205 254
-319.1749267578125 28.797636032104492 66.10755157470703 74 205 254
-317.1386413574219 28.435514450073242 64.4680404663086 75 205 254
-319.2203674316406 28.97600555419922 67.28608703613281 75 204 254
-315.7431945800781 28.20553970336914 63.835296630859375 75 204 254
-318.67962646484375 28.726608276367188 65.68653869628906 75 205 254
-318.6019287109375 28.89712142944336 68.07035064697266 75 205 254
-317.7808837890625 28.801050186157227 65.97049713134766 75 204 254
-314.1817932128906 27.843652725219727 63.03466033935547 75 205 254
-314.6024475097656 27.910037994384766 62.319576263427734 75 205 254
-319.02362060546875 28.862791061401367 66.68791198730469 75 205 254
-316.6216125488281 28.314510345458984 64.6623306274414 75 205 254
-318.6133117675781 28.97959327697754 67.37602233886719 75 205 254
-316.739990234375 28.329893112182617 64.13200378417969 74 205 254
-318.2593078613281 28.65768051147461 65.36011505126953 75 205 254
-316.43487548828125 28.381145477294922 65.57575988769531 75 205 254
-314.3996887207031 28.104537963867188 64.4767074584961 75 205 254
-319.0319519042969 28.805068969726562 66.34310913085938 75 205 254
-315.19073486328125 28.281312942504883 63.8738899230957 75 204 254
-316.1623229980469 28.264162063598633 64.1280288696289 75 205 254
-317.95318603515625 28.887134552001953 66.72342681884766 74 205 254
-318.84857177734375 28.952003479003906 67.62928771972656 75 205 254
-319.4338684082031 28.811115264892578 66.96527099609375 74 204 254
-316.5224914550781 28.349119186401367 65.12539672851562 74 205 254
-315.52093505859375 28.31361198425293 64.95997619628906 75 205 254
-321.5627136230469 29.591503143310547 69.62248229980469 75 205 254
-314.99566650390625 28.564558029174805 66.82997131347656 75 205 254
-317.0980529785156 28.7264347076416 66.57628631591797 74 205 254
-315.90692138671875 28.8117733001709 68.15814971923828 75 205 254
-315.7435302734375 29.29837417602539 71.01143646240234 75 205 254
-311.8769836425781 28.613054275512695 68.63190460205078 75 205 254
-316.5325012207031 28.948057174682617 68.82744598388672 74 205 254
-319.09710693359375 28.80473518371582 67.94136810302734 75 204 254
-314.1086120605469 28.795387268066406 68.9225082397461 75 204 254
-314.08026123046875 28.96275520324707 70.21611785888672 75 204 254
-318.3289794921875 28.950153350830078 67.83592224121094 75 205 254
-313.60589599609375 28.797924041748047 69.59842681884766 75 204 254
-313.34893798828125 28.99891471862793 70.7685317993164 75 204 254
-314.2108459472656 28.857830047607422 69.6286392211914 75 205 254
-318.5857849121094 28.828046798706055 68.53693389892578 75 204 254
-314.5112609863281 28.86366844177246 69.23002624511719 75 204 254
-316.5951843261719 28.842546463012695 67.69184875488281 75 205 254
-315.8067321777344 29.054475784301758 71.43350219726562 74 205 254
-316.7978820800781 28.642635345458984 66.42626953125 75 205 254
-315.5063171386719 29.247838973999023 71.21358489990234 74 204 254
-311.9164123535156 28.393836975097656 67.31349182128906 75 204 254
-314.72021484375 28.316776275634766 64.87826538085938 75 204 254
-309.755126953125 28.366575241088867 68.53031158447266 75 205 254
-316.9935302734375 29.067724227905273 69.58016204833984 75 205 254
-313.5686340332031 29.142833709716797 72.13195037841797 75 205 254
-311.9544372558594 28.566762924194336 69.05742645263672 74 205 254
-314.19097900390625 29.2803955078125 72.61961364746094 74 205 254
-315.7125244140625 28.458044052124023 65.26789093017578 75 205 254
-316.83990478515625 29.31223487854004 70.49826049804688 75 205 254
-312.0231018066406 28.834110260009766 70.97251892089844 75 204 254
-312.42822265625 28.92777442932129 71.22604370117188 75 204 254
-319.0411071777344 29.44280433654785 71.6734619140625 75 204 254
-313.6939392089844 29.066160202026367 70.99754333496094 74 204 254
-314.4793701171875 28.577781677246094 67.4463119506836 75 205 254
-316.58673095703125 28.793155670166016 67.28170776367188 74 205 254
-315.06378173828125 28.336490631103516 65.04531860351562 74 205 254
-313.50921630859375 29.051006317138672 71.11920166015625 75 205 254
-319.5380554199219 29.415069580078125 71.080810546875 75 204 254
-315.0439758300781 28.445436477661133 62.94900131225586 75 205 254
-314.2940673828125 29.263568878173828 72.50228881835938 74 205 254
-316.3345947265625 28.604930877685547 65.68814849853516 75 205 254
-313.5523986816406 29.010089874267578 70.67323303222656 74 205 254
-312.59124755859375 28.734100341796875 69.09254455566406 74 205 254
-314.62158203125 29.112842559814453 71.13636016845703 75 204 254
-315.2030029296875 28.691986083984375 72.27779388427734 75 204 254
-310.6621398925781 28.497610092163086 69.45819854736328 75 205 254
-312.880126953125 28.477561950683594 66.75421905517578 75 205 254
-311.6668701171875 28.601341247558594 68.97022247314453 74 204 254
-316.92242431640625 30.075469970703125 75.05619812011719 75 205 254
-309.0899658203125 28.250734329223633 68.30915069580078 75 205 254
-314.55291748046875 29.27593421936035 72.22449493408203 75 205 254
-312.34967041015625 28.709335327148438 69.19829559326172 75 205 254
-316.6933288574219 29.541215896606445 71.90492248535156 74 205 254
-312.1448974609375 28.387142181396484 67.45063781738281 75 204 254
-316.8502502441406 29.06734848022461 69.53457641601562 75 205 254
-311.45806884765625 28.295852661132812 67.55521392822266 75 204 254
-317.1850891113281 29.03466033935547 69.15888977050781 74 205 254
-312.0624084472656 28.325220108032227 66.76859283447266 74 204 254
-309.868408203125 28.497337341308594 70.2964096069336 75 205 254
-311.3572082519531 28.74555778503418 70.73106384277344 75 204 254
-311.8451843261719 28.763582229614258 70.32183074951172 75 205 254
-314.8727722167969 29.11411476135254 70.78980255126953 75 204 254
-314.2415771484375 29.04227638244629 70.79769134521484 75 204 254
-314.1947326660156 28.327247619628906 65.49627685546875 75 204 254
-314.0094909667969 28.368812561035156 65.04519653320312 74 205 254
-310.75164794921875 28.35359764099121 67.51800537109375 74 205 254
-316.0337829589844 28.709766387939453 67.24040985107422 75 205 254
-308.40301513671875 28.58599090576172 72.24205017089844 75 205 254
-312.9560852050781 28.84296226501465 69.76789855957031 75 205 254
-311.29681396484375 28.388629913330078 68.1569595336914 75 205 254
-312.5718078613281 28.842866897583008 70.20127868652344 75 204 254
-311.8677062988281 29.095476150512695 72.35449981689453 75 205 254
-309.2099304199219 28.41016960144043 70.42229461669922 75 204 254
-313.4819030761719 28.74411964416504 68.4861068725586 75 204 254
-310.5359802246094 28.434185028076172 68.78807067871094 75 204 254
-314.6415100097656 28.79288101196289 68.2135009765625 74 205 254
-311.0458679199219 28.37853240966797 66.73664093017578 74 204 254
-312.0370178222656 28.688846588134766 69.20852661132812 75 204 254
-314.307861328125 28.350717544555664 66.0269546508789 75 205 254
-319.4596862792969 28.732879638671875 65.21114349365234 74 205 254
-318.47509765625 28.8346004486084 67.2123794555664 75 205 254
-320.0462951660156 28.762630462646484 66.09446716308594 75 205 254
-318.4571228027344 28.656766891479492 65.49260711669922 74 205 254
-315.6850280761719 27.99635887145996 62.61143112182617 75 205 254
-318.5302429199219 28.69466209411621 65.88690185546875 74 205 254
-319.13580322265625 28.661945343017578 64.94139862060547 74 205 254
-318.6900634765625 28.66534996032715 65.49908447265625 74 204 254
-317.8995361328125 28.609905242919922 65.57777404785156 75 204 254
-316.19952392578125 28.1193790435791 63.65410232543945 74 204 254
-315.7942199707031 28.15561866760254 64.37378692626953 74 205 254
-322.1437683105469 29.614410400390625 69.04890441894531 75 204 254
-317.07684326171875 28.24831199645996 63.288448333740234 75 204 254
-317.4553527832031 28.44974136352539 64.56524658203125 75 204 254
-320.3440856933594 28.73853874206543 65.9238510131836 75 205 254
-319.2586975097656 28.818613052368164 67.50315856933594 75 205 254
-319.3177795410156 28.78098487854004 66.10157775878906 74 204 254
-322.4393310546875 29.73358154296875 68.81620025634766 75 205 254
-321.5154113769531 29.531097412109375 69.08975219726562 75 205 254
-315.5829772949219 27.939102172851562 62.41645050048828 74 205 254
-315.72076416015625 28.10373306274414 63.3255729675293 75 205 254
-314.9508972167969 27.98320198059082 61.5592041015625 75 205 254
-318.9833679199219 28.73503875732422 65.80773162841797 75 204 254
-318.4555358886719 28.80402374267578 67.11312866210938 75 205 254
-318.80364990234375 28.725976943969727 65.7748031616211 74 205 254
-315.9866638183594 28.137943267822266 64.04113006591797 75 204 254
-316.3774719238281 28.403278350830078 65.36588287353516 74 205 254
-315.79779052734375 28.0708065032959 63.726768493652344 75 205 254
-316.254150390625 28.209857940673828 64.21603393554688 75 205 254
-319.160400390625 28.816768646240234 67.20528411865234 74 204 254
-316.48114013671875 28.21926498413086 63.642704010009766 75 205 254
-316.69378662109375 28.1460018157959 62.96711730957031 75 205 254
-317.0455017089844 28.37203025817871 64.25785827636719 75 204 254
-317.3638000488281 28.367218017578125 63.87491989135742 75 204 254
-317.5376281738281 28.36328125 63.657596588134766 74 205 254
-318.69000244140625 28.570751190185547 64.5745849609375 74 205 254
-319.4284362792969 28.78766632080078 66.88488006591797 74 204 254
-315.7121276855469 28.248313903808594 64.79178619384766 75 205 254
-318.9085388183594 28.646841049194336 64.78355407714844 75 205 254
-318.2036437988281 28.599313735961914 65.18722534179688 75 204 254
-317.8397216796875 28.43260383605957 64.28771209716797 75 205 254
-322.3874816894531 29.778003692626953 69.03950500488281 74 205 254
-318.75494384765625 28.83620834350586 68.12055206298828 74 205 254
-315.2024841308594 28.057756423950195 63.39439010620117 75 205 254
-315.53314208984375 28.10648536682129 63.71710205078125 75 204 254
-318.91192626953125 28.650144577026367 65.1607666015625 74 204 254
-319.0246887207031 28.778728485107422 66.42236328125 74 204 254
-316.2017822265625 28.03264617919922 62.974334716796875 74 204 254
-314.8445129394531 27.99835968017578 63.08244323730469 75 204 254
-315.5047912597656 28.027320861816406 63.04071044921875 75 204 254
-315.0205078125 27.961544036865234 61.938533782958984 74 205 254
-317.6866455078125 28.426023483276367 64.18092346191406 74 204 254
-317.5801696777344 28.61746597290039 65.95469665527344 75 205 254
-315.9112854003906 27.955795288085938 62.632118225097656 74 205 254
-318.261474609375 28.68100357055664 65.88902282714844 75 204 254
-317.9705810546875 28.50303077697754 64.75927734375 75 204 254
-318.76654052734375 28.749406814575195 66.20015716552734 74 204 254
-317.9664611816406 28.697412490844727 66.27242279052734 75 205 254
-319.84197998046875 28.77362823486328 65.52368927001953 75 204 254
-316.32000732421875 28.260990142822266 64.37621307373047 75 204 254
-318.9342041015625 28.8784236907959 67.87459564208984 75 205 254
-315.4232177734375 27.95045280456543 62.348472595214844 74 204 254
-316.81689453125 28.456954956054688 65.34519958496094 75 205 254
-317.08074951171875 28.562244415283203 65.90879821777344 74 205 254
-316.991455078125 28.277727127075195 63.56055450439453 75 204 254
-319.7858581542969 28.750946044921875 66.52880859375 74 205 254
-314.6630554199219 27.98826789855957 62.77793502807617 74 205 254
-315.6163635253906 28.200952529907227 64.45103454589844 75 205 254
-318.7838439941406 28.904815673828125 67.4205093383789 74 205 254
-317.28228759765625 28.274900436401367 63.42382049560547 75 205 254
-318.51806640625 28.585594177246094 64.77978515625 74 205 254
-318.56005859375 28.791385650634766 68.330810546875 75 205 254
-316.0557556152344 27.94673728942871 62.45016098022461 75 204 254
-316.40447998046875 28.05183219909668 62.72722625732422 75 204 254
-316.5308532714844 28.12517547607422 63.10637283325195 75 205 254
-316.6042785644531 28.45305633544922 65.54147338867188 75 205 254
-316.6905517578125 28.293020248413086 63.95859909057617 75 204 254
-318.8498840332031 28.634645462036133 64.72062683105469 75 205 254
-322.5310974121094 29.326736450195312 68.71223449707031 75 204 254
-318.5283508300781 28.769079208374023 66.69080352783203 75 205 254
-321.5660705566406 29.517637252807617 69.64521026611328 74 205 254
-315.13165283203125 27.969303131103516 62.76466751098633 75 204 254
-321.7350158691406 29.298049926757812 69.0528335571289 75 205 254
-322.7283020019531 29.297208786010742 68.44500732421875 74 205 254
-317.9519958496094 28.43925666809082 63.98846435546875 75 204 254
-319.3172607421875 28.73926544189453 65.41838073730469 75 204 254
-319.52325439453125 28.781070709228516 65.27243041992188 75 205 254
-317.8287048339844 28.520252227783203 64.8779525756836 75 204 254
-321.8918151855469 29.579967498779297 69.39459991455078 75 205 254
-322.21136474609375 29.39076805114746 69.0649185180664 75 204 254
-317.1869201660156 28.54615592956543 65.6565933227539 75 205 254
-318.66961669921875 28.7924747467041 66.85735321044922 75 204 254
-318.42803955078125 28.59760284423828 65.09750366210938 74 205 254
-316.05059814453125 28.29654312133789 64.67597961425781 75 205 254
-317.51068115234375 28.533554077148438 65.26061248779297 75 204 254
-318.1866455078125 28.51157569885254 64.47895812988281 74 205 254
-315.5647277832031 28.185317993164062 65.31243896484375 75 205 254
-314.92889404296875 28.082143783569336 63.748687744140625 75 204 254
-314.7699890136719 27.97107696533203 62.51483917236328 74 205 254
-316.42034912109375 28.3768367767334 65.00580596923828 75 205 254
-316.4338684082031 28.10497283935547 62.85508346557617 75 205 254
-316.7299499511719 28.37018585205078 64.64854431152344 75 204 254
-317.1411437988281 28.457300186157227 64.96002960205078 75 204 254
-314.8357849121094 28.0009822845459 61.67461013793945 74 205 254
-322.5783996582031 29.862144470214844 68.83837127685547 75 205 254
-319.6231994628906 28.782875061035156 65.73480987548828 74 204 254
-314.65460205078125 28.03939437866211 63.4639778137207 74 205 254
-318.0740966796875 28.490123748779297 64.5494613647461 74 204 254
-316.2806091308594 28.258594512939453 64.74478149414062 74 205 254
-315.7068786621094 27.93159294128418 62.152347564697266 75 205 254
-318.5036315917969 28.57599639892578 64.84198760986328 74 204 254
-318.90142822265625 28.647947311401367 64.833740234375 75 205 254
-315.7259216308594 27.953575134277344 62.20713424682617 75 205 254
-322.7850341796875 29.323074340820312 68.9026107788086 75 204 254
-315.8792724609375 28.18568229675293 64.15450286865234 74 205 254
-316.291748046875 28.28096580505371 64.8673324584961 75 205 254
-315.662353515625 27.96831512451172 62.984737396240234 74 205 254
-318.54095458984375 28.730810165405273 66.14527893066406 74 205 254
-315.92059326171875 28.033306121826172 63.34942626953125 75 204 254
-315.45269775390625 28.203697204589844 64.60971069335938 74 205 254
-318.2965087890625 28.754648208618164 66.56685638427734 75 204 254
-316.83282470703125 28.19538688659668 63.08472442626953 74 205 254
-318.4237365722656 28.541942596435547 64.37242889404297 75 204 254
-316.6806335449219 28.20431137084961 63.300392150878906 74 204 254
-315.9804992675781 28.012805938720703 62.410003662109375 74 204 254
-320.8406677246094 28.792654037475586 65.45826721191406 75 205 254
-322.5510559082031 29.207021713256836 67.845703125 75 204 254
-318.1516418457031 28.432355880737305 64.37294006347656 75 205 254
-323.0415344238281 29.6683349609375 67.21784973144531 74 205 254
-318.63934326171875 28.572803497314453 65.26546478271484 74 204 254
-323.4109802246094 29.189247131347656 67.41441345214844 74 204 254
-317.7040710449219 28.28030776977539 63.35758972167969 75 204 254
-316.45416259765625 28.11802101135254 63.325443267822266 74 205 254
-321.4944763183594 29.119121551513672 68.78604888916016 74 205 254
-320.3236389160156 28.333585739135742 65.76403045654297 75 205 254
-319.1772766113281 28.49043083190918 63.88751220703125 75 204 254
-317.54998779296875 28.089820861816406 61.97397232055664 75 204 254
-322.43182373046875 29.28083610534668 68.0313949584961 74 205 254
-323.04998779296875 29.473621368408203 67.69515228271484 74 204 254
-319.5340270996094 28.76462745666504 66.02957916259766 75 205 254
-317.3835754394531 28.275909423828125 63.74233627319336 75 205 254
-319.09759521484375 28.392963409423828 63.27437210083008 74 204 254
-320.02606201171875 28.766618728637695 65.92516326904297 75 205 254
-323.2185974121094 29.64009666442871 67.31695556640625 75 204 254
-319.9328308105469 28.411399841308594 63.30942916870117 75 204 254
-320.1629638671875 28.75447654724121 65.37794494628906 74 205 254
-317.9731140136719 28.186054229736328 62.30897521972656 75 204 254
