-83.51870727539062 7.250158786773682 68.71778106689453 74 204 254
-85.883056640625 7.468470096588135 69.60275268554688 74 205 254
-86.98343658447266 7.575553894042969 69.25926971435547 75 204 254
-87.31645965576172 7.600386619567871 70.21052551269531 75 204 254
-79.80326080322266 7.3857011795043945 70.59803009033203 74 205 254
-85.65924835205078 7.256148815155029 68.33775329589844 75 205 254
-79.93647003173828 7.550819396972656 71.50447082519531 75 205 254
-86.91163635253906 7.5578460693359375 70.3187255859375 75 205 254
-84.47541809082031 7.111660003662109 67.9153823852539 74 205 254
-85.52642822265625 7.167788028717041 68.1321792602539 75 205 254
-82.7322769165039 7.507429599761963 70.3964614868164 75 205 254
-80.64653015136719 7.1774420738220215 69.3188705444336 74 204 254
-84.23625946044922 7.474238872528076 69.89557647705078 74 205 254
-79.83074951171875 7.592872619628906 71.87875366210938 74 205 254
-87.7674331665039 7.735805511474609 70.97943115234375 75 205 254
-82.99796295166016 7.630277633666992 71.29351043701172 75 205 254
-81.62748718261719 7.26951265335083 69.48110961914062 75 205 254
-84.64891815185547 7.133421897888184 68.06515502929688 74 205 254
-86.24872589111328 7.430478572845459 69.4258041381836 74 205 254
-88.1815414428711 7.790560722351074 70.5019760131836 74 205 254
-81.70936584472656 7.475423812866211 70.50201416015625 75 205 254
-80.79119873046875 7.40545654296875 70.48587799072266 74 204 254
-81.13227081298828 7.315003871917725 69.88983154296875 75 205 254
-83.7834243774414 7.6469244956970215 71.47942352294922 74 204 254
-86.30752563476562 7.618346214294434 71.17756652832031 75 205 254
-82.34365844726562 7.7326178550720215 72.02101135253906 75 205 254
-87.58747100830078 7.377530097961426 68.69576263427734 75 204 254
-84.7054672241211 7.444008827209473 69.7455062866211 74 205 254
-83.01692962646484 7.184762954711914 68.34837341308594 74 204 254
-82.09657287597656 7.0486063957214355 71.47564697265625 75 205 254
-80.74386596679688 7.246144771575928 72.61099243164062 75 205 254
-83.9876937866211 6.880734920501709 70.19762420654297 75 205 254
-80.04147338867188 6.89063835144043 70.94847106933594 75 205 254
-82.74800872802734 6.423166275024414 67.88853454589844 75 204 254
-81.58069610595703 6.269927501678467 67.28512573242188 75 205 254
-79.37593841552734 6.880575656890869 70.974365234375 75 205 254
-86.19223022460938 7.221133232116699 72.00276184082031 75 205 254
-86.87554931640625 6.883386135101318 69.42535400390625 74 205 254
-80.54930114746094 6.987682342529297 71.06498718261719 75 205 254
-80.41341400146484 6.799839973449707 70.1238021850586 74 204 254
-81.04966735839844 6.876127243041992 70.49510955810547 75 205 254
-86.06526947021484 6.605467796325684 68.19808959960938 75 205 254
-86.75028228759766 6.776055812835693 68.9836196899414 74 205 254
-85.19863891601562 6.4551591873168945 67.63604736328125 74 205 254
-83.75052642822266 6.525076389312744 68.25846862792969 74 204 254
-79.9697265625 6.332725524902344 68.36983489990234 74 205 254
-81.66352081298828 7.11637020111084 71.96784210205078 75 205 254
-88.22042083740234 7.401110649108887 72.12689971923828 74 205 254
-79.1904067993164 7.094790935516357 72.3061752319336 75 205 254
-85.69562530517578 6.5747246742248535 68.05567932128906 75 205 254
-85.38511657714844 6.735988616943359 69.0981216430664 74 205 254
-79.9236831665039 6.442203044891357 68.72823333740234 75 205 254
-82.43942260742188 6.787309169769287 69.89668273925781 74 205 254
-87.10167694091797 7.2091064453125 71.36986541748047 75 205 254
-81.49012756347656 6.921586990356445 70.79426574707031 74 205 254
-83.34526062011719 6.625503063201904 68.85668182373047 74 204 254
-84.06830596923828 7.002871036529541 70.89938354492188 74 205 254
-79.7514877319336 7.204126834869385 72.70679473876953 75 205 254
-82.76913452148438 6.519448757171631 68.37910461425781 74 204 254
-85.92556762695312 6.845571517944336 69.56187438964844 75 205 254
-84.71025848388672 6.442225456237793 67.68614196777344 74 204 254
-84.02983856201172 6.96251106262207 70.6751480102539 75 205 254
-87.19715881347656 6.885376930236816 69.51471710205078 75 204 254
-86.35404205322266 6.693263053894043 68.55829620361328 75 205 254
-87.03414916992188 7.052935600280762 69.95280456542969 75 204 254
-87.08611297607422 7.089150905609131 70.38687133789062 74 205 254
-80.44327545166016 6.866873741149902 70.446533203125 74 205 254
-84.75497436523438 6.527081489562988 68.14795684814453 74 204 254
-81.45560455322266 6.784587383270264 69.99390411376953 74 204 254
-77.97384643554688 6.966543197631836 72.9819107055664 75 205 254
-82.95161437988281 6.784658432006836 69.82324981689453 74 205 254
-82.00053405761719 6.869278907775879 70.45252227783203 75 205 254
-83.59193420410156 7.039853096008301 71.26742553710938 75 205 254
-78.25582122802734 7.044383525848389 72.88261413574219 75 205 254
-80.2328109741211 6.922258377075195 70.81980895996094 75 204 254
-84.20423126220703 6.427009105682373 67.73894500732422 74 204 254
-78.81876373291016 6.899113655090332 71.48265838623047 75 205 254
-81.172119140625 7.127001762390137 72.02970886230469 75 205 254
-85.96115112304688 6.92671012878418 70.03862762451172 75 205 254
-85.50358581542969 6.882959842681885 70.03681945800781 75 205 254
-81.40917205810547 6.705890655517578 69.5296630859375 74 205 254
-82.21736907958984 7.214759349822998 72.4244384765625 74 205 254
-86.90299987792969 7.034780502319336 70.29348754882812 74 205 254
-82.55856323242188 6.986209869384766 71.00830841064453 75 205 254
-79.91659545898438 6.6733317375183105 69.67699432373047 74 205 254
-80.2940673828125 6.376436233520508 68.14241790771484 74 204 254
-85.781494140625 6.6698784828186035 68.57487487792969 75 205 254
-83.49312591552734 6.872309684753418 70.28067779541016 74 205 254
-82.52828216552734 6.935313701629639 70.72300720214844 74 205 254
-80.11707305908203 7.064690113067627 71.69662475585938 75 205 254
-79.243896484375 7.183177947998047 72.81416320800781 74 205 254
-86.58824157714844 6.715576171875 68.66412353515625 75 205 254
-84.9281234741211 6.799269676208496 69.6377944946289 74 205 254
-80.28136444091797 6.215241432189941 67.6833724975586 74 205 254
-79.961669921875 6.751772403717041 70.16165161132812 74 204 254
-82.00133514404297 6.925619602203369 70.7717056274414 74 205 254
-81.54679870605469 6.876878261566162 70.51952362060547 75 205 254
-80.72325134277344 6.53320837020874 68.6062240600586 75 204 254
-80.94625854492188 6.807738304138184 70.05811309814453 75 205 254
-81.58718872070312 7.03246545791626 71.46527862548828 75 205 254
-79.06478118896484 6.767403602600098 70.84020233154297 75 205 254
-82.06000518798828 6.976073265075684 71.05201721191406 75 205 254
-85.87020111083984 6.743607997894287 68.995849609375 74 205 254
-81.90693664550781 6.703464031219482 69.47844696044922 74 205 254
-84.52230834960938 6.968751430511475 70.61679077148438 75 205 254
-81.8385238647461 6.612401008605957 68.97616577148438 74 204 254
-80.36699676513672 6.694699287414551 69.63243865966797 74 204 254
-86.3696517944336 6.867422103881836 69.49151611328125 75 205 254
-87.1577377319336 7.344468116760254 72.27729797363281 74 205 254
-84.43738555908203 6.808184623718262 69.7085189819336 74 205 254
-84.27849578857422 6.526930332183838 68.21874237060547 74 204 254
-85.0453109741211 6.978362560272217 70.61431121826172 75 205 254
-83.54470825195312 6.952442169189453 70.74949645996094 75 205 254
-80.11227416992188 6.962979793548584 71.17815399169922 75 205 254
-81.9222183227539 6.778313159942627 69.92572784423828 74 205 254
-81.13162231445312 7.048813343048096 71.54041290283203 75 205 254
-80.6112060546875 7.166773319244385 72.10635375976562 75 205 254
-82.66954040527344 6.284715175628662 67.21363067626953 74 205 254
-83.54754638671875 6.99782133102417 70.99961853027344 75 205 254
-79.10279083251953 7.005080699920654 71.7811279296875 75 205 254
-80.12247467041016 7.155638694763184 72.17989349365234 75 205 254
-85.3256607055664 6.644659519195557 68.58689880371094 74 204 254
-80.09961700439453 6.21010160446167 67.99337005615234 75 205 254
-86.44587707519531 6.7850518226623535 68.97731018066406 75 205 254
-83.44603729248047 6.783266544342041 69.756591796875 74 205 254
-82.51301574707031 6.877010345458984 70.39358520507812 75 205 254
-79.33148956298828 6.694715976715088 71.00779724121094 75 205 254
-80.67015838623047 6.508641719818115 69.36127471923828 74 205 254
-86.5218276977539 7.337258338928223 72.76860046386719 75 205 254
-79.07942199707031 7.166620254516602 73.89117431640625 74 205 254
-83.26701354980469 6.7358222007751465 70.0619888305664 75 205 254
-84.02799987792969 6.284674644470215 67.55323028564453 74 204 254
-80.63951873779297 6.402459621429443 68.86653900146484 74 205 254
-80.28392028808594 6.755129814147949 70.76275634765625 75 205 254
-80.77589416503906 6.717321395874023 70.32588958740234 74 205 254
-80.63389587402344 6.135573387145996 67.70474243164062 75 205 254
-82.28628540039062 6.724588394165039 70.18496704101562 75 205 254
-85.68209838867188 6.751192569732666 69.33502197265625 74 205 254
-81.55934143066406 6.342158317565918 68.24756622314453 74 204 254
-81.05099487304688 7.2347493171691895 73.29716491699219 75 205 254
-79.8431167602539 6.3567962646484375 69.14871978759766 75 205 254
-85.7324447631836 6.836423873901367 69.82756042480469 75 205 254
-86.83445739746094 7.00304651260376 70.19851684570312 74 205 254
-82.74537658691406 6.641992568969727 69.63874053955078 75 205 254
-87.43070220947266 7.144704818725586 71.13813018798828 75 204 254
-81.38156127929688 6.904139041900635 71.2804183959961 75 205 254
-87.32369995117188 7.063298225402832 70.68136596679688 74 204 254
-85.14517211914062 6.932044506072998 70.59898376464844 75 205 254
-83.00542449951172 6.253931522369385 67.63268280029297 75 204 254
-85.8765869140625 6.947599411010742 70.40784454345703 74 205 254
-81.16291046142578 6.54511022567749 69.28758239746094 74 204 254
-80.19630432128906 6.473428726196289 69.41364288330078 74 204 254
-80.7337646484375 6.616856098175049 69.83958435058594 74 204 254
-80.17208862304688 6.356237888336182 68.94003295898438 74 204 254
-87.06900024414062 7.446639537811279 73.0164566040039 74 205 254
-80.67937469482422 6.0938920974731445 67.50025177001953 74 205 254
-81.7369384765625 6.620617389678955 69.70946502685547 75 205 254
-81.36018371582031 6.789795398712158 70.62034606933594 74 205 254
-81.0509262084961 6.212249755859375 67.84317016601562 74 204 254
-80.3773193359375 6.806628704071045 70.9595947265625 74 205 254
-81.1271743774414 6.435712814331055 68.78086853027344 74 204 254
-85.61911010742188 6.668198108673096 68.84679412841797 75 205 254
-80.36773681640625 6.892639636993408 71.3895492553711 75 205 254
-86.15463256835938 6.87100887298584 69.80313110351562 75 205 254
-82.65055084228516 6.451351165771484 68.66142272949219 74 204 254
-86.41853332519531 6.937458515167236 69.63764190673828 75 204 254
-80.57604217529297 6.1905436515808105 67.9715805053711 74 205 254
-84.01209259033203 6.896866321563721 70.71468353271484 75 205 254
-84.77206420898438 6.868494987487793 70.34503936767578 75 205 254
-84.67076110839844 6.5901360511779785 68.93949890136719 75 205 254
-84.12519836425781 6.488171577453613 68.50325012207031 74 204 254
-86.54449462890625 6.772366523742676 69.3014907836914 75 205 254
-82.52893829345703 6.241541385650635 67.67054748535156 74 204 254
-83.14669799804688 6.556887626647949 69.13522338867188 74 205 254
-86.26817321777344 6.796295166015625 69.25718688964844 75 205 254
-82.01402282714844 6.232548713684082 67.72439575195312 74 204 254
-79.71903228759766 6.523618221282959 69.96652221679688 74 204 254
-84.7422866821289 6.689174175262451 69.43468475341797 75 205 254
-80.60969543457031 7.30012321472168 73.71599578857422 74 205 254
-83.07547760009766 6.351867198944092 68.09031677246094 74 204 254
-85.21477508544922 6.709541320800781 69.36101531982422 74 205 254
-85.65982818603516 6.5843048095703125 68.33306884765625 74 204 254
-84.52188873291016 6.305750846862793 67.45790100097656 74 204 254
-83.55795288085938 6.37349796295166 68.05035400390625 74 204 254
-82.57603454589844 6.346471786499023 68.1594467163086 74 204 254
-86.60643005371094 6.966739654541016 69.88530731201172 74 205 254
-79.82454681396484 6.4271416664123535 69.47298431396484 75 205 254
-82.62683868408203 6.5388569831848145 69.11812591552734 74 204 254
-83.09672546386719 6.461970329284668 68.63785552978516 75 204 254
-87.56915283203125 7.236202716827393 71.59867095947266 74 204 254
-83.23176574707031 6.6436448097229 69.57322692871094 75 205 254
-81.86359405517578 6.840238094329834 70.89923858642578 74 205 254
-84.73812103271484 6.790215015411377 69.92732238769531 75 205 254
-81.62826538085938 6.442403316497803 68.75045013427734 74 204 254
-83.58899688720703 6.477218151092529 68.5558853149414 74 204 254
-81.32205963134766 6.841319561004639 70.90151977539062 75 205 254
-86.41902923583984 6.67547607421875 68.96595764160156 75 205 254
-80.54435729980469 6.269956588745117 68.33584594726562 75 204 254
-83.8212890625 6.843361854553223 70.4880142211914 75 205 254
-86.92367553710938 7.100137233734131 70.65969848632812 75 205 254
-86.26018524169922 6.958357810974121 70.30001831054688 74 205 254
-80.23209381103516 6.26735258102417 68.51704406738281 75 205 254
-85.95124053955078 7.15608549118042 71.78223419189453 75 205 254
-82.50574493408203 7.085515975952148 72.14096069335938 75 205 254
-83.69255065917969 6.578269004821777 69.050048828125 74 204 254
-83.5090560913086 6.2698588371276855 67.57659149169922 74 204 254
-82.28685760498047 6.803242206573486 70.61470794677734 75 205 254
-84.53984069824219 6.403145790100098 67.96070861816406 74 204 254
-82.36238861083984 6.85264778137207 70.84842681884766 74 205 254
-86.33340454101562 7.039674758911133 70.7413558959961 75 205 254
-80.8687744140625 6.901459217071533 71.3040542602539 75 205 254
-84.8460922241211 6.916009426116943 70.58496856689453 74 205 254
-84.33806610107422 6.902643203735352 70.61293029785156 74 205 254
-83.7035903930664 6.667391300201416 69.53851318359375 74 205 254
-81.67633819580078 6.540096282958984 69.26898193359375 74 205 254
-79.81153106689453 6.74275541305542 70.90042114257812 75 205 254
-80.95050048828125 6.786598205566406 70.68841552734375 74 205 254
-85.51899719238281 6.4736480712890625 67.89261627197266 75 205 254
-82.51258087158203 7.169636249542236 72.62702941894531 75 205 254
-85.91305541992188 7.075700283050537 71.27664184570312 75 205 254
-82.21214294433594 6.626189231872559 69.69185638427734 75 205 254
-82.85623931884766 6.919369697570801 71.13648986816406 75 205 254
-81.98643493652344 6.478372573852539 69.32196807861328 74 204 254
-86.27156829833984 7.180209159851074 72.38860321044922 75 205 254
-83.90794372558594 6.4077229499816895 68.6312026977539 74 204 254
-81.38545989990234 7.242551803588867 73.86817169189453 75 205 254
-82.98493194580078 6.483684539794922 69.22322082519531 74 204 254
-81.140869140625 6.811161994934082 71.08057403564453 74 205 254
-83.37583923339844 6.243904113769531 67.96508026123047 75 204 254
-80.07286834716797 6.621074676513672 70.54684448242188 75 204 254
-81.08061981201172 6.6795654296875 70.41017150878906 74 204 254
-85.9681396484375 6.782171726226807 69.98246002197266 75 205 254
-86.63675689697266 7.0629119873046875 71.38799285888672 75 205 254
-80.69184112548828 6.919613361358643 71.91951751708984 75 205 254
-81.38951110839844 6.277557373046875 68.39505004882812 75 204 254
-82.46576690673828 6.486268520355225 69.29903411865234 74 205 254
-82.69122314453125 6.875870704650879 71.37114715576172 75 205 254
-81.0179672241211 6.58402681350708 69.93512725830078 74 205 254
-83.513671875 6.577942848205566 69.6290283203125 74 204 254
-86.87903594970703 7.361031532287598 73.30794525146484 75 205 254
-80.14106750488281 6.760649681091309 71.3255615234375 74 205 254
-81.47823333740234 6.485782146453857 69.37748718261719 74 204 254
-83.08119201660156 6.672779560089111 70.23355102539062 74 205 254
-82.2301254272461 6.931666851043701 71.7708740234375 75 205 254
-84.84788513183594 6.348939418792725 68.06437683105469 74 204 254
-81.76354217529297 7.012649059295654 72.33675384521484 75 205 254
-84.02257537841797 6.698142051696777 70.11923217773438 74 205 254
-84.1888656616211 6.91745662689209 71.3228759765625 74 205 254
-80.8694839477539 6.785512447357178 71.2040023803711 75 205 254
-82.85954284667969 6.280370235443115 68.23824310302734 74 204 254
-84.3409652709961 6.216681957244873 67.61632537841797 75 204 254
-82.40546417236328 6.27566385269165 68.28378295898438 74 204 254
-86.96317291259766 7.07070255279541 70.87848663330078 74 205 254
-83.97299194335938 6.514541149139404 69.14164733886719 74 205 254
-79.67436981201172 6.515462875366211 70.28206634521484 75 205 254
-81.71485137939453 6.928409576416016 71.82685089111328 75 205 254
-83.67649841308594 6.8521881103515625 71.12267303466797 75 205 254
-82.94550323486328 6.382607936859131 68.71983337402344 74 204 254
-82.14584350585938 6.865574836730957 71.41390991210938 75 205 254
-85.10488891601562 6.801247596740723 70.49938201904297 75 205 254
-82.40118408203125 7.262442111968994 73.78123474121094 74 205 254
-84.9112319946289 6.441246509552002 68.53594970703125 74 204 254
-86.23268127441406 7.095617294311523 71.86363983154297 75 205 254
-83.37718200683594 6.292377471923828 68.1933364868164 75 204 254
-82.56818389892578 6.66801643371582 70.21772766113281 74 204 254
-81.674072265625 6.807826995849609 71.13822174072266 75 205 254
-85.04857635498047 6.700493812561035 69.97791290283203 75 205 254
-86.68009185791016 7.015878200531006 70.92098236083984 75 205 254
-85.14167785644531 6.8956685066223145 70.98369598388672 75 205 254
-82.01301574707031 6.571764945983887 69.80217742919922 74 205 254
-85.09667205810547 6.9460248947143555 71.2376708984375 75 205 254
-82.60171508789062 6.769121170043945 70.76164245605469 75 205 254
-81.0208740234375 6.060327053070068 67.60372924804688 75 204 254
-80.00343322753906 6.510501384735107 70.05352783203125 74 204 254
-84.43050384521484 6.321966648101807 68.13186645507812 74 204 254
-83.2976303100586 6.07509183883667 67.20073699951172 75 204 254
-84.1270751953125 6.8711934089660645 71.07227325439453 75 205 254
-81.08497619628906 6.764523983001709 70.90721893310547 74 205 254
-86.69547271728516 6.9913811683654785 70.36672973632812 75 204 254
-80.64527130126953 6.793486595153809 71.09712982177734 75 205 254
-81.52900695800781 6.580172538757324 69.8532943725586 74 205 254
-83.21458435058594 6.937889099121094 71.696044921875 75 205 254
-80.36994934082031 6.786085605621338 71.20832824707031 75 205 254
-84.01912689208984 6.5985918045043945 69.58477783203125 74 204 254
-87.61250305175781 7.192817687988281 71.8409423828125 75 205 254
-83.58953857421875 6.765371322631836 70.65314483642578 75 205 254
-81.95286560058594 6.37968111038208 68.83366394042969 74 204 254
-81.65943145751953 6.849979400634766 71.37276458740234 75 205 254
-82.06710052490234 6.6626877784729 70.29330444335938 74 204 254
-86.05951690673828 6.860612869262695 70.43193054199219 75 205 254
-85.03386688232422 6.617278575897217 69.51347351074219 74 204 254
-83.87670135498047 6.309315204620361 68.17020416259766 74 204 254
-82.79402160644531 7.098807334899902 72.71511840820312 75 205 254
-79.65621185302734 6.74094295501709 71.37321472167969 74 205 254
-83.01499938964844 6.575675010681152 69.70987701416016 74 204 254
-82.67675018310547 6.837832450866699 71.14179229736328 75 205 254
-82.8159408569336 6.067422866821289 67.25881958007812 75 204 254
-80.9578857421875 6.470248699188232 69.42530059814453 74 204 254
-80.14220428466797 6.701476097106934 70.98357391357422 74 204 254
-80.95613098144531 6.130589962005615 67.93223571777344 74 205 254
-83.41522979736328 6.3951239585876465 68.68940734863281 74 204 254
-83.47798156738281 6.498471736907959 69.19711303710938 74 204 254
-84.01551818847656 6.2623162269592285 67.95218658447266 74 205 254
-83.81787872314453 6.19106912612915 67.64453887939453 75 204 254
-87.80032348632812 7.255894184112549 72.2332763671875 74 205 254
-78.90325164794922 6.7621965408325195 71.87049865722656 75 205 254
-80.64258575439453 6.840187072753906 71.43489074707031 74 204 254
-83.54871368408203 6.679481029510498 70.17891693115234 74 205 254
-80.49231719970703 6.331524848937988 69.00080108642578 74 204 254
-80.891357421875 7.205491542816162 73.45185852050781 75 205 254
-87.53156280517578 7.052430629730225 71.4925308227539 75 205 254
-80.47868347167969 6.436561584472656 69.47331237792969 74 204 254
-79.61736297607422 6.675691604614258 71.05841064453125 74 204 254
-79.27548217773438 6.770500183105469 71.72787475585938 74 205 254
-79.24976348876953 6.672025680541992 71.25443267822266 74 205 254
-84.94623565673828 6.52786922454834 69.0245132446289 74 204 254
-81.21171569824219 6.942809581756592 71.90316009521484 75 205 254
-83.80248260498047 6.082170009613037 67.15614318847656 75 204 254
-82.11598205566406 6.818283557891846 71.16073608398438 74 205 254
-83.06820678710938 6.637017726898193 70.35538482666016 74 204 254
-86.15409851074219 7.04844331741333 71.7427749633789 74 205 254
-79.82341766357422 6.534841537475586 70.84182739257812 75 205 254
-86.68993377685547 7.122006416320801 72.01764678955078 75 205 254
-83.48148345947266 6.457702159881592 69.3226089477539 74 204 254
-82.8652572631836 7.243253231048584 73.85792541503906 75 205 254
-80.09742736816406 6.646205425262451 71.09382629394531 74 204 254
-82.81832885742188 7.157588005065918 73.34764099121094 75 205 254
-85.17198944091797 6.958038806915283 71.63459014892578 75 205 254
-81.06725311279297 6.629843711853027 70.52149963378906 74 205 254
-87.07077026367188 7.062853813171387 71.22688293457031 75 205 254
-80.6302261352539 6.288585662841797 69.2338638305664 74 205 254
-83.35115814208984 6.136924743652344 67.84021759033203 75 204 254
-83.61274719238281 6.742509365081787 70.83351135253906 74 205 254
-82.66316986083984 6.874372482299805 71.7476806640625 75 205 254
-80.57994842529297 6.581650257110596 70.59691619873047 75 204 254
-83.9642562866211 6.472219467163086 69.2904281616211 75 204 254
-84.3925552368164 6.278382778167725 68.253662109375 74 204 254
-80.75835418701172 6.215946197509766 68.88919830322266 75 204 254
-86.85295104980469 6.90523624420166 70.63945770263672 75 205 254
-82.63955688476562 6.805384159088135 71.36474609375 75 205 254
-79.64253234863281 6.710434436798096 71.64398956298828 75 205 254
-86.28581237792969 7.176808834075928 72.54908752441406 75 205 254
-81.1119613647461 6.108036518096924 68.20597839355469 75 205 254
-81.08467864990234 6.73748254776001 71.03123474121094 74 204 254
-82.59130096435547 6.7211012840271 70.90071105957031 74 205 254
-81.24758911132812 6.9985480308532715 72.51893615722656 75 205 254
-82.73580932617188 6.935619831085205 72.07042694091797 74 205 254
-81.58575439453125 6.645665168762207 70.50846862792969 74 205 254
-81.69339752197266 6.856442928314209 71.80858612060547 74 205 254
-82.52989196777344 6.541556358337402 69.92774200439453 74 204 254
-82.0182876586914 6.529383659362793 69.92736053466797 74 204 254
-79.57610321044922 6.780681610107422 72.01427459716797 74 205 254
-85.09532165527344 6.776376724243164 70.65536499023438 74 205 254
-80.09740447998047 6.81229305267334 72.07852935791016 75 205 254
-85.07022857666016 6.689985752105713 70.17786407470703 75 205 254
-82.05958557128906 6.621801376342773 70.4251708984375 74 204 254
-87.78952026367188 7.230293273925781 72.4223861694336 74 205 254
-87.80290222167969 7.334120750427246 72.8901596069336 75 205 254
-83.0748062133789 6.72910737991333 70.84380340576172 75 205 254
-84.96387481689453 6.510910511016846 69.21052551269531 74 205 254
-80.6541748046875 6.231027603149414 69.07586669921875 75 205 254
-84.52169799804688 6.584758281707764 69.76605224609375 74 204 254
-85.96399688720703 6.686826229095459 69.59886932373047 75 205 254
-83.973876953125 6.3208818435668945 68.56893157958984 74 205 254
-85.7803726196289 6.600432395935059 69.28175354003906 74 205 254
-80.97928619384766 6.312238693237305 69.07292938232422 75 204 254
-84.02277374267578 6.660409450531006 70.2602767944336 74 205 254
-80.69316101074219 6.90841817855835 72.0654067993164 75 205 254
-86.1436767578125 6.924135208129883 71.0832290649414 75 205 254
-84.10160827636719 6.7552080154418945 70.75550079345703 74 205 254
-83.3005599975586 6.0225043296813965 67.34367370605469 75 205 254
-86.02764892578125 6.831540584564209 70.61304473876953 75 205 254
-81.69189453125 6.903461933135986 72.08521270751953 74 205 254
-83.8824462890625 6.252750873565674 68.26766204833984 75 204 254
-86.31869506835938 7.247889995574951 73.02889251708984 75 205 254
-80.53387451171875 6.4889140129089355 70.0970687866211 75 204 254
-85.0031509399414 6.598795413970947 69.67203521728516 74 204 254
-80.46604919433594 6.829521179199219 71.86736297607422 75 205 254
-83.5269546508789 6.637004375457764 70.27266693115234 74 204 254
-87.40668487548828 7.5341691970825195 74.34339904785156 74 205 254
-80.12427520751953 6.732667922973633 71.58699035644531 75 205 254
-81.14921569824219 6.820293426513672 71.45436096191406 75 205 254
-87.14146423339844 7.104918003082275 71.57574462890625 75 205 254
-81.97586059570312 6.434506893157959 69.43946838378906 74 204 254
-83.51490783691406 6.556881427764893 69.83039855957031 74 204 254
-85.15571594238281 6.8719000816345215 71.16695404052734 75 205 254
-84.0291976928711 6.565415382385254 69.76785278320312 74 204 254
-79.30427551269531 6.829761981964111 72.36824798583984 74 205 254
-82.97261047363281 6.448182106018066 69.3907241821289 74 204 254
-87.62081146240234 7.174834251403809 72.00403594970703 75 205 254
-81.15296936035156 6.868407249450684 71.69011688232422 74 205 254
-80.18038177490234 6.458444118499756 70.22156524658203 75 205 254
-84.45597839355469 6.389554500579834 68.77690887451172 74 204 254
-86.72222900390625 6.950782299041748 70.9833755493164 75 205 254
-80.54188537597656 6.3810906410217285 69.62364959716797 74 204 254
-80.97550201416016 7.361947536468506 74.9214859008789 74 205 254
-80.13883209228516 6.565474987030029 70.6480941772461 74 204 254
-82.1084976196289 6.713056564331055 70.92725372314453 74 204 254
-80.98344421386719 6.191318988800049 68.59124755859375 74 205 254
-86.59492492675781 7.0442214012146 71.60215759277344 74 205 254
-82.17350769042969 6.920894622802734 72.08158111572266 75 205 254
-83.6599349975586 6.831075668334961 71.32230377197266 75 205 254
-80.84980773925781 6.861827850341797 71.75128936767578 75 205 254
-84.9191665649414 6.41058349609375 68.72598266601562 74 204 254
-80.99292755126953 6.515909194946289 70.03734588623047 74 204 254
-86.5634994506836 6.872093677520752 70.54753875732422 75 205 254
-83.44295501708984 6.360090255737305 68.84896850585938 74 204 254
-85.59950256347656 6.811532497406006 70.61434173583984 75 205 254
-81.4303970336914 6.3301310539245605 69.00108337402344 75 204 254
-83.90946960449219 6.370999813079834 68.80801391601562 74 204 254
-80.74706268310547 7.018589973449707 72.58035278320312 75 205 254
-81.51585388183594 6.5455708503723145 69.98896026611328 74 205 254
-86.86492919921875 7.4335527420043945 74.00021362304688 75 205 254
-83.02934265136719 6.5502610206604 69.8965835571289 74 204 254
-82.93196868896484 6.341429233551025 68.87689208984375 75 204 254
-85.36579132080078 6.461680889129639 68.72801208496094 75 205 254
-86.83293914794922 7.05357027053833 71.13650512695312 75 204 254
-84.5155258178711 6.478130340576172 69.43890380859375 74 204 254
-87.66574096679688 7.268453121185303 72.6695556640625 75 205 254
-83.10830688476562 6.75246524810791 71.04402160644531 74 204 254
-84.74507141113281 7.154030799865723 72.87200164794922 75 205 254
-84.41819763183594 7.083223342895508 72.52128601074219 75 204 254
-84.13301849365234 6.857662200927734 71.39459228515625 74 205 254
-85.07064819335938 6.703451156616211 70.36318969726562 74 204 254
-82.3865966796875 6.104753494262695 68.0801773071289 75 205 254
-86.15642547607422 7.1014814376831055 72.14164733886719 74 205 254
-85.25545501708984 7.165766716003418 72.84255981445312 75 205 254
-85.14725494384766 6.884503364562988 71.35722351074219 74 205 254
-83.25180053710938 7.05750846862793 72.641357421875 74 205 254
-81.76792907714844 7.087031841278076 73.0831527709961 75 205 254
-86.28173065185547 7.212117671966553 72.73855590820312 75 205 254
-87.86868286132812 7.469031810760498 73.59205627441406 75 205 254
-84.86438751220703 7.419356822967529 74.39838409423828 75 205 254
-86.84284973144531 7.146528244018555 71.72681427001953 75 205 254
-83.1787338256836 6.852038860321045 71.5447006225586 75 205 254
-85.05217742919922 6.600505828857422 69.83394622802734 74 204 254
-80.0714340209961 7.51828670501709 75.59854125976562 74 205 254
-83.27066040039062 7.127186298370361 73.00760650634766 75 205 254
-86.68831634521484 7.065385341644287 71.64244842529297 75 205 254
-83.06111145019531 6.640179634094238 70.48933410644531 74 204 254
-84.59656524658203 6.769074440002441 70.86431121826172 74 204 254
-83.39590454101562 6.108956813812256 67.99068450927734 75 204 254
-85.1433334350586 7.10964822769165 72.54547882080078 75 205 254
-80.17915344238281 6.894188404083252 72.11613464355469 75 204 254
-80.46380615234375 7.443513870239258 75.21839904785156 75 205 254
-85.85206604003906 7.43311882019043 74.30135345458984 75 205 254
-78.88491821289062 7.647616863250732 75.75021362304688 75 205 254
-79.61849975585938 7.480250358581543 74.95480346679688 75 205 254
-81.92044067382812 6.229852199554443 68.61698913574219 75 204 254
-82.18780517578125 6.918912410736084 72.07653045654297 74 205 254
-80.3741683959961 6.961327075958252 72.28008270263672 74 205 254
-84.08477020263672 6.668910026550293 70.44145202636719 74 204 254
-82.25018310546875 6.982766628265381 72.45964813232422 75 205 254
-86.80011749267578 7.325131416320801 73.20415496826172 75 205 254
-84.311767578125 7.2296013832092285 73.40409088134766 75 205 254
-82.43360137939453 5.984338760375977 67.57749938964844 75 205 254
-85.89002990722656 7.136104106903076 72.44500732421875 74 205 254
-80.35205841064453 7.137209415435791 73.21147918701172 75 205 254
-81.82803344726562 7.177777290344238 73.60739135742188 75 205 254
-81.0572738647461 6.287802219390869 69.19269561767578 74 204 254
-80.39582061767578 7.350531578063965 74.62068176269531 75 205 254
-82.76240539550781 7.111461162567139 73.04149627685547 75 205 254
-81.47859191894531 6.441751003265381 69.62406158447266 74 204 254
-81.72115325927734 7.017433166503906 72.6834716796875 75 205 254
-86.93859100341797 6.993060111999512 71.35285949707031 75 205 254
-80.90204620361328 7.351407051086426 74.65299224853516 75 205 254
-82.67942810058594 6.91680383682251 72.02102661132812 75 205 254
-84.53748321533203 6.576160907745361 69.91690826416016 74 204 254
-79.43803405761719 7.563480854034424 75.27449798583984 74 205 254
-82.41658020019531 7.430142879486084 75.0826187133789 75 205 254
-83.6343994140625 6.8478827476501465 71.48178100585938 75 205 254
-81.2092056274414 7.11054801940918 73.11785125732422 75 205 254
-86.73131561279297 7.244339942932129 72.72252655029297 75 205 254
-87.30962371826172 7.30451774597168 72.65863800048828 74 204 254
-87.27108001708984 7.372263431549072 73.17121124267578 75 205 254
-81.6456527709961 6.839443683624268 71.63593292236328 74 204 254
-83.74092864990234 7.023420333862305 72.4203109741211 75 205 254
-86.98799133300781 7.157864093780518 71.87796783447266 75 205 254
-86.11991119384766 6.9391608238220215 71.22257995605469 75 205 254
-86.16629028320312 7.03421688079834 71.73812103271484 75 205 254
-80.74793243408203 6.9774489402771 72.24842834472656 75 205 254
-81.671142578125 6.752791881561279 71.13724517822266 75 205 254
-83.67977142333984 6.941157341003418 71.96759796142578 75 205 254
-86.7219009399414 7.171846389770508 72.25825500488281 75 205 254
-80.7420883178711 7.072365760803223 72.69107055664062 74 204 254
-87.18400573730469 7.197789192199707 72.20551300048828 75 205 254
-82.92269134521484 6.2155866622924805 68.53424072265625 75 204 254
-83.58460235595703 6.6532816886901855 70.47710418701172 74 204 254
-81.15743255615234 7.000400066375732 72.2065658569336 75 205 254
-84.3890609741211 7.482977390289307 74.9372787475586 75 205 254
-85.67367553710938 6.915461540222168 71.26851654052734 74 205 254
-86.28916931152344 7.150110244750977 72.36737823486328 74 205 254
-82.57722473144531 6.637763977050781 70.55718994140625 74 204 254
-85.2162857055664 7.0630059242248535 72.30147552490234 75 205 254
-80.76866912841797 7.1693596839904785 73.21380615234375 75 204 254
-84.71147918701172 7.098292827606201 72.57781982421875 75 204 254
-82.7155990600586 6.993177890777588 72.4339828491211 74 205 254
-86.1292495727539 6.85976505279541 70.7241439819336 75 205 254
-84.71891784667969 7.058060646057129 72.35671997070312 75 205 254
-86.90100860595703 7.5549821853637695 74.66264343261719 75 205 254
-83.35464477539062 5.989449501037598 67.49824523925781 75 205 254
-84.3458023071289 7.30968713760376 73.89330291748047 75 205 254
-86.66454315185547 6.9835286140441895 71.21882629394531 74 205 254
-84.20711517333984 7.0474958419799805 72.38984680175781 75 205 254
-82.64443969726562 6.828514099121094 71.56169128417969 75 205 254
-88.33470153808594 7.540060043334961 74.06375885009766 75 205 254
-85.58749389648438 6.825634479522705 70.79644012451172 75 205 254
-86.33138275146484 7.372514247894287 73.72028350830078 75 205 254
-83.60215759277344 6.740555763244629 70.92762756347656 74 204 254
-81.38760375976562 6.940523147583008 72.1304931640625 74 205 254
-83.20796203613281 7.012016773223877 72.40509033203125 75 205 254
-87.04679107666016 7.06818151473999 71.71343231201172 75 205 254
-81.6953125 6.971695423126221 72.42762756347656 74 205 254
-84.04177856445312 6.5621562004089355 69.92854309082031 74 204 254
-84.582275390625 6.677822589874268 70.41011047363281 74 204 254
-86.24340057373047 7.287674903869629 73.21951293945312 75 205 254
-86.62612915039062 7.120616912841797 72.01300048828125 75 205 254
-85.80744171142578 7.203929901123047 73.17643737792969 75 205 254
-82.55916595458984 6.315898418426514 69.42559814453125 75 204 254
-83.17705535888672 6.744128704071045 71.31089782714844 75 205 254
-84.21294403076172 6.875510215759277 71.77413177490234 74 204 254
-85.33987426757812 6.8615827560424805 71.40017700195312 74 205 254
-85.95538330078125 7.632241725921631 75.62698364257812 74 205 254
-82.46903991699219 5.847136974334717 67.4926528930664 75 205 254
-82.80972290039062 7.122390270233154 73.41771697998047 74 205 254
-87.9414291381836 7.51762580871582 73.939697265625 74 205 254
-82.6493911743164 6.732509136199951 71.38573455810547 74 205 254
-80.35442352294922 7.314528465270996 75.02960205078125 75 205 254
-84.28855895996094 7.16089391708374 73.27893829345703 75 205 254
-87.32855224609375 7.495393753051758 74.08187103271484 74 205 254
-84.73059844970703 6.7829060554504395 71.20291137695312 75 205 254
-84.51073455810547 7.521714687347412 75.36314392089844 74 205 254
-86.75235748291016 7.195947170257568 72.60419464111328 75 205 254
-82.20831298828125 6.837294101715088 71.95818328857422 74 204 254
-87.27928924560547 7.415458679199219 73.6122055053711 74 205 254
-86.29356384277344 7.249262809753418 73.18283081054688 75 205 254
-82.73189544677734 6.840621471405029 71.91943359375 74 204 254
-86.4464340209961 7.6491379737854 75.5949935913086 75 205 254
-83.16053009033203 6.655581474304199 70.88630676269531 74 204 254
-83.74346923828125 6.959455490112305 72.36251831054688 75 205 254
-80.87837982177734 6.9048662185668945 72.5285415649414 75 205 254
-80.38462829589844 7.248362064361572 74.5576400756836 75 205 254
-80.21016693115234 6.948093891143799 72.5107192993164 75 205 254
-81.25261688232422 6.904294967651367 72.4852523803711 74 205 254
-83.80984497070312 7.506500244140625 75.49321746826172 75 204 254
-86.32881164550781 7.321518898010254 73.66669464111328 75 205 254
-81.80265808105469 7.098501205444336 73.45526885986328 75 205 254
-83.22406768798828 6.9489970207214355 72.378662109375 75 205 254
-85.75010681152344 7.033352375030518 72.18318939208984 75 205 254
-80.87420654296875 7.0856194496154785 73.5409927368164 75 205 254
-84.9291763305664 7.622586250305176 75.79315185546875 75 205 254
-85.21769714355469 7.009942054748535 72.26661682128906 75 205 254
-80.78939056396484 7.168384075164795 74.00831604003906 75 205 254
-87.07931518554688 7.564766883850098 74.71561431884766 75 205 254
-83.30146026611328 7.046982288360596 72.87083435058594 75 205 254
-82.47447967529297 5.974483489990234 67.97136688232422 75 205 254
-84.69683074951172 6.896547794342041 71.76919555664062 74 205 254
-81.36282348632812 7.174572944641113 74.0031967163086 75 205 254
-85.38896942138672 7.374867916107178 74.20465087890625 75 205 254
-83.34082794189453 7.228694915771484 73.87167358398438 75 205 254
-86.76863861083984 7.1371893882751465 72.12505340576172 75 205 254
-80.21737670898438 7.085827827453613 73.09490966796875 74 205 254
-81.2960433959961 7.001303195953369 73.00959777832031 75 205 254
-86.41169738769531 7.491131782531738 74.69520568847656 75 205 254
-82.29644775390625 7.005092144012451 72.92536163330078 75 205 254
-83.4486312866211 7.497621536254883 75.42044830322266 74 205 254
-84.22977447509766 6.979833602905273 72.31455993652344 75 205 254
-83.22625732421875 6.848870277404785 71.84993743896484 74 204 254
-85.1343994140625 6.803941249847412 71.20703887939453 75 205 254
-86.83799743652344 7.4444966316223145 74.11820220947266 75 205 254
-83.1056137084961 6.445120811462402 69.90391540527344 75 204 254
-88.84049224853516 7.676508903503418 74.97108459472656 74 205 254
-80.32966613769531 6.776689052581787 71.7723617553711 75 205 254
-85.2176742553711 6.9059624671936035 71.73162841796875 75 205 254
-82.74071502685547 6.784993648529053 71.61234283447266 75 205 254
-80.28621673583984 6.865119934082031 72.1382064819336 75 205 254
-83.86160278320312 7.315732002258301 74.34925842285156 75 205 254
-84.64240264892578 6.841589450836182 71.4842758178711 75 205 254
-86.36125946044922 7.402290344238281 74.17171478271484 75 205 254
-87.90637969970703 7.617384910583496 74.50576782226562 74 205 254
-82.02438354492188 7.401485919952393 75.27888488769531 74 205 254
-86.23493957519531 7.070705413818359 72.14957427978516 75 205 254
-85.4211654663086 7.565096855163574 75.290283203125 75 205 254
-88.14199829101562 7.635955810546875 74.20542907714844 75 205 254
-87.83404541015625 7.447391986846924 73.56660461425781 74 205 254
-81.37500762939453 7.256083965301514 74.47488403320312 75 205 254
-80.84160614013672 6.9874091148376465 73.00741577148438 75 205 254
-84.7591781616211 7.096421718597412 72.80923461914062 75 205 254
-81.80001068115234 7.008894920349121 72.9730453491211 75 205 254
-84.81919860839844 7.279824256896973 73.79348754882812 75 205 254
-87.3367691040039 7.358104228973389 73.11767578125 74 205 254
-86.24322509765625 7.15855073928833 72.64669036865234 75 205 254
-84.75457000732422 6.9951090812683105 72.27783203125 74 205 254
-82.32846069335938 7.09711217880249 73.44520568847656 75 205 254
-86.8322525024414 7.373848915100098 73.62953186035156 75 205 254
-85.27446746826172 7.0955352783203125 72.71949768066406 75 205 254
-85.6927490234375 6.95089864730835 71.71302795410156 74 205 254
-85.2943115234375 7.197575569152832 73.25735473632812 75 205 254
-88.23152160644531 7.526503562927246 74.12083435058594 75 205 254
-83.68447875976562 6.761427879333496 71.33272552490234 74 204 254
-85.77024841308594 7.122251510620117 72.71012115478516 75 205 254
-82.91047668457031 7.380115985870361 74.89592742919922 74 205 254
-81.4203872680664 7.343188285827637 74.944091796875 75 205 254
-84.93605041503906 7.560720920562744 75.38883209228516 74 205 254
-87.6533203125 7.359829425811768 73.14208221435547 75 205 254
-82.23284912109375 6.925424575805664 72.45310974121094 74 205 254
-86.77449035644531 7.285337924957275 73.12319946289062 75 205 254
-87.44328308105469 7.593180179595947 74.64501953125 74 205 254
-81.75566864013672 6.914828777313232 72.48704528808594 74 205 254
-86.80755615234375 7.555002689361572 75.00685119628906 74 205 254
-88.37422180175781 7.581358432769775 74.45723724365234 75 205 254
-85.84769439697266 7.290572643280029 73.673095703125 75 205 254
-82.7702407836914 6.9420390129089355 72.44120025634766 75 205 254
-88.13917541503906 7.441824436187744 73.7389907836914 75 204 254
-84.82440185546875 7.184924125671387 73.2766342163086 75 205 254
-83.41891479492188 7.405674934387207 74.8846435546875 75 205 254
-82.9889907836914 6.093214511871338 68.39747619628906 75 205 254
-85.7800064086914 7.320382595062256 74.3470687866211 75 205 254
-86.29643249511719 7.351341247558594 74.28617095947266 75 205 254
-84.31941986083984 7.124447822570801 73.5991439819336 74 205 254
-80.93143463134766 7.510275363922119 76.60777282714844 75 205 254
-82.37520599365234 7.459936618804932 76.01740264892578 75 205 254
-83.87522888183594 7.414177894592285 75.4405517578125 75 205 254
-82.21963500976562 6.832167148590088 72.51370239257812 74 204 254
-88.65985870361328 7.691412448883057 75.32305145263672 75 205 254
-87.37715148925781 7.58319616317749 75.25963592529297 75 205 254
-83.8542709350586 7.326446056365967 74.93124389648438 75 205 254
-82.60353088378906 6.0007452964782715 68.56449127197266 75 205 254
-81.24980163574219 6.938182830810547 73.09012603759766 74 204 254
-82.69500732421875 5.896618366241455 68.12323760986328 75 204 254
-87.40925598144531 7.72073221206665 76.26231384277344 75 205 254
-86.41096496582031 7.5834479331970215 75.73458099365234 74 205 254
-86.89298248291016 7.7481255531311035 76.60334014892578 74 205 254
-82.59516906738281 6.226158618927002 69.53947448730469 75 205 254
-85.37989044189453 7.692586421966553 76.65572357177734 74 205 254
-85.43161010742188 7.634994983673096 76.30654907226562 75 205 254
-86.18988800048828 7.0164690017700195 72.34281921386719 75 205 254
-80.4173583984375 7.514358997344971 76.6068115234375 74 205 254
-88.56507110595703 7.890830039978027 76.24906158447266 75 205 254
-86.17949676513672 6.947330951690674 71.8841323852539 75 205 254
-82.30314636230469 7.107620716094971 74.03104400634766 75 205 254
-88.6943130493164 7.881556034088135 76.32243347167969 75 205 254
-81.16063690185547 6.812361240386963 72.61045837402344 69 210 248
-88.25477600097656 7.8595781326293945 76.53118896484375 75 205 254
-88.78587341308594 7.915188312530518 76.50289154052734 75 204 254
-87.34394073486328 7.510842800140381 74.75924682617188 75 205 254
-87.19902038574219 7.269120216369629 73.30307006835938 75 205 254
-84.3339614868164 7.268392562866211 74.43319702148438 75 205 254
-80.34146118164062 7.445651531219482 76.14961242675781 74 205 254
-86.39151000976562 7.518170356750488 75.31526947021484 75 205 254
-85.29247283935547 7.227534294128418 73.9068603515625 75 205 254
-86.3597640991211 7.4374308586120605 74.80708312988281 75 205 254
-81.41218566894531 7.451536178588867 76.12081146240234 75 205 254
-81.32683563232422 7.2794718742370605 75.12442016601562 75 205 254
-88.81471252441406 7.746658802032471 75.69901275634766 74 205 254
-84.18684387207031 6.81411600112915 71.94734954833984 74 205 254
-82.18138122558594 7.0567450523376465 73.7527084350586 74 205 254
-84.83808898925781 7.376065731048584 74.87434387207031 75 205 254
-86.92211151123047 7.618261337280273 75.79605102539062 75 205 254
-83.1219482421875 6.35221529006958 70.01182556152344 75 204 254
-87.42858123779297 7.767289638519287 76.61116790771484 74 205 254
-84.64217376708984 6.533737659454346 70.46209716796875 74 204 254
-84.81219482421875 7.294620513916016 74.40924835205078 75 205 254
-88.90361785888672 7.823497772216797 76.1562271118164 74 205 254
-85.20986938476562 7.154592514038086 73.51021575927734 74 205 254
-80.91844177246094 7.438026428222656 76.13845825195312 75 205 254
-80.49545288085938 7.561947345733643 76.96932220458984 75 204 254
-85.37140655517578 7.4871978759765625 75.3788070678711 75 205 254
-85.04864501953125 7.677858352661133 76.65465545654297 75 204 254
-84.80240631103516 7.199406147003174 73.8850326538086 75 205 254
-84.28425598144531 7.175912857055664 73.91393280029297 75 205 254
-84.96142578125 6.453888893127441 69.94739532470703 75 205 254
-86.3870849609375 7.664853096008301 76.22840881347656 74 205 254
-85.99434661865234 7.711200714111328 76.62364196777344 74 205 254
-82.23218536376953 6.127575874328613 69.13488006591797 74 204 254
-83.9168472290039 7.501010417938232 75.96769714355469 75 205 254
-83.2969741821289 7.044198513031006 73.4155502319336 75 205 254
-82.75621032714844 6.850635528564453 72.5116195678711 74 204 254
-80.28240966796875 7.312643051147461 75.59004974365234 68 211 250
-84.4209976196289 7.588986396789551 76.39535522460938 75 205 254
-83.23249816894531 6.869517803192139 72.50096893310547 74 205 254
-85.83675384521484 7.408294200897217 74.82817840576172 75 205 254
-83.78470611572266 7.163898944854736 73.99612426757812 75 205 254
-83.777099609375 7.05880880355835 73.42478942871094 75 205 254
-86.45561981201172 7.734859466552734 76.632080078125 74 205 254
-85.88176727294922 7.5816969871521 75.81698608398438 75 205 254
-85.36150360107422 7.3207688331604 74.4019775390625 75 205 254
-83.30494689941406 7.151097774505615 74.0013656616211 75 205 254
-83.74535369873047 6.968689918518066 72.93722534179688 74 205 254
-81.38887023925781 7.532620429992676 76.61983489990234 74 205 254
-87.3931655883789 7.64806604385376 75.74517822265625 75 205 254
-88.39361572265625 7.742424488067627 75.6396713256836 75 205 254
-89.29483032226562 7.897291660308838 76.51934051513672 75 205 254
-87.87454223632812 7.765570640563965 76.22354888916016 75 205 254
-84.9205551147461 7.621240139007568 76.35565185546875 75 205 254
-88.39906311035156 7.824486255645752 76.16522979736328 74 205 254
-87.86383056640625 7.701404571533203 75.71268463134766 74 205 254
-81.91610717773438 7.5169219970703125 76.53697967529297 75 205 254
-85.87116241455078 7.494419574737549 75.31927490234375 75 205 254
-81.721435546875 6.318789958953857 70.13911437988281 70 210 250
-84.8827896118164 7.470664978027344 75.41034698486328 75 205 254
-82.42208862304688 7.542148113250732 76.5018310546875 75 205 254
-82.57330322265625 6.115944862365723 69.05657958984375 75 205 254
-82.80260467529297 7.13612174987793 74.02564239501953 75 205 254
-80.89351654052734 7.263331890106201 75.13591766357422 74 205 254
-85.8356704711914 7.247254371643066 73.85258483886719 75 205 254
-83.09502410888672 6.240250587463379 69.51789855957031 75 205 254
-83.90364074707031 7.576639652252197 76.4581527709961 75 205 254
-82.38158416748047 7.375818252563477 75.52269744873047 75 205 254
-85.31443786621094 7.397405624389648 74.86799621582031 75 205 254
-81.90290832519531 7.44031286239624 76.041259765625 75 205 254
-83.834228515625 7.1056342124938965 73.66923522949219 74 205 254
-88.31810760498047 7.652920722961426 75.20394897460938 75 205 254
-82.2924575805664 6.066996097564697 68.82124328613281 75 205 254
-81.88066864013672 7.363561630249023 75.57211303710938 75 205 254
-82.33412170410156 7.282936096191406 75.01438903808594 75 205 254
-89.24786376953125 7.866108417510986 76.2581558227539 75 205 254
-83.91468811035156 7.413591384887695 76.06783294677734 75 205 254
-86.29637908935547 7.009943962097168 72.98829650878906 74 205 254
-88.8116683959961 7.7344512939453125 76.41966247558594 74 205 254
-80.4823226928711 7.539266586303711 77.22090911865234 75 205 254
-85.9020004272461 7.32231330871582 74.99315643310547 75 205 254
-85.92322540283203 7.401178359985352 75.485107421875 75 205 254
-80.41351318359375 7.467972278594971 76.735595703125 75 205 254
-84.44445037841797 7.591414451599121 77.03765106201172 75 205 254
-81.39242553710938 7.287176132202148 75.63391876220703 75 205 254
-85.4300537109375 7.546550750732422 76.4800033569336 75 205 254
-86.4599380493164 7.5677103996276855 76.44247436523438 75 205 254
-82.48487091064453 7.534099102020264 77.1286392211914 75 205 254
-82.88069152832031 7.234949111938477 75.11528778076172 75 205 254
-81.30448150634766 6.850183963775635 73.19404602050781 71 208 252
-83.8914794921875 7.249283313751221 75.06031799316406 75 205 254
