-678.8288463673847 4.974381051496767 78.34637441522085 74 204 254
-679.6155430236652 5.260331941664269 79.72266339066312 75 205 254
-678.9673720501805 4.010996131419226 75.73570779144336 75 205 254
-676.7436979701814 5.239643388324495 78.07037772033098 75 205 254
-678.0924960467881 4.319068240310553 76.0981847314085 75 205 254
-680.5812529383671 5.003803629032738 79.41647934152816 74 205 254
-681.123382114553 3.6403778725456064 75.80245650844674 75 205 254
-681.9868781081805 4.716623499748433 79.89574577528573 74 205 254
-680.2144775511491 3.5097614573619964 75.14408997350132 75 205 254
-676.8142617537443 5.223327074817515 78.19757311540965 74 205 254
-676.6764062177662 4.042844351679491 74.60142208702656 74 204 254
-678.2262213002616 4.7343678750588225 77.54509713944583 75 205 254
-677.7667596131375 3.8320687901574075 74.65105209259745 75 205 254
-678.6081594200886 3.07650915163293 73.20247482450937 74 204 254
-676.8548816888655 4.7958618036150185 77.02816822198047 75 205 254
-677.1392675082596 3.8743161070167424 74.40308029737784 74 205 254
-681.5675390153909 4.420572420219578 78.34335456754349 74 205 254
-679.8235598270921 3.669391872567047 75.38494739935754 75 205 254
-676.8898479413726 5.769731577750047 79.98021993968653 75 205 254
-681.2916710896826 3.7469894047656567 76.27187732057665 74 205 254
-679.1283755923483 3.30360197772729 74.06378761271758 74 205 254
-677.5356734672063 3.291961112400333 73.1491567105893 74 204 254
-678.5767782186989 5.23403786710956 78.93777815037005 75 205 254
-677.7763053317367 4.53660303429794 77.30143478889704 75 205 254
-680.7540374319681 4.732130643202879 79.3047200343695 74 205 254
-677.8929754174078 5.111836981820794 78.48923395915115 75 205 254
-680.9079845222398 4.857370522508852 79.78114536639326 75 205 254
-677.6796919695504 5.805358390501212 80.60124629802363 74 204 254
-679.1437485658502 3.5897894202074667 75.01670127358825 74 205 254
-675.566374871244 5.123808921905972 77.84415780076968 74 205 254
-678.4525616383723 4.443177309013489 76.91599482417644 75 205 254
-677.1882264706582 5.705400615032648 79.3772448071407 75 205 254
-678.5744568421127 5.06900466136123 78.87202467150624 74 204 254
-677.7143450556322 4.212493943899428 75.73642422504575 74 205 254
-677.4949247216651 4.75016283379173 76.86866641790347 75 205 254
-677.8369037439697 4.841918678998226 78.05220928281456 75 205 254
-677.8300530067904 4.9213207005435144 77.7051476084683 74 205 254
-681.096620530318 4.580369279329556 78.6279300653957 74 205 254
-677.9690016795826 4.26242442399089 77.62241039136492 74 204 254
-681.0882601410295 4.896205018731067 81.20308049128452 75 204 254
-680.2535790818364 4.65474648498634 80.05796078858222 75 205 254
-679.3411261016054 4.386715392280479 78.74260922904567 74 204 254
-680.9349493647777 3.667606333529964 77.3928147114515 74 205 254
-679.2187862640536 4.250780394073939 78.27321310865992 74 204 254
-682.4267573743499 4.394729854050247 80.45644998157584 75 205 254
-677.9704279084083 4.791804747272895 79.08601130972782 74 205 254
-680.4668743436268 4.296280522776829 79.02759812200148 74 204 254
-680.1056917082257 4.516979799587826 79.56697328351841 75 205 254
-677.36097349688 4.817598872698685 78.78783649621913 75 205 254
-678.5759613569865 4.79626378987254 79.46849885381265 75 205 254
-678.0879484453293 4.374365492639058 77.99427462408732 75 205 254
-681.5451760936694 4.1599941468187644 79.23037072128479 74 205 254
-678.0815079039633 4.930398178896201 79.55149791576768 75 205 254
-678.1369805864792 4.448703031291295 78.21144985878212 74 205 254
-679.8135629802148 4.267838946385581 78.66081050542519 74 204 254
-678.9701256002006 5.194112540513995 80.84863969407198 75 205 254
-680.658042756529 3.9140303618195276 77.9939518565358 74 204 254
-679.9547716185306 4.899600456179456 80.59495961919238 75 205 254
-679.3654814241422 3.8517579382674683 77.24215677708861 75 204 254
-679.1716607177505 5.299845235441001 81.27951989087309 75 205 254
-677.6784251747875 3.414839507648683 75.31408967343964 75 204 254
-678.7445524819077 4.404745074333128 78.43015998866264 74 205 254
-680.450021049963 3.649480513263022 77.16428776316062 74 205 254
-680.6019830864473 4.981617880973218 81.25845883602292 74 205 254
-677.6354953912404 3.954283727104052 76.66023472403884 75 204 254
-679.9637029415319 4.385633831858048 79.10113305107454 75 205 254
-680.9145314687286 4.163464986458155 78.88847363389185 74 204 254
-681.9972679470786 4.511544650822742 80.56423802705828 75 205 254
-681.7115330887281 3.834569772163796 78.1765589727923 75 205 254
-680.1356617694784 3.7470300338960953 77.30299638893705 75 205 254
-679.1989121307353 3.7181406845489775 76.79607234496031 75 204 254
-678.8702769001651 4.521158631395696 78.84761967658713 74 204 254
-681.1935366189912 4.424979198598958 79.82510773246277 75 205 254
-678.708513913161 5.4350926581820715 81.41555292720768 75 205 254
-680.4722524007942 3.7742616201274863 77.52133363184812 75 205 254
-678.8901505249552 3.4273599029854047 75.8703838761743 75 204 254
-677.3347618435822 3.68725744685333 75.79917724900729 75 205 254
-682.1507145669269 4.177712889980164 79.56618095661234 74 205 254
-679.6772892989944 4.131525533953845 78.18291602309618 74 204 254
-681.3232625523032 4.555030398639321 80.27669862501473 75 205 254
-681.4455877988541 3.558915296818274 77.24247675286729 74 204 254
-681.09139444177 3.7920702724747812 77.83290878237683 74 204 254
-678.2743986287668 4.544476854948783 78.57396194355739 74 204 254
-679.2659118029809 5.392690161099512 81.62498455302047 74 205 254
-680.5813868649824 4.412565140566947 79.4485518036776 75 205 254
-677.4566108684571 4.944892306516255 79.20286497723593 74 204 254
-679.9282442253977 3.8123917271596746 77.38795156908671 75 205 254
-677.669050883117 4.584648896420518 78.31162489003955 74 205 254
-681.8540699965131 4.3999152560765005 80.1437719947183 75 205 254
-681.2554930397708 4.859126338776694 81.15120752394287 75 205 254
-678.432606250272 4.648734506909925 78.97137050831027 74 205 254
-681.7200682316186 4.719729811687063 81.0381553641343 75 204 254
-678.276732442303 3.972241423840888 77.01978602004213 75 204 254
-681.4986396709816 4.664436680799067 80.7139933680548 75 205 254
-679.0943545507864 4.160542542021531 77.95268029856325 75 205 254
-678.575562894415 4.231254531388064 77.86306458303339 74 205 254
-681.4735017438728 4.75906706857057 80.96227507371424 75 205 254
-678.7304681934471 3.8429893054580013 76.91356212427863 74 204 254
-678.980490631383 4.1040605731885265 77.73839502141578 75 205 254
-679.5713465666772 4.017813292175585 77.80179397885765 75 205 254
-679.8368870140506 3.7461269762485543 77.15769763467092 74 204 254
-677.8335094271697 4.1082200161299625 77.15572525471408 74 204 254
-680.8974836848369 4.67358964985327 80.39366239039644 75 205 254
-679.4268898440115 3.9705890760358713 77.60442628750354 75 205 254
-682.3099911988797 4.29167546090957 80.05038165529488 75 205 254
-678.7355041704212 4.933445405452897 79.94928566537328 75 205 254
-681.0678951460127 4.282999377524412 79.33533483850867 75 205 254
-678.6922299212195 5.549118618191876 81.74628438799046 74 205 254
-681.0504167268066 4.786131521627098 80.83284018937081 75 205 254
-679.6798552353248 3.5914983821269395 76.6783566736789 75 204 254
-678.8618757044293 4.579928771748101 79.31876840253955 75 204 254
-679.8120189959976 3.675237875550579 77.37659940747162 75 204 254
-678.8794840884203 3.9358009229448037 77.6072383023877 75 204 254
-679.3435921084065 3.8032932108303186 77.4958006758006 75 204 254
-681.6732551143014 3.7793220994764525 78.45189432689686 74 204 254
-680.4874060810918 4.881247181247701 81.27199915258427 75 205 254
-681.9538386879841 4.013109172356192 79.39414951781836 74 205 254
-680.6825738122295 4.499368785760666 80.19104787979256 75 205 254
-679.2713338830775 4.4616180330352755 79.30547964858549 75 204 254
-678.9369115057553 5.163554997869518 81.05438343103928 75 205 254
-678.74865617036 5.539440725312797 82.08295913972191 75 205 254
-679.0804770882091 4.51508110313263 79.33677909801376 75 205 254
-679.6345726337279 4.101704649016192 78.47190106307127 74 204 254
-679.8516055961815 4.27509540163004 79.08010093477255 74 205 254
-680.0211543648807 5.016925299211728 81.34492094996011 75 205 254
-681.5363503678242 3.651102620121563 77.99386994344961 74 204 254
-677.940431122942 4.220010243201255 77.83740856361476 74 204 254
-680.2967984389262 4.139467194140096 78.88090542319325 75 205 254
-681.0145516575137 4.260797538568561 79.65618864851054 74 204 254
-677.3129969692937 3.8936248381285417 76.7214598449786 75 205 254
-678.8293928751438 5.646045672507057 82.46545373017061 74 205 254
-679.4842605506628 4.491134069249981 79.48922016573586 74 204 254
-681.1729230152489 3.739900140883819 78.16033410183846 75 205 254
-678.2584896318655 3.936899365300892 77.27151004115491 75 204 254
-681.1924081077711 4.9715000516717325 81.96125925074638 74 205 254
-680.816563025271 4.6325044473149575 80.67096306889374 75 205 254
-679.0098050628715 4.0885467634803305 78.083260233965 75 204 254
-682.3507214736106 4.384302070466628 80.83042672334639 75 205 254
-680.1859437964457 4.623528562180127 80.32320806881451 75 205 254
-681.1943649381549 3.8710324215554266 78.60666368095131 74 204 254
-679.199259365474 5.446260919928431 82.05554333399753 75 205 254
-678.8557271950955 4.490510552128587 79.07915711717486 74 205 254
-678.3074075496321 5.187161895019223 80.74584933367316 75 205 254
-678.5272949846607 4.758012716922753 79.65498390255068 74 205 254
-678.3384307579497 3.411430543059911 75.99782485642233 75 205 254
-678.1292833252145 5.557102998732461 81.738973987907 75 205 254
-679.4828639627882 3.958094660877432 77.98810538423855 75 204 254
-678.074242254918 4.9142862707361665 79.81136717111674 75 205 254
-678.4015419634178 4.07826901472135 77.71394999498015 75 204 254
-678.3572222911528 4.652012462137982 79.24779821075349 74 204 254
-681.6834153153627 4.861024868386362 81.84752068591801 74 205 254
-680.7219340044539 3.906752464737579 78.39763582256417 74 205 254
-678.6756092815352 4.368147228063421 78.6389371869174 74 204 254
-678.1897376263034 5.035748203402271 80.2423819854185 75 205 254
-679.8412235233378 4.889849302822519 80.86436172413643 75 205 254
-681.623960928203 4.232613945213767 79.95570581010927 74 205 254
-682.2667312445458 4.243605077672154 80.33663696077784 75 205 254
-681.1423729177709 4.403676748270115 80.14950747373244 75 205 254
-681.3418182234767 3.9936963401789463 79.05648379515993 74 205 254
-677.5012108887598 4.987987293630084 79.5883115058639 74 205 254
-680.5506059532823 4.376293574259929 79.73741161156251 74 205 254
-680.1776536584827 4.081972731493085 78.6601675170928 75 205 254
-681.9063555073809 4.502565026020868 80.90184604370315 75 205 254
-680.3849127758878 4.258275048460835 79.28514084934895 74 204 254
-680.7760664907005 3.987589139123468 78.70347954635442 74 204 254
-679.2689158308217 4.372556517508727 79.02408644466207 74 205 254
-678.073713246495 4.362957231299436 78.2884601690464 75 204 254
-680.936032422365 4.753296504364979 81.12067928162013 75 205 254
-682.5409187861039 4.502944868252715 81.30447687210955 75 205 254
-678.3755836231666 4.746802577160626 79.55392751602892 75 205 254
-678.1050438734052 4.805349552953992 79.47115331929649 75 205 254
-678.6488979829579 4.640190409667447 79.35156901186865 75 205 254
-679.9151739093676 4.361216038287463 79.3838876198557 74 204 254
-677.9915145242134 5.435218541678516 81.28091027577179 75 205 254
-678.4179020662929 5.7697031815036794 82.54226872007185 74 205 254
-681.2705539949977 4.521920363396834 80.57786983529093 75 205 254
-678.2141943440344 4.505782676926749 78.75666776924213 74 204 254
-682.0614715624317 4.644429150437013 81.39360796141119 75 205 254
-677.7834162965984 4.065862705784454 77.3605377672905 75 204 254
-682.1761375461895 4.353379149969712 80.95379761718556 74 205 254
-679.8035096833398 3.8942624437508115 78.31581307448766 74 204 254
-682.1903406747272 4.16266727170709 80.28567642873253 74 205 254
-677.9057974652973 4.4725958698245805 78.75640035130321 74 204 254
-681.7004509121449 4.511723287281615 81.19418082888775 75 204 254
-679.1904587088785 3.863055139645418 77.9513729271181 75 204 254
-682.2841281971735 4.2156735724173515 80.57017279687882 75 205 254
-678.0463454510058 4.598396143910261 79.16925914312965 74 204 254
-679.8485197395496 4.602253382327053 80.27819576695285 74 205 254
-682.6223219873057 4.36202182585599 81.1883088215611 75 205 254
-679.071840485077 5.664518124585488 82.91787047309403 75 205 254
-681.5471530739045 5.046315660986799 82.71710887823272 74 205 254
-678.5895722907067 5.141786523272472 81.02038187766526 75 205 254
-680.5171363790519 5.236712743575332 82.59514435598032 75 205 254
-679.3975939262355 4.741526421124881 80.37923901954237 74 204 254
-679.6862173399916 5.011031433361229 81.33502842284783 75 205 254
-680.6808879453499 4.835427645994631 81.46412799813059 75 205 254
-679.1693078922856 5.13875092504286 81.38343240398989 75 205 254
-681.2981653434242 4.2059460318437125 80.02302695424049 74 205 254
-681.8109929639609 4.721831300808109 81.84493155808083 75 205 254
-681.4803746145992 4.977536134894258 82.42901228356502 75 205 254
-677.9576286777765 3.841552366117295 77.19611650486357 75 205 254
-678.2795098763501 4.265021563250869 78.42035529338538 74 205 254
-680.3305126384993 5.033378137962398 81.82624547727858 74 205 254
-680.5932943797425 4.7322281073150485 81.0923515872579 74 205 254
-677.6201004483997 4.56391210463369 78.84676091544888 74 205 254
-678.6549047333577 5.904144741443627 83.36747747828224 74 205 254
-678.9855674590336 4.317445463773712 78.9829599259521 75 204 254
-679.6460566938355 3.7364466874056568 77.83625502777139 75 204 254
-680.8517482368287 4.98500167071953 82.04251169677508 75 205 254
-681.9316790775054 4.455584173425294 81.19425924828768 75 204 254
-678.116847560619 5.81870533337224 82.62479248207433 75 205 254
-680.9087411386796 4.48401037468258 80.52219368403068 75 205 254
-679.2218763399538 3.97593838046339 78.25367416461108 75 205 254
-678.0585518561303 5.308287719941784 81.12605405841927 75 205 254
-681.9578876706419 4.338176252928271 80.80492006632689 75 205 254
-682.015781440275 4.935116147884937 82.6393139277132 74 205 254
-681.7241793401276 4.50889206288241 81.13318313828555 75 205 254
-678.850301383963 4.186303354141433 78.55985282394603 74 204 254
-678.9980384371514 5.541188418015583 82.5034544995486 74 205 254
-677.9680896254677 5.149620771595362 80.6268983448516 74 204 254
-679.5885075773602 4.317020548536281 79.34781828247635 74 204 254
-679.7702919940932 5.127552830059383 81.71288253815315 74 205 254
-678.7964618622293 4.095890582944801 78.30095132358764 74 205 254
-682.2358292132819 4.030866288774757 79.73676147315312 74 204 254
-679.3465455955536 4.037049991974559 78.47273437218824 74 205 254
-679.2398991048769 4.585171840735878 79.8529595821665 74 205 254
-679.5290492496702 3.875757072307348 78.14158193988833 75 205 254
-678.1034304045651 4.005608403755254 77.67987050912551 75 204 254
-680.9508820119743 4.747886885886082 81.3701667214115 75 205 254
-679.1116051174243 4.4487536668729994 79.41322369318084 74 204 254
-679.9099639045418 5.254652662746604 82.19249829766105 75 205 254
-680.1614040037093 4.856165707470591 81.19845766532958 75 205 254
-680.8170239180134 4.328002434823013 80.05677224939882 74 204 254
-681.0985210757799 4.701054903322348 81.25536327988924 75 205 254
-678.8353795308544 5.400553265031398 81.97171128085601 75 205 254
-678.7070861125997 4.011738597910217 78.04236776995253 75 204 254
-681.6875886694943 4.592301220959968 81.38574231515184 75 205 254
-678.3723858947533 4.323469522549914 78.6197424374458 74 204 254
-680.4086466174664 5.112677742717096 82.12979658709953 75 205 254
-678.6436913909895 4.607983793182296 79.55211800213824 74 204 254
-682.1779333526354 4.458826292283728 81.3204958695094 75 205 254
-679.2040281243623 5.730665058557037 83.19401387360107 74 205 254
-681.5111364103009 3.873824597017286 78.94965605181443 75 204 254
-680.6121948115959 5.320862139071945 82.92616120908534 74 205 254
-679.5440809138591 5.27502123002623 81.98441447837384 75 205 254
-680.9887407539574 5.094165160652047 82.49617922043683 75 205 254
-678.2418846177276 4.160670507094171 78.13809970248668 75 204 254
-680.3141558840293 3.7664272568507755 78.24004600164216 75 204 254
-679.6683247808747 5.609263424161867 83.10764811856076 74 205 254
-679.5322639354928 4.884403881961067 80.87444642447441 75 205 254
-677.9090563025323 4.38202255612179 78.54011951760653 75 205 254
-678.3980378162578 3.5778049533586085 76.808860339951 74 205 254
-681.5864998521473 4.445215791826289 80.90313802381361 75 205 254
-678.6224248246783 5.795135136420356 82.99893510637774 75 205 254
-681.2107538254947 4.733396605448732 81.46638076026984 74 205 254
-681.8984383480089 4.20796962371109 80.35816254820314 75 205 254
-678.2377457617143 5.68560671862744 82.27083193901741 75 205 254
-681.1544681054442 4.06013082093806 79.51225836473101 74 204 254
-678.3965156208894 5.1888516872532975 81.10947789088605 74 204 254
-678.5786567376838 4.7269413295448395 80.0710470036023 74 204 254
-680.0587367953445 5.011576137110072 81.75953591374576 74 205 254
-680.1129244669457 4.438482184847189 80.29171059400625 74 204 254
-679.2495485450785 4.132693804945347 78.99664671819568 75 204 254
-680.9019129844979 5.268270350242677 83.0521119982946 75 205 254
-681.7838678535018 4.298310676485126 80.97427628949941 74 204 254
-680.7855699623725 3.840188545456261 79.19673995611751 75 204 254
-679.6395835322459 4.580598825270755 80.35372763736231 74 204 254
-678.1620765173056 4.26086265249581 78.68965482491454 74 204 253
-680.6247675955013 5.01898045591253 82.16693418033523 75 205 254
-680.5941080449601 4.287189259895445 80.19281297062868 74 204 254
-680.4801787196293 4.872996394547911 81.67849993934337 75 205 254
-682.162748394237 4.034469784661699 80.41050926657643 74 205 254
-681.2296843438788 4.340178559230871 80.71415406890746 75 205 254
-682.3689924658877 4.322959437118563 81.33800558586577 74 205 254
-681.4155528405895 3.8592536811965914 79.55831272947113 74 204 254
-679.387774820223 4.291084211452304 79.46693989022232 75 204 254
-678.7112647635854 4.886809092384784 80.55619874336554 74 204 254
-681.9285205383683 3.4458128867518703 78.7002414927834 75 204 254
-679.4519330821395 5.02322624782817 81.36176368781332 74 205 254
-679.2346098987048 6.107644069008035 84.19768242092391 74 205 254
-678.9143015315143 4.4318532454984805 79.53508219112435 75 204 254
-678.6311808526452 5.481789062777654 82.03431812715534 75 205 254
-678.4850484770615 3.891653220068836 78.00941981513029 74 204 254
-678.8897817373075 5.768559987911093 82.97723174594465 75 205 254
-678.41873349939 3.8077279785692326 77.771835462612 75 205 254
-682.2823743466997 4.185563201611082 80.88383095891557 75 205 254
-681.1591228936255 4.2575329168040525 80.46734572511957 75 205 254
-678.9081437362788 3.7477982523622373 77.91282765363326 74 204 254
-680.3877174774998 4.723536127261866 81.21073876367817 74 204 254
-678.1310303465925 5.336230319881256 81.2536982582235 75 204 254
-682.1927440608572 3.912458804908894 80.10364349669554 75 204 254
-680.3227153743289 3.9939257450507917 79.28807514797992 75 204 254
-678.4470629891694 4.587637795329304 79.63906866849197 75 204 254
-680.8230731932987 4.466281072617637 80.78958962017582 74 205 254
-681.9818843518215 3.8723487831559 79.88904459460386 74 205 254
-681.2446381863966 5.017063379175585 82.54404613273803 75 205 254
-679.0458389821022 4.58730099366284 79.99638197514251 74 204 254
-678.5108265095749 5.330384908695386 81.56568842762705 75 205 254
-679.5048212450884 4.442355635711277 79.92105006419959 74 204 254
-679.9255182022462 4.860158899154726 81.26614034228851 74 205 254
-681.5360724545106 4.012507175991125 80.03533931199799 74 204 254
-681.0381990569281 4.145468455405741 80.11218375028766 74 205 254
-680.844932277916 4.58333988619755 81.12291703831666 74 204 254
-681.4648444024566 4.588790102741388 81.5234071865893 74 205 254
-681.5390816573467 4.146263880536299 80.41570210132025 74 205 254
-680.2983821442282 4.647141239434003 80.93133034287857 74 205 254
-681.7101773727853 4.169141102158257 80.55548342286059 75 205 254
-679.8554005372924 4.123318866455197 79.35443488993846 75 204 254
-679.975708229448 4.282218433720423 79.81935320699654 74 204 254
-678.9126776918379 5.10507751640376 81.26938910169666 74 205 254
-679.1817167201204 4.731802246439539 80.44217897515036 74 204 254
-678.9928650358939 5.174211047452392 81.49166399530236 75 205 254
-679.6996445595278 5.318396762028907 82.29839656720587 75 205 254
-679.3746971244874 4.945611453955678 81.09474526072907 74 205 254
-679.5658873415265 5.173149330656372 81.8278800530899 75 205 254
-680.9301321968583 3.9961585158534767 79.67345525699827 74 204 254
-681.9201789384072 4.438414076255082 81.44839482457807 75 205 254
-680.1660514592344 5.161213536614742 82.23871966822125 75 205 254
-679.2783627956898 4.895060243514212 80.91647216492834 74 205 254
-678.8440586386871 3.662015321286944 77.67430892148566 75 205 254
-678.2179516517972 5.334250843485027 81.33554089151166 75 205 254
-680.4598184949923 4.136017289836936 79.72898767602254 74 204 254
-681.3138731845896 4.474021854706308 81.10904994081577 74 205 254
-681.5993578872499 4.11301150730338 80.96068327684947 74 204 254
-679.8434640543752 5.6091083076216535 83.65087614019833 75 205 254
-680.3317007865958 5.462304524859121 83.61117391836072 75 205 254
-681.2679595120642 4.446754476413911 81.61856906304605 75 205 254
-679.2868688786326 5.635516778855319 83.32372428668725 75 205 254
-679.9384307919465 4.249211495946746 80.2676428366805 74 204 254
-680.4053563024094 4.10481173099684 80.19834656721024 75 204 254
-679.1584925334586 5.490609324991773 82.84163328901892 75 205 254
-679.9716747420125 5.044899852426056 82.23867804937217 75 205 254
-680.722580788494 3.7856655162805133 79.63203050703896 74 204 254
-680.9018666077652 4.724337033764797 82.07701174910211 74 204 254
-680.7414770559197 4.52812272625939 81.45474308090627 74 205 254
-679.7100306018876 4.730095825658495 81.26923086050162 74 205 254
-681.3885668508217 5.284774818871426 83.9338694083448 75 205 254
-679.4018319631575 3.5935327929772782 78.41211953876034 75 205 254
-679.5011612514255 5.188116362891961 82.28439471116573 75 205 254
-682.0649843756598 3.9936885070740544 80.9044071301223 74 204 254
-682.4396696052314 4.4157704675655935 82.30451072696735 74 205 254
-681.1181468489868 4.251680733187666 81.04428065564915 74 205 254
-679.3175613111916 4.993837822967421 81.6745457605876 74 205 254
-681.4693882361477 3.9784415613021054 80.51926351060239 74 205 254
-681.8180831988008 4.26299307960511 81.50681032519009 74 205 254
-680.2726616484156 4.682299990310451 81.5512830186718 75 205 254
-680.0538259388808 4.411772210009939 80.73500160519761 74 205 254
-680.525279417228 4.266217465369305 80.66670624086763 74 204 254
-679.3992733510299 5.06096677185403 81.89605647227525 75 205 254
-681.2305117755019 4.360967146315463 81.382198174816 75 205 254
-680.419949896557 4.863188125664543 82.13936734127556 74 204 254
-680.182465978069 4.570945098927119 81.20854097884124 74 205 254
-682.6469245184625 4.004271753523476 81.2947115097716 74 204 254
-679.0299342897415 3.878724243556025 78.83563215174279 74 205 254
-679.0273536166726 5.353815147442479 82.38655839426958 75 205 254
-680.6931370369025 5.143279360767018 83.08424428984364 75 205 254
-678.937995976766 5.94882534088476 83.83644992803895 75 205 254
-682.205061816846 4.137381761272508 81.37071837917155 74 205 254
-679.5843814645509 4.569613462327954 80.79931238960016 74 205 254
-682.532083598817 5.2239156177582124 84.59488796573902 74 205 254
-681.8439186961855 4.392617923633139 81.89437695178472 74 205 254
-678.8880929766837 5.239319688555277 81.99312859502643 75 205 254
-678.7125737844267 5.670734173855273 82.91073692511152 75 205 254
-680.0996200601747 5.185467426063113 82.69751783948612 74 205 254
-680.9260288054331 5.4315758432857955 84.03389092360689 75 205 254
-679.4547890718325 4.416415735513727 80.3500028621453 74 204 254
-682.0116628385279 3.5243974442303276 79.61209637246426 74 205 254
-678.9242546021806 3.752513820593503 78.48668747079103 75 205 254
-678.5993872736707 4.115990004903438 79.10043890532201 75 204 254
-679.5466836555315 3.815919623959484 79.00255822819729 74 204 254
-678.5232231469269 5.537377836711585 82.48937563619374 75 205 254
-680.207973202174 5.323761901221324 83.15634421431315 75 205 254
-681.4588962574863 4.70227956334374 82.41646547274777 74 204 254
-680.6400524726207 4.421617111319666 81.12298196344678 74 204 254
-678.9891677779377 4.571847127916961 80.42103703538109 74 204 254
-680.3346210474264 4.765474303389016 81.80890447288604 75 205 254
-679.7463645542621 5.475619145006739 83.2207628221304 75 205 254
-681.3650426386572 4.569835200497671 81.99472736598692 75 205 254
-681.2914377617328 5.137359999568158 83.47421033886665 75 205 254
-680.8017856073492 4.60653847124145 81.69135197912209 75 205 254
-679.4188978341148 5.775938642313395 83.79624421298944 75 205 254
-681.9629312349847 4.558539774664393 82.4071328104263 75 205 254
-682.3196113304463 4.274451791620855 81.81813376663817 75 205 254
-681.6751626019042 4.2294474186381485 81.33982299127412 75 205 254
-678.5084730173226 5.370098268096843 82.03103402684124 75 205 254
-679.1020175669121 4.738351718930055 80.90283984528608 74 204 254
-680.8514451506048 3.9587580278584475 80.1376597988923 74 204 254
-679.2408231492842 4.893790572056147 81.37719666428508 74 205 254
-680.5538990062884 4.999415305284437 82.60480414176864 75 205 254
-681.1717525140577 4.258502943057991 81.7137804756105 74 204 254
-681.7396441614392 4.283442057996265 82.15068290767967 74 204 254
-679.0802776133964 5.373164950156074 83.0207535738264 74 205 254
-681.0094921439312 4.62718696907184 82.48801318746175 75 204 254
-682.1021608890693 4.718263958360932 83.54119491841304 75 205 254
-680.5892375288535 4.270913980129169 81.34198804261892 74 204 254
-681.0723614657272 5.604823223729582 85.16442884193995 75 205 254
-679.7810871334758 4.75303813668107 81.96793318493263 74 204 254
-678.5015491133915 4.366540739889576 80.2815233512132 75 205 254
-679.4054689219823 6.468466571639034 86.12611131402376 75 205 254
-681.1868327682193 5.030392119145528 83.6491853845893 75 205 254
-681.4238087522338 4.584083695332382 82.69649298552604 75 205 254
-681.7428299564756 4.390706607837576 82.45432418363664 75 204 254
-682.9440647114035 4.99843963729068 84.92880832579546 75 205 254
-680.1236202699449 5.94364059614135 85.30683733371092 75 205 254
-680.4045317368319 5.5007641534700085 84.31903520154209 75 205 254
-683.3022640829362 4.71212080728537 84.31795603223361 75 205 254
-682.2967449269304 4.188928189946175 82.20662775791351 74 205 254
-680.1317649194241 5.204354427015492 83.33479514891559 75 205 254
-678.825771607061 5.342839847287138 82.71334651047582 74 205 254
-681.7857264988605 5.0462806887006835 84.13867738366122 74 205 254
-679.6651567249764 5.35222734309259 83.3815378140344 75 205 254
-683.0746355533194 4.468010090912443 83.43594083606884 75 205 254
-682.9715334986363 4.31395941342193 82.95572146025499 75 205 254
-680.8311204373737 4.588754850755478 82.28263680249209 74 205 254
-683.1908327807868 4.600194805565241 83.88660390510749 75 205 254
-682.0170609590576 4.576112969041432 83.11106192002485 75 205 254
-683.5151863982013 4.980215987472583 85.28495112852006 75 205 254
-680.2447954293684 5.361755120062362 83.82326850270748 75 205 254
-682.6147047407554 4.576633062887485 83.48781741686527 75 205 254
-681.4050620074145 4.501294785992581 82.48289901017078 74 205 254
-679.4435999112233 6.499458060421148 86.26878178145238 74 205 254
-681.5340281426813 4.736505093183823 83.14889574630952 75 205 254
-682.8592846008104 4.168110957762355 82.49572494786464 75 205 254
-678.9721889193737 5.2000115454774125 82.50466428727766 75 205 254
-680.2314750931852 4.590837970026293 81.888800664301 74 204 254
-680.0073863355498 5.775802142134356 84.76122329454448 74 205 254
-681.9208339946313 4.425892685425286 82.64461862371138 75 205 254
-682.3706943930622 4.289639402604042 82.51938643469312 74 205 254
-679.9595587760434 4.976871676137211 82.64545686192652 75 205 254
-679.6631997598547 6.10819909192049 85.36523157562917 75 205 254
-680.1907348156632 4.89395569300504 82.59766685129263 75 205 254
-679.3440649320474 5.179865373922095 82.72755704742488 75 205 254
-679.8845654954546 4.897592407330222 82.39690354612029 74 205 254
-680.4430092914748 5.635995020151899 84.72358146638476 75 205 254
-678.6916640305827 5.525452465707044 83.08382125581385 75 205 254
-683.4236696902889 4.839860424463655 84.80052141202484 75 205 254
-678.6798689848432 4.912643849897062 81.64678072373496 75 204 254
-680.3685588871222 4.7324725461851 82.33193314171135 74 205 254
-679.545996219094 5.998485179873406 84.95662468066466 75 205 254
-679.0827179979423 6.128907562697581 84.97945854102473 74 205 254
-680.4783303512281 4.900481636301983 82.82837035082261 74 205 254
-679.4282037429163 5.0502660505137555 82.47021818880017 74 205 254
-681.5329306302747 5.443434604095625 85.04855819458909 75 205 254
-679.1800566395945 6.259364850584593 85.42497692385555 75 205 254
-682.2129387669233 4.866573240158637 84.01453757772254 75 205 254
-679.6324769870282 4.598417905561352 81.49602926793979 74 204 254
-679.4144275332092 5.841579131506009 84.44648864528128 75 205 254
-681.406101182717 5.317433277836411 84.61442739794113 75 205 254
-680.7059896377867 5.210966153033567 83.78987422573908 75 205 254
-680.9378787839619 4.757743287076742 82.77805908591955 75 205 254
-682.4730884881244 4.441627258940606 83.009077561811 75 205 254
-681.155925862611 5.762380287877395 85.65013599698156 75 205 254
-680.851641883954 5.342459840797389 84.25971282925663 74 205 254
-678.6927418176259 5.402195916630809 82.72703631096886 74 205 254
-681.3038964370587 4.414853271593113 82.19160339439624 74 204 254
-679.1624563949609 5.544522445460583 83.51700756107459 75 205 254
-679.3094545861992 5.684509073847956 83.96946422853166 75 205 254
-679.2605167672428 3.9617689183723748 79.77973337206635 74 205 254
-681.6573373267697 4.124997666890302 81.66930617630581 74 204 254
-679.2119953044831 4.026465833391402 79.89550941548062 74 205 254
-681.6510431045324 4.885545316225208 83.61110977316639 75 205 254
-680.7173518803503 4.44283163525596 81.83922198607192 74 204 254
-680.8080094789939 5.757192045960355 85.47351026734626 75 205 254
-681.0665729156087 4.484059943085757 82.55755177276119 74 204 254
-682.6928972967182 5.118485367196634 85.17701310029103 75 205 254
-679.3179047492885 4.261037710247596 80.98925852607142 74 205 254
-679.3157746200502 4.436790847986657 81.36336858053205 75 204 254
-683.0630717619482 4.845455429021449 84.66971458904474 75 205 254
-682.7768672207417 5.2808450795043385 85.66830498092848 75 205 254
-681.4113063440658 4.977113307712429 83.93447686556274 74 205 254
-682.9189113414652 5.429132606239154 86.14999815545198 75 205 254
-681.4964239180616 5.897305510385479 86.34250407175541 75 205 254
-680.7449488044307 6.414658099394661 87.11863025818587 75 204 254
-680.9108970440952 5.003882499602305 83.6754136780257 74 205 254
-682.5353168871518 4.9828145953150695 84.71966365566986 75 205 254
-680.5452528247782 6.216439902903009 86.45454411390001 75 205 254
-681.8275995014675 5.576497344516049 85.74050271450538 75 205 254
-682.9008295644478 4.7113366674619 84.22087411734336 75 205 254
-679.1024406773897 5.742684671437569 84.26458171320856 75 205 254
-680.6707948305082 5.601804351371573 84.98357056719993 75 205 254
-681.1616086405521 4.653909574524786 83.01129063378114 74 205 254
-679.9263777955258 6.254382030131726 86.05326748553024 75 205 254
-682.1960948947099 4.49928181553291 83.2807371254184 75 205 254
-679.9960476796541 5.449673863714299 84.13381125332342 75 205 254
-680.2281603580536 4.112324656317039 81.2009728057356 75 204 254
-680.0882745870116 4.787170014934812 82.65043063205232 74 204 254
-680.3319221090321 5.091864216733736 83.52240467113154 75 205 254
-680.3054478625063 5.200902490420415 83.75306603084653 74 205 254
-682.0853055239138 4.366877087024246 82.87533097320488 74 204 254
-679.7392957546624 6.812942885993973 87.36304146510165 74 205 254
-681.606944722897 5.304495793670434 84.8818285567613 74 205 254
-680.1400958367519 6.513649441274271 86.90765317713229 74 205 254
-681.8484692042105 6.054414637956281 87.05122419644974 75 205 254
-679.5564404549667 4.231319403633176 81.06518436063362 75 205 254
-679.126086630702 5.106483926340562 82.77276199386014 75 204 254
-679.3121833931427 4.311365663437684 81.09826372766392 75 205 254
-679.4021941781609 6.828762176537591 87.11760022142093 74 205 254
-680.0804619846898 6.367215313912499 86.47574819370163 75 205 254
-679.710256631749 6.727554460698649 87.10192315419984 75 205 254
-680.9957359611383 6.31408223643124 87.04299978085528 75 205 254
-683.4940437926646 5.409590968641094 86.54766832468441 75 205 254
-682.3117242878229 4.54954390797014 83.46278856233339 74 205 254
-680.9046636069056 5.132071683938161 83.99043078420166 74 205 254
-682.0831438850936 5.144380628830149 84.81622227902986 75 205 254
-680.0925910850816 5.613966780103613 84.5941964403939 75 205 254
-679.7439151751732 5.931861394898785 85.11267317530996 75 205 254
-682.4335880849377 4.810042266899028 84.22946897085598 75 205 254
-679.9761122462339 4.61008239298749 82.17234518984075 75 204 254
-680.5827265979549 5.428804400706795 84.50184643919935 75 205 254
-681.7519806754912 4.641383052769534 83.37872607998352 75 205 254
-679.4190160598306 6.922707080797451 87.38581653926664 75 204 254
-681.7227643452828 4.7491997369021774 83.61049215130988 75 204 254
-681.2591569311296 5.577524716754315 85.36781488334512 75 205 254
-679.4880810593262 6.4151165171979905 86.10275574913955 75 205 254
-679.6051540723367 5.77202596178099 84.62991203920195 75 205 254
-680.2636610045143 6.5593482501168445 87.11166454454982 74 205 254
-679.4867229662531 5.614054219305295 84.17008593353299 75 205 254
-681.158156155154 5.430309905260756 84.9075720385903 75 205 254
-681.9458469821204 5.7467950260555085 86.28337415194747 75 205 254
-682.3436402768285 4.667320069488905 83.79854679315285 75 205 254
-680.436344846101 5.293625045374 84.06861135429479 75 205 254
-680.4329027867791 6.101215708181655 86.05310685607584 75 205 254
-681.0189347673928 6.061878096528204 86.42331431436847 75 205 254
-681.733186565183 5.4488108106094835 85.33660453817247 75 205 254
-679.6238880162065 6.5678751355108 86.59860724536712 75 205 254
-683.589342265751 4.875174733275639 85.05398424671228 75 205 254
-682.6930603637362 5.8170489751683405 86.9948642825726 75 204 254
-683.7097947573545 5.0225949398119845 85.52417326696555 75 205 254
-682.5320381410121 5.831972953127224 86.88332695236095 75 205 254
-680.3114517973688 6.624121476298345 87.3158521064217 74 205 254
-681.8540127264978 4.80798627345634 83.83933860418854 75 205 254
-679.669282066076 4.130460803161263 80.91135126844746 74 204 254
-683.8413487883219 5.39907924725059 86.74449063633081 75 205 254
-680.893164097928 5.91555127385282 85.94175723772453 75 205 254
-683.0903169355631 5.623956911755691 87.47112174272785 75 205 254
-683.3267334108699 5.174384558133799 86.48236076011308 75 205 254
-683.8290318374376 5.045602205114346 86.42725284790646 75 205 254
-682.0379514351221 5.803450940653658 87.17059226537616 75 205 254
-679.6783152943975 4.879490178447018 83.10756097874359 74 204 254
-679.1817767737418 4.998764957562738 83.16439579869704 75 204 254
-684.0518017916336 5.300995065791312 87.35485643984221 75 205 254
-679.3654687794859 5.374582981868748 84.0837998703112 74 204 254
-682.9571429679622 4.595514505254588 84.5996748251545 75 205 254
-680.4058142007325 6.692144097959339 88.15212195911216 74 205 254
-680.4870067627688 5.2082540046561085 84.45144813244892 74 205 254
-679.7700293249692 4.189538214693112 81.63245470489875 75 205 254
-680.8550579667115 6.533608252390575 88.12918962320381 74 205 254
-682.3268899533139 5.349348354530193 86.15329599638008 75 205 254
-679.497667069337 4.415796341231754 81.95230800373913 75 204 254
-680.6526072954326 6.266465285222651 87.26765868752841 75 205 254
-679.7037404515203 4.0211981535494274 81.22303748875943 75 205 254
-683.0065146117058 5.46036448328163 86.97676061320509 75 205 254
-681.9403100426366 5.641745457220349 86.64674767575943 75 205 254
-681.6694824680314 5.202159518494373 85.28502100718993 75 205 254
-681.0090402989815 5.9845654455813 86.80692385546321 75 205 254
-680.7845401512392 3.992545435244505 81.8322134048442 75 205 254
-682.5410131106405 5.656615313291486 87.09749230305171 75 205 254
-680.0636107602123 6.801333628930362 88.2005976794312 75 204 254
-681.2727604145514 5.496595593818476 85.78312737276231 75 205 254
-681.7257175603792 5.347245772029581 85.70523951098181 75 205 254
-681.5058023597782 5.800183731304472 86.73206472780309 75 205 254
-684.2026019474395 5.385227155562951 87.70212740919827 74 205 254
-680.9397726545302 5.049559236081265 84.3931101233141 74 205 254
-679.7104225348716 6.8884942103145015 88.03850957852386 75 204 254
-681.8355777157288 5.5060228280762615 86.2019783359303 75 205 254
-679.2232883824316 5.963830926377842 85.84553372819099 75 205 254
-683.2809687711343 5.017160928023618 86.02089271679857 75 205 254
-682.9946206401928 4.494723130965056 84.35691291086012 75 205 254
-683.6170188467516 5.451469601225142 87.43977466623932 74 205 254
-682.4088833617033 5.502003047869557 86.59965738747765 75 205 254
-681.6328679389998 3.721305043818159 81.63728588191887 75 204 254
-679.2880686977132 5.819179132243519 85.1046067844358 74 205 254
-679.5307157744907 4.721856793498038 82.64792337609202 75 204 254
-681.0609401930395 4.384242186137758 82.90626375777397 74 204 254
-680.1679398201062 6.468762767079099 87.371349260727 75 205 254
-681.3118113640178 6.371530744978283 88.04038290285297 74 205 254
-680.449941486221 5.983147305166799 86.3681954504336 75 205 254
-679.7778002733467 5.046995415236214 83.56559514788137 74 204 254
-683.2809074177048 4.2885335228575485 84.0281911106516 75 205 254
-679.5902842623631 6.995735537552502 88.2316713944609 75 204 254
-680.9075206965105 5.834808677550235 86.33753814086978 75 205 254
-682.9252165286762 5.32488329706171 86.55076000047025 75 205 254
-679.0934979460607 5.733274096753103 85.10192661160619 75 205 254
-680.321722749822 6.6055097895612676 87.83959194092704 75 205 254
-681.6036251946366 5.946620130654811 87.18652863091447 75 205 254
-679.8584294428397 6.754319797758008 87.86480916052292 74 205 254
-679.3315876764066 5.975642317367345 85.5594843088311 75 205 254
-679.1416679402488 5.886393206228309 85.57771339371509 74 205 254
-681.3873626917846 5.646635620685732 86.2512000152151 75 205 254
-681.0847165738486 6.136260228503911 87.25408037919155 75 205 254
-681.2226493807286 6.268352764966345 87.70371572649472 74 205 254
-680.1129330087128 5.5331204118775865 84.96235446080975 75 205 254
-680.6318906691339 5.2712657961404155 84.71232326443238 75 204 254
-683.3998459326285 4.469166188047939 84.54898214313847 75 205 254
-680.0730985001329 6.2979224358736765 86.8701067216579 74 205 254
-680.722967605565 3.8756083956497918 81.5231383508143 75 205 254
-680.0086354331261 5.361738610078902 84.47483037722029 75 205 254
-680.3617538088636 5.050862533733088 83.98777482396555 74 204 254
-683.930878066466 5.174602508262225 86.89177520538001 75 205 254
-681.1767097523825 4.5497538208078225 83.36183206896345 74 204 254
-679.7255990211487 6.642770958500719 87.43413760780196 75 205 254
-682.1107305000397 5.93176159340284 87.59203561074877 75 205 254
-680.3183179278133 5.831453200625713 85.87399380408867 74 205 254
-682.7782878695306 5.1927596762497075 86.0969022086214 75 205 254
-683.4738900015097 5.318102554339621 86.98210029849514 75 205 254
-682.6301341160303 5.787222916963881 87.53231050115076 75 205 254
-680.3160557007511 6.7563110520337695 88.21295367046179 75 204 254
-679.067821561634 6.038098498534929 85.95629705857093 75 205 254
-679.843569758897 6.91265768520001 88.26403944765872 74 205 254
-681.7459139043325 6.099181058628396 87.70124168753597 75 205 254
-680.5602765883784 6.136859491607932 86.84862346734718 75 205 254
-679.2867331184725 4.373492913598909 81.73971990691255 75 205 254
-680.7589616602565 6.428918745158871 87.77928945665198 75 205 254
-684.0241316803875 5.159601895593095 87.40650671125795 75 205 254
-683.5908959059669 5.274298143577575 87.48713590436269 75 205 254
-681.3974806333633 6.397891666248249 88.69060572968347 75 205 254
-681.4839615485215 5.620705501536602 86.75883191714497 75 205 254
-681.4320552525987 6.477852214587088 88.92395194835507 75 204 254
-683.1811714984767 5.628954216412048 88.04752382267037 75 205 254
-680.8283224524465 6.411046379013342 88.27816476359715 75 205 254
-681.6091070902481 5.093862212625329 85.49902514651129 74 205 254
-681.7209901162117 3.8635008317862187 82.62122334235826 75 204 254
-681.0998030359922 5.970422947982048 87.32922962008928 75 205 254
-679.7348789570581 4.847464798836953 83.61581350652676 75 204 254
-682.6652153068308 4.099139196895123 83.72244829144827 74 204 254
-676.043964767063 7.156954969366286 89.10954435234568 74 205 254
-683.3575906821497 4.395353735228785 84.89514459741895 74 205 254
-680.4848608125117 6.695698460772533 88.73117442337868 74 205 254
-681.8054737698677 6.082998379881058 88.1880827077426 75 205 254
-680.7465270285144 6.254265583020832 87.79940567013415 75 205 254
-679.5641750911866 5.489243882332229 85.07502833666548 74 204 254
-680.3959246588842 6.564480537625482 88.30521253883094 75 205 254
-680.55625480318 6.753322614490582 88.92886429402611 74 205 254
-679.3272094097287 4.648064655599768 82.95477990987725 75 205 254
-679.3077981136697 5.85694528085941 86.09217674359107 75 205 254
-683.3213901618403 5.756545909199605 88.49481223133728 75 205 254
-682.8250135443752 5.905274095577781 88.51360093317172 75 205 254
-682.3856835459293 6.049014419761459 88.59470502812242 75 205 254
-683.9342794570234 5.0236497935463085 86.9353708729327 75 205 254
-679.6791944004743 5.628506215412564 85.41804904919168 74 205 254
-681.1083651822445 5.162416796542313 85.33712901832675 74 205 254
-681.6107865731533 5.776569056485641 87.24582524130442 75 205 254
-681.8719447800091 6.38856267396806 89.03159626297331 74 205 254
-680.5642960016963 5.9654805521629015 86.88806201684562 75 205 254
-681.370497737476 4.705314515362403 84.39911228370791 74 204 254
-681.0711347035187 6.598959490812611 88.9599418708547 75 204 254
-680.2698717807601 6.421057053242308 87.82370695268423 75 205 254
-681.9197094557182 5.492660108794844 86.73660375815335 75 205 254
-683.577735119327 5.793687536087347 88.80172316252438 75 204 254
-683.1288212695757 4.73124202610947 85.6077656634005 75 205 254
-679.9877541588183 4.321877366860203 82.61882811947739 75 204 254
-680.9436830743599 6.5340929003744534 88.6949258620097 74 205 254
-679.9738137575173 5.176756598873254 84.54225466022058 74 204 254
-682.8553804318238 6.012942848295417 88.86180654399448 74 205 254
-680.3087647761156 5.671093649124067 85.96316913622105 75 205 254
-680.6788326787262 5.287998270990393 85.32110810556703 75 205 254
-683.0720156248028 4.603323969110949 85.23422550642073 75 205 254
-680.6626151493404 6.126187941114388 87.38029770709096 75 205 254
-679.7992585647554 7.111208598322044 89.28156589152614 75 204 254
-684.2433806080937 5.4173915602683245 88.34122409467288 75 205 254
-681.4787006363352 6.523264607600254 89.09188280331288 75 204 254
-684.3262313331695 5.515691206890608 88.69045233765345 74 205 254
-682.6475981784196 5.618321248474842 87.59539933032347 75 205 254
-680.4153867012566 5.813777999606398 86.39679202557602 75 205 254
-680.492896127377 6.8651522412557995 89.17494358678539 74 205 254
-680.0752863198616 7.010470247524761 89.20772122685871 74 205 254
-683.4400113653853 5.147846679030103 87.0315704567159 75 205 254
-681.06926991274 6.636914488312197 89.0648975046254 74 205 254
-682.4697645610262 6.13931923547749 88.91456875303439 74 205 254
-681.8925238337089 6.21370143093543 88.62077755410557 75 205 254
-683.6368821255661 5.458230958078499 87.99580395356476 75 205 254
-679.981027586868 4.169014479962602 82.28283796813513 74 204 254
-682.2503232908689 5.901448323549445 88.10560494708402 75 205 254
-679.5096974615177 5.930747999150061 86.1060991734326 74 205 254
-683.0549128864031 5.969893185473204 88.83463374760595 75 205 254
-681.3283119261449 6.238736187583111 88.22148348093238 75 205 254
-681.0414288629081 5.018086337855209 84.92468134266772 74 204 254
-682.1396778017844 5.777869487648061 87.6782292687899 75 205 254
-683.3178196723281 5.907062157325768 88.890575775125 75 205 254
-683.7405489119212 5.579792190744698 88.40417458868143 75 205 254
-680.5555227912864 5.16414600185627 84.9292105503688 74 204 254
-682.7222502948391 5.773896710349767 88.0737744555063 75 205 254
-683.0829026295058 5.464936613616626 87.54319730649742 75 205 254
-682.0489282770839 6.288512456236383 88.97098736345501 75 204 254
-680.1080725005099 6.820837443687662 88.75910731756755 74 205 254
-683.8706361724551 5.673700964521434 88.75736237772595 74 205 254
-682.5944618353601 6.167694820946931 88.99885846119938 75 205 254
-680.9023783562268 4.007421647646851 82.49919945875594 75 204 254
-684.1470465342097 5.2880345890756075 87.87772704295726 75 205 254
-682.479667417116 5.487461905054783 87.13313800768084 75 205 254
-681.8254392804441 5.345197739115278 86.2765190040988 75 205 254
-681.7036680276773 5.933590495576372 87.71173999417542 75 205 254
-680.5169709960788 4.166618643292377 83.0836926288118 75 204 254
-680.8972322458671 5.588629125210865 86.59501249040528 75 205 254
-680.3647769424448 5.658840623120209 86.3647992187032 74 205 254
-679.7668393931096 5.633742634800303 85.98566707366767 75 204 254
-683.1652064382662 6.179931661137232 89.76581325376823 75 205 254
-680.4292080104925 5.735636281161856 86.57729863358932 75 205 254
-684.4193607972544 5.740079891274757 89.62397315205604 74 205 254
-680.4517401845405 6.620981405465557 88.79262565189208 75 205 254
-683.936093168627 5.756193863776719 89.30417720695526 75 205 254
-681.9684888744307 6.613470728528657 89.97889487632662 75 205 254
-683.1417498684134 5.467816762069209 87.917490414863 75 205 254
-681.9741361917089 5.506158997868614 87.15476625553984 74 205 254
-680.0351851047891 5.149459574532941 84.95371401622229 74 204 254
-676.7532500599043 7.689483659835858 89.28278751661928 74 205 254
-682.4732057929488 6.261241092365658 89.48911629467783 74 205 254
-684.2179979668917 5.313649995148257 88.27368384449287 75 205 254
-680.5446740622122 6.768848399794873 89.25314166018273 75 205 254
-683.0300414477701 6.085326457604953 89.37642519343822 74 205 254
-681.8541240929161 6.115398980951301 88.63690802687485 75 205 254
-684.3053776397195 5.449973092915819 88.74616618534469 75 205 254
-681.713206066112 6.642927240195707 89.88347762343506 74 205 254
-683.0562263386139 5.341200468707118 87.5229787405564 74 205 254
-680.1145641923574 4.341644060045105 83.21251914785735 74 204 254
-682.3639999565182 6.116095854101115 89.02599146176114 75 205 254
-683.7192363537683 5.476139051227545 88.39136903448893 75 205 254
-680.8206025771091 5.515009335009353 86.34820752686947 74 205 254
-682.1019744525673 6.395164146001338 89.54287603538891 75 205 254
-680.2863810263165 7.177082396503529 90.16006602116586 74 205 254
-681.7401824834166 5.945024802635402 88.1126532883478 75 205 254
-683.6601595314864 5.295460944730991 87.88136194922626 75 205 254
-681.6327985931265 6.55864625138517 89.58737829090538 75 205 254
-680.755307168257 6.964523562026017 89.91608705925329 75 205 254
-683.371543476166 5.789504949544412 88.91416281625325 75 205 254
-682.9539541231526 5.1814452851753146 87.05153751406314 75 205 254
-682.5940001143081 6.346911753760384 89.82063339642987 74 205 254
-682.8342089625482 5.783673972876546 88.46554817285912 75 205 254
-681.6585825271582 5.793126840060555 87.65803936723285 75 205 254
