-647.2318503537239 -1.1245740055441615 57.77563110006565 75 205 254
-646.0981936194253 -2.0230166229268676 54.134293645052736 75 205 254
-648.6251887518947 -1.364936834701627 56.51542979515273 74 205 254
-648.3865993735945 -1.0664455613182149 57.529760019486304 74 205 254
-647.8951009939879 -1.218205409366366 57.35153277367191 75 204 254
-649.0382521892338 -2.5069134237061768 53.822643760547436 74 205 254
-648.3503502115929 -2.245776440721002 53.621274916701616 74 204 254
-649.8888656514719 -2.105613742268794 54.94856239681945 74 205 254
-646.8595341152488 -0.8989514073525022 57.90976925592545 75 204 254
-649.7325778047486 -2.381840928118489 53.89317058430147 74 205 254
-645.7537029300727 -1.0751552866134482 57.44142352841493 74 205 254
-649.1141814766431 -0.9984306173056794 58.19776413320997 75 205 254
-649.5801114856868 -2.2123758028122893 54.37818125243306 75 205 254
-647.7698217585075 -1.5653804028605194 55.84893230215258 75 205 254
-644.767583787518 -1.0440411613333005 57.22522332585626 75 204 254
-649.2052057678106 -1.5551432765468114 56.231139903731105 75 205 254
-648.4451769648293 -1.3284054275511608 56.418317202689224 75 205 254
-647.8140989364523 -2.4936381728231183 53.01553349026349 75 205 254
-649.1774086173025 -2.60973377965772 53.30483486381539 74 205 254
-648.1332614957869 -2.131660805186968 53.99793101196818 75 204 254
-647.9797272564388 -1.0284008083353804 58.433471219484 74 205 254
-649.2047559107946 -2.335609452153726 53.81097269339545 74 204 254
-648.1931440437589 -0.9140594443159848 58.06506657403969 75 205 254
-650.5969007567792 -2.0198200239021347 55.0193138383247 74 205 254
-649.215191727241 -2.2749238304557977 53.638293192548055 74 205 254
-649.6011359235418 -2.416067319204 53.27338813393915 75 205 254
-650.8773502033144 -2.656312986413287 52.618015021734365 75 205 254
-650.2303638510909 -1.3945843180762125 56.88106971172259 75 205 254
-650.5895997346713 -2.4472425158446676 53.534079349018675 75 205 254
-648.3076493028376 -0.956710720856929 58.11952005578603 75 205 254
-649.5322326742994 -2.278031150540368 53.76034413648043 74 205 254
-648.9995157773434 -0.9747171087702284 58.08298472384931 74 204 254
-648.9255502613616 -0.8729913416682358 58.51029895193974 74 205 254
-649.2062490213125 -1.8252194085351618 55.17675241052111 74 204 254
-650.9401860684121 -2.482880706650601 53.59723915668317 74 205 254
-650.4969544466567 -2.6013504585346716 52.65338428860016 75 205 254
-649.8837985986734 -2.15887233266616 54.356001892628704 75 205 254
-647.9708531851162 -0.6329189481546429 58.96147877524823 75 205 254
-649.1934703947722 -2.3618928688516974 53.345539626900475 75 205 254
-649.6929594191736 -1.8598180261828254 55.2633230077834 75 205 254
-650.3979313570751 -2.1742060994675008 54.467564160589475 75 205 254
-648.3621932242689 -0.689905443614375 58.87056757321245 75 205 254
-649.1087311814773 -2.101146733308589 54.204378852966244 75 204 254
-648.1175690949891 -0.8095485496934813 58.41086453941202 74 205 254
-647.9601263205379 -0.9483568106254019 58.01421856350831 74 205 254
-650.4160984520532 -1.7594387014323516 55.96124075016284 75 205 254
-648.0506650558139 -0.6725111384869358 59.06277992382568 75 205 254
-649.2897639839522 -2.375284988647355 53.30765739466508 74 205 254
-649.8634466583767 -1.0652930527460498 58.26043737023967 74 205 254
-651.2037406208837 -2.695519596377597 52.671137721306984 74 205 254
-650.7224254729624 -2.580861037490884 53.05864909557133 75 205 254
-649.7963525273454 -1.999970164794675 54.79361553242114 75 205 254
-650.4846393626152 -2.370097870082599 53.97866409109379 75 205 254
-649.3108524803519 -1.980025897712224 54.692627881603016 74 205 254
-648.410766918629 -0.8369657601023732 58.45733571967772 75 205 254
-648.3685638979975 -0.640767137681074 59.18658745415122 74 205 254
-649.6534366901467 -0.7750862680496873 59.20081085025604 74 205 254
-649.055003091058 -2.210140905920042 53.86122931870995 75 205 254
-649.4161123156614 -0.8942794853894647 58.63119686272488 74 205 254
-648.3206339130177 -1.1964266256268523 57.14524537869953 75 205 254
-648.3269576668481 -1.0881951551676323 57.503271845615714 74 205 254
-648.6299073819846 -0.9783036807893168 57.91151160211295 75 205 254
-649.0243428736316 -1.9849070898673062 54.57524870682478 74 205 254
-649.7312896266329 -0.9075540180513073 58.74098394791362 74 205 254
-650.3128907102604 -1.5412292008005153 56.41272640945909 75 205 254
-650.2396065399407 -2.54457033043526 52.95722682917875 75 205 254
-650.8586816797397 -2.402285876946628 54.048709418958275 74 205 254
-649.8861475508021 -1.3595179374773032 56.790587119612326 74 204 254
-649.9690074528887 -1.2163244659565287 57.81816580528748 74 205 254
-650.1733300333332 -1.883331412351751 55.400765779206885 75 205 254
-647.7192483273722 -0.9206962160050409 58.03654568006083 75 205 254
-649.9885799995803 -2.307745945429513 53.88407756486294 74 204 254
-649.621383384432 -1.198655026514814 57.7320334979507 75 205 254
-649.1325345166554 -1.1753914652791089 57.60944162734515 74 205 254
-650.3077376568469 -2.00897749715023 54.93504232830166 75 205 254
-648.7760194904931 -1.2222842706622181 57.15999919600646 75 205 254
-647.8638973651103 -1.1870889377415281 57.131889975971205 75 204 254
-648.6404326817102 -1.1483100640248338 57.487547204222246 74 204 254
-648.0035318843017 -0.8805127471851542 58.20561193872266 75 205 254
-650.0494160523189 -1.724526534936679 55.877072329233364 74 204 254
-648.4296332112962 -1.1927953155072792 57.296867915350845 75 205 254
-648.3159643747106 -0.9269804475282193 58.21867618037765 75 204 254
-649.5235143226624 -1.2937001662445446 56.90545871200033 75 205 254
-648.8121765517717 -0.7038406928548149 59.01523055419428 74 204 254
-651.036308767629 -2.595649234905899 53.14404785444012 74 205 254
-647.4915167293998 -2.5077842449936263 52.61399972660372 74 205 254
-645.8667479099367 -2.2679104816697766 53.16501355134044 74 205 254
-648.0753218042128 -2.309496303818726 54.10248474747022 75 205 254
-648.9215487093454 -2.369162156827663 53.26234559567516 74 205 254
-647.8900578299906 -1.7077658019705773 55.421939698037605 74 205 254
-647.6644385968065 -1.7195217594737926 55.33552457103087 74 205 254
-646.2560836638254 -2.298828421862204 53.13549591248555 74 204 254
-649.3630426184518 -2.1358115030864795 54.23465629191605 74 204 254
-647.1916541936489 -1.8901410476938736 54.62769275890826 74 205 254
-648.911397121232 -2.3431347529723965 54.35075344697195 74 205 254
-648.2675101379949 -1.7807486312803817 55.58081260819301 75 205 254
-648.4635612077851 -1.3913963901296178 56.37993596460045 74 205 254
-647.6366368775247 -1.0017903484519977 58.41144387398004 75 205 254
-649.9589710144875 -2.2300310620391244 54.477182484955826 74 205 254
-647.3165825258163 -2.028900601129589 54.73891013874761 74 205 254
-646.8893994332194 -2.417955975659634 52.8997507998642 75 205 254
-649.4946526077068 -1.0263898643935931 58.19310325758718 74 204 254
-650.3022995905627 -2.5925107789413495 53.051849434519454 74 205 254
-650.0282226543796 -1.530511004918317 56.258712207334355 75 204 254
-648.281437451124 -0.9516917292122677 57.9775348188783 74 204 254
-648.2816825494073 -2.104854815380584 54.13213246789623 75 205 254
-648.8697525598008 -1.0954774279899233 57.63257514067498 74 205 254
-648.870426052211 -1.7401345844315124 55.3677671236204 75 205 254
-648.3887576877092 -1.4072361983192252 56.29525200421101 75 205 254
-648.1902342383172 -1.2332673852881904 57.407831227176764 75 205 254
-646.0683090894524 -1.1395658711688874 56.914538613868885 75 205 254
-647.2395827756872 -1.9509805054732716 54.429960471283216 74 205 254
-648.1420868610498 -2.02539393729435 54.504954351537705 75 205 254
-650.0862632406171 -1.2988138886013019 57.35356261489725 75 205 254
-648.2357057957041 -1.541495613857439 56.05058896080551 75 204 254
-647.8728549921859 -1.9870859094752014 55.010193482915504 75 205 254
-648.8889387734243 -2.6595870346159387 52.776755353855314 75 205 254
-650.7144450019601 -2.1917727149049924 54.53042329311728 74 205 254
-647.5254981376062 -1.635425624873946 55.488766402391846 75 205 254
-648.9847985436087 -2.1417577766763003 54.102666222860805 74 205 254
-648.1353373650473 -0.8612924289433046 58.467540243984445 75 205 254
-647.2549325356041 -1.5800560630042604 55.68689077309715 75 205 254
-649.7583086170632 -1.2787332853467532 57.23044959728553 74 204 254
-647.4209425150352 -2.1421911858476754 54.40718365251817 75 205 254
-647.4092742348936 -2.4003345699865157 53.212729843119746 74 205 254
-649.0033796457681 -0.9104753005165733 58.62645709946769 74 205 254
-646.8480508665198 -1.723904048393461 55.264899680229234 75 205 254
-649.1015492006485 -1.7132476077801648 55.54887036559064 74 205 254
-645.8701684739847 -1.1654605857838227 57.02341709757317 75 205 254
-648.4494607068406 -2.19408112934698 54.676884350301926 75 205 254
-649.9473250677993 -2.5509111478679323 52.94437904747471 74 205 254
-648.5069628516006 -1.5496051770808243 56.17758013596563 75 205 254
-651.3134269988748 -2.7352933891356592 52.3224951325137 74 205 254
-649.8433506621168 -2.5013956383476703 52.970096610492206 74 205 254
-646.7224833316758 -0.9914725176269101 58.127836541487206 75 205 254
-647.2318503537239 -1.1245740055441615 57.77563110006565 75 205 254
-646.0981936194253 -2.0230166229268676 54.134293645052736 75 205 254
-648.6251887518947 -1.364936834701627 56.51542979515273 74 205 254
-648.3865993735945 -1.0664455613182149 57.529760019486304 74 205 254
-647.8951009939879 -1.218205409366366 57.35153277367191 75 204 254
-649.0382521892338 -2.5069134237061768 53.822643760547436 74 205 254
-648.3503502115929 -2.245776440721002 53.621274916701616 74 204 254
-649.8888656514719 -2.105613742268794 54.94856239681945 74 205 254
-651.1303931738687 -2.7085452783421395 52.36080102601048 75 205 254
-647.5662832549763 -0.9524282440853327 57.883304197179115 74 205 254
-646.8595341152488 -0.8989514073525022 57.90976925592545 75 204 254
-649.7325778047486 -2.381840928118489 53.89317058430147 74 205 254
-648.221743530559 -1.1640397243688376 57.28486517773134 75 205 254
-649.5828194446146 -1.6996988025622706 55.74939212235246 74 204 254
-649.3475340207065 -2.2383164549279826 54.05829209881615 74 205 254
-645.7537029300727 -1.0751552866134482 57.44142352841493 74 205 254
-649.1141814766431 -0.9984306173056794 58.19776413320997 75 205 254
-649.5801114856868 -2.2123758028122893 54.37818125243306 75 205 254
-647.7698217585075 -1.5653804028605194 55.84893230215258 75 205 254
-644.767583787518 -1.0440411613333005 57.22522332585626 75 204 254
-649.2052057678106 -1.5551432765468114 56.231139903731105 75 205 254
-648.3987396119718 -1.1965263887980626 57.141358692421754 75 205 254
-648.4451769648293 -1.3284054275511608 56.418317202689224 75 205 254
-647.8140989364523 -2.4936381728231183 53.01553349026349 75 205 254
-649.2970173166193 -0.75333690478951 59.13692084237076 75 205 254
-649.2835133896812 -1.252210346157419 57.106838174420226 75 205 254
-649.1774086173025 -2.60973377965772 53.30483486381539 74 205 254
-650.5150504288365 -1.9133638295361628 55.471246931416765 75 205 254
-648.1332614957869 -2.131660805186968 53.99793101196818 75 204 254
-647.9797272564388 -1.0284008083353804 58.433471219484 74 205 254
-649.2047559107946 -2.335609452153726 53.81097269339545 74 204 254
-650.1268099093461 -2.4275514353404084 53.40600206060311 75 205 254
-650.4593454931211 -2.7850146952992354 52.566025433939785 74 205 254
-647.8357907209024 -2.1337395022015713 54.76511250812219 75 205 254
-647.7715004953862 -2.3019871882030145 54.24110628981947 74 205 254
-648.4371214317042 -2.4195094621372135 53.95306039872281 75 205 254
-651.0040498498867 -2.1245857670736044 56.07544127438159 74 205 254
-650.7342972790119 -1.6471229799996188 57.44404353319548 75 205 254
-649.4768966811484 -2.8920637886546032 52.42799137696953 75 204 254
-648.8001212207054 -2.299658269086052 54.51957129044999 75 205 254
-651.3799785318931 -2.3800138923885967 55.22847904643313 74 205 254
-649.1497964631036 -2.162917839330394 55.119972762788876 75 205 254
-648.1352967223696 -2.609484226803115 52.85822090386795 75 205 254
-651.7251924917168 -2.5735756942313373 54.76786504653865 74 205 254
-649.8737530722332 -2.9097030307453373 52.42376819052959 75 205 254
-646.5648863718961 -1.969081591064409 54.99964000377739 74 204 254
-650.2870690720617 -1.3407902496113024 58.439745057906734 75 205 254
-647.3639969633336 -1.6600640367174861 56.137005945831575 74 204 254
-645.2091813071654 -2.1007525611747155 54.22247274700872 74 204 254
-646.7396483282992 -1.5453644460731688 56.48218708731494 74 205 254
-649.0233738306353 -2.026089290786782 55.573661596460276 75 205 254
-650.4302531068987 -1.640073555079475 57.301256518989476 75 205 254
-647.4702592511492 -1.9806537098145007 55.21245294991498 75 205 254
-646.8217144210344 -2.2520464594722647 54.05935171274846 75 205 254
-648.5145490474495 -2.0127411395958923 55.44275008357207 75 205 254
-650.2893024977816 -1.7796856915248682 56.86327579195462 75 205 254
-650.3162729026074 -2.926511891593055 52.41873333643392 75 205 254
-651.6715271080318 -2.8326881708625216 53.28247424526931 74 205 254
-650.0941441813316 -1.5044097645387708 57.79732615131584 75 205 254
-646.1426268767791 -1.3921877393387945 56.83689462059982 74 204 254
-649.6159426575805 -2.600987731215387 53.11524563616581 75 205 254
-646.2353679927738 -1.546475237576061 56.353888311077476 74 204 254
-646.4663051035186 -1.8247029430954562 55.43363887921833 74 204 254
-645.974027019579 -1.817413597448418 55.336906392879015 74 204 254
-648.6210316507677 -2.1591625889658417 54.95720878035306 75 205 254
-648.5611799918532 -2.4724217906602064 53.438584081381805 75 205 254
-650.0215599590089 -2.0731615746078944 55.83564333482274 75 205 254
-648.3576203400618 -2.7264910648909613 52.668153470213234 75 205 254
-644.051538832514 -1.8739019903431071 54.826372191903026 75 204 254
-646.2018729553461 -2.1209499277947756 54.395223676572684 75 204 254
-646.0982996550157 -1.976066571344326 54.86147899591432 74 204 254
-647.1109438714896 -1.53794655251464 56.60989401782245 75 205 254
-651.2240123362001 -2.132273893745978 56.108954978787104 75 205 254
-651.0707933424405 -2.756759148632476 53.68568840275127 75 205 254
-650.7082320119436 -1.2566002194857795 58.952806509099915 74 205 254
-648.8819676159836 -2.4469211321938893 54.0651457506896 75 205 254
-650.5348914155203 -1.371818917164056 58.39059897695671 74 205 254
-647.7802713030492 -2.570571359582555 52.9201139988125 74 205 254
-644.3129233729013 -1.6359836399384342 55.630052443295625 75 205 254
-650.2861848364389 -2.6985222524622046 52.749057239323086 74 205 254
-648.244230346457 -1.5602905518643304 56.84036085091887 75 205 254
-650.692458253116 -2.37375063413819 54.99945587541888 75 205 254
-649.160069734729 -2.5416731362006324 53.08269673408767 75 205 254
-649.3312727144917 -1.7252981663874145 56.6137089886055 75 205 254
-651.5203843355574 -2.7162082664085183 54.23087608098079 74 205 254
-651.7794284322171 -2.825363753248862 53.9227579178423 75 205 254
-650.4184379412102 -2.6524824088117036 53.93398068567331 75 205 254
-651.918405954992 -2.8701801876063016 53.7785655422374 74 205 254
-648.0236454818346 -2.412814467079137 53.47391513274726 74 205 254
-649.8909305910751 -1.9049198871370763 56.28853894505655 75 205 254
-645.4953438987852 -1.8227945606705909 55.219648988268666 75 204 254
-646.6890656454647 -2.127040532231529 54.49598347476467 74 204 254
-648.2891540016765 -2.294257686224512 54.40505778588712 75 205 254
-645.258168531284 -1.5242109912875463 56.171182679415594 75 204 254
-647.2705063420337 -2.2712397184858055 54.17348907291052 74 204 254
-650.6009845957572 -2.2362126848565786 55.46126348417838 75 205 254
-646.33186093157 -2.2201382621128687 53.999465317463525 74 204 254
-648.7002792707826 -2.5789323205601704 52.897559192411705 75 205 254
-651.0563198978202 -1.644729595965856 57.60148196070986 74 205 254
-647.1576806503228 -2.1205234821465204 54.62682968261195 74 205 254
-645.6787979219088 -2.110365147741927 54.30719549814945 75 204 254
-651.4990738305675 -2.8166633670592844 53.77264194663822 74 205 254
-647.5422298391874 -2.3564868888244987 53.55520841722384 74 205 254
-651.4839406234661 -3.201134938174828 51.76763952193571 75 205 254
-644.9011602421607 -2.0831046097217865 54.2233853663566 74 205 254
-651.1010468779846 -2.389531788184179 55.09533809856354 74 205 254
-650.6785124364736 -1.528983098401838 57.921132552814655 74 205 254
-650.708370873093 -2.982498779254641 52.364462235921216 74 205 254
-649.525253400403 -2.049585653537065 55.69431995320819 75 205 254
-648.7207768089145 -2.741179565413436 52.65836195694477 75 205 254
-647.2447304824805 -1.4030730325040537 57.1285297296462 75 205 254
-647.8379923426929 -1.6728930543912846 56.25475104781637 74 205 254
-650.4889540324037 -1.2796179550449693 58.7539325679903 75 205 254
-650.8396647077467 -1.3822120860429479 58.470013703572384 74 205 254
-644.9958764716268 -1.8287815027870593 55.107223918738626 75 204 254
-651.2159055357325 -2.7848195234633337 53.14186265725368 74 205 254
-650.9429474902582 -1.5401287490233813 58.012765762163106 74 205 254
-648.8523978781478 -1.7024985167745967 56.49927158285353 74 205 254
-646.3939551675074 -1.6488279927414453 55.904014343933014 75 204 254
-647.9962236358512 -1.285168663683045 57.78263010888701 75 205 254
-649.9517851161955 -2.596718664703868 53.87199934788747 75 205 254
-650.5828724276618 -2.697729006614029 53.480940224279685 75 205 254
-651.4550309915053 -2.271390202617198 55.69439612894112 74 205 254
-647.9162307932219 -2.2251761599127917 54.463037583849 74 205 254
-651.0630753616794 -2.261808149217927 55.55227392885104 74 205 254
-649.8325779527922 -1.7628232441610052 56.70673439917064 75 205 254
-648.1870074584475 -2.1367477708670997 54.88463585115803 75 205 254
-651.6628679115568 -2.469782125245839 55.05270670001397 75 204 254
-651.520794807268 -2.8136064702000567 53.53105724048966 75 205 254
-649.0214967436702 -2.5227590591301166 53.60752411954736 75 205 254
-645.7451290768882 -1.5338726239871505 56.27558489316032 75 204 254
-650.0632254659423 -2.648664381817852 53.33850038985309 74 205 254
-649.8991817790073 -2.428204506515293 54.27155140846731 75 205 254
-649.7295353837649 -2.177403725723213 55.197989126733425 75 205 254
-649.6112675094072 -2.064471033056293 55.66705232086314 75 205 254
-645.3759586043022 -1.57476757678932 56.11754853666239 74 204 254
-646.3458438858956 -2.0934952271452367 54.47375591553374 75 205 254
-647.5218041653895 -1.8845654973622317 55.62977687641049 74 204 254
-649.0323210423218 -1.9026435380635682 56.019642689048396 75 205 254
-651.3156198501077 -2.367547081641888 55.11176641262291 75 205 254
-649.5776396927067 -1.31261062857239 58.146522237111675 75 205 254
-649.3957835348392 -1.445795505103419 57.70613448093645 75 205 254
-648.6919759631654 -1.41463163554846 57.41344856547841 74 205 254
-651.949162100163 -2.5383143699791972 54.741160036044676 75 205 254
-650.7478177809061 -1.6033978472209292 57.42456323908206 75 205 254
-651.4638294477306 -1.9902165274915902 56.635399510069135 75 205 254
-649.8548913096859 -2.3159690603511898 54.74343835759207 75 205 254
-648.6160593070662 -2.028553207850134 55.42491353578807 74 205 254
-651.498731594494 -1.390942044285623 58.60416607105397 75 205 254
-651.2882201895693 -1.6250679748333887 57.5517073977226 75 205 254
-650.7170294535359 -2.2266761689695045 55.45288459065077 75 205 254
-652.5281582225414 -2.686115469939221 54.433284633820975 75 205 254
-649.8809157188452 -1.8460498698541379 56.634264713654076 75 205 254
-649.3808362627386 -1.7691500650496117 56.59389084312674 75 205 254
-649.2578784648038 -1.3532074525377134 57.80275744950364 75 205 254
-650.6721709339621 -1.4828792386011038 57.895726425128004 75 205 254
-649.372810536614 -2.3005838394542195 54.63020265766564 75 205 254
-649.4587290016915 -1.5790600089517568 57.06551563233955 74 205 254
-650.4398153633239 -2.460796778432762 54.395270861774 75 205 254
-651.5138214774529 -2.618785056590358 54.169230642867504 75 205 254
-646.853758913848 -1.9274144935371638 55.2415766161303 75 205 254
-652.7121983154638 -2.9615356359979437 53.538325834825855 75 205 254
-651.4079383518135 -2.5005964785400963 54.64036531097692 75 205 254
-653.3984701850287 -3.1815013676024932 52.430070777089306 75 205 254
-646.7215839990315 -2.124638588054111 54.477792406195675 74 204 254
-648.8292331484644 -2.2950274122513967 54.460801484902994 75 205 254
-650.0799539387582 -2.2820924423027904 54.96608895017056 75 205 254
-650.2309084445378 -2.193935974229298 55.357776447262836 75 205 254
-650.9746275525116 -1.9674632381164798 56.52352712398569 75 205 254
-649.199992167561 -1.5701398877613713 57.04668668543266 74 205 254
-650.274871644116 -2.105543399869756 55.79946816335059 74 205 254
-651.6701055352763 -2.2891268765839214 55.71732641143884 75 205 254
-652.2857245734934 -2.4209479900290383 55.34348748360574 75 205 254
-648.1930052177509 -1.4135504059990787 57.282694871333106 74 205 254
-644.4995417636319 -1.7701428114055915 55.386003501928805 75 204 254
-651.301375736535 -1.847822678750937 57.09877236267097 75 205 254
-651.8920099663652 -2.9016331296161297 52.66319886920145 75 205 254
-649.9834165407457 -2.1853053477869793 55.226429249111504 75 205 254
-652.9596103026879 -3.109812631457981 52.56074688669194 75 205 254
-649.0576083121077 -1.3062503443155933 57.99447812147666 75 205 254
-645.5569408846563 -1.8655908038648015 55.19530364947312 75 205 254
-649.6134381546295 -2.5635207487373286 53.679527720722994 75 205 254
-650.7065061572656 -2.733490905316625 53.451461039764666 75 205 254
-653.1242841236282 -3.0972220414675036 53.14862700494485 75 204 254
-651.1970917861291 -2.2608305431044435 55.57382863597315 75 205 254
-650.8717751393615 -1.8064233546575714 57.01277249811675 75 205 254
-650.5228368329468 -1.359463557669649 58.35455419610834 75 205 254
-649.8880488535785 -1.7224548765060774 56.82921690821918 74 205 254
-651.073438731128 -2.6019920045160276 54.03227321502921 75 205 254
-650.1722930339603 -1.4688892587169242 57.75814226405901 75 205 254
-649.1192325931196 -2.042832333302872 55.56020472811233 74 205 254
-650.4183786860953 -1.8070068542593347 56.8735231295302 75 205 254
-651.1197920355062 -2.757613398011898 53.57392978215709 75 205 254
-645.0783502195142 -1.8709920054468903 55.10837809406624 75 204 254
-651.8160011437815 -2.3918200524743405 55.232809113557536 75 205 254
-651.1691752114731 -1.503985294662641 58.00254508538232 75 205 254
-649.9780099380548 -2.575866988438829 53.79778577376323 75 205 254
-650.1092036436401 -2.6773548472750157 53.4970941102214 74 205 254
-647.9179340225284 -1.734577898208535 56.22806207835417 75 205 254
-648.7372300192361 -1.5677225749096237 56.930719225809945 75 205 254
-649.5754467994749 -1.6716951466179246 56.834457180310906 75 205 254
-647.6915941933091 -1.414002171351047 57.13702562717861 74 204 254
-649.1899764066642 -2.157519023834798 55.08162964191529 75 205 254
-648.51015620182 -1.8947822826681993 55.880240751844255 74 205 254
-650.9745755482454 -2.4834085716225864 54.50996409502688 75 205 254
-650.0368848120326 -2.1664610000027977 55.405105762941695 75 204 254
-651.799216756933 -1.8643795882438283 57.24475284992797 75 205 254
-650.2672146710975 -2.6819972484672796 53.28138607342096 75 205 254
-652.195341060367 -2.3273299105623977 55.820673559430084 75 205 254
-649.8029805813195 -1.5793176511767903 57.18128770985692 75 205 254
-649.1104033882132 -1.4339354962160478 57.49637412823158 75 205 254
-651.7175415754008 -1.6440782427900444 57.681892940464664 75 205 254
-650.8763170102113 -2.3497531046450604 54.992649839746235 75 205 254
-645.8556673643486 -1.5561538391582808 56.23670898753989 75 204 254
-650.9898673612217 -1.368820867510042 58.50496719185104 75 205 254
-652.0057590514917 -2.6600058030804945 54.25660375751804 75 205 254
-650.2830130566985 -1.9138730146126974 56.65536709722678 75 204 254
-647.4258049929197 -1.7294518360664526 56.11322661499688 74 205 254
-650.2116182328323 -2.591046456311325 53.78858719126995 74 205 254
-650.0463514532354 -1.923427487408059 56.299575601970545 75 205 254
-646.0814961961412 -1.872073005276878 55.27705670438029 75 204 254
-648.4042737210784 -1.740712369967838 56.35529352009232 74 205 254
-652.6598443466446 -2.8084650563276554 53.95169387462723 75 205 254
-649.3739765403417 -1.3497986634818915 57.97790800419108 75 205 254
-652.4110134584605 -2.5619343331327897 54.866535410186536 75 205 254
-651.2660929542944 -2.835281010031693 53.05186709944374 75 205 254
-652.8565931584016 -3.082895922558208 53.006544814476406 75 205 254
-650.0455480019738 -1.3372105863549706 58.250025839209684 74 205 254
-653.2952203928226 -3.160014855548834 52.74383160218899 74 205 254
-650.5581507453194 -2.5944615178769794 53.922758759317404 75 205 254
-651.9517895974869 -2.0230318475393894 56.731935114961246 75 205 254
-652.3829091663775 -3.0112362174600484 52.81692705283458 75 205 254
-649.081037693234 -1.9341425675143533 55.45545519036184 75 205 254
-653.7382490997696 -2.8766625544476803 53.60444014564939 75 205 254
-652.8381711867926 -2.840354717971902 53.313358045642005 75 204 254
-652.97033632965 -1.9208341494902825 56.89222298377796 75 205 254
-651.7069040591824 -1.0891266288662393 59.257683822091984 75 205 254
-650.7451063100094 -2.1086913112069112 55.34898915900859 74 204 254
-648.6808783468266 -1.178804562257234 57.84208242839298 74 204 254
-649.4524246337307 -2.16815288807339 54.623928011582066 75 205 254
-650.9345599363777 -1.1214367425753053 58.86327571289121 75 205 254
-649.6696709496049 -1.2606718296611632 57.65078744678001 75 205 254
-652.5394784442191 -2.680973181669895 53.77366392782385 74 205 254
-650.508913061022 -2.321227968626186 54.247802133476014 74 204 254
-653.0592569061506 -2.5937597054488037 54.411448484582515 75 205 254
-648.7167993002654 -1.2834081640010133 57.48101611084033 75 205 254
-651.6977393827015 -2.661526839434341 53.62546067933289 74 205 254
-652.3435828971118 -2.8081605195171306 53.25490612545384 75 205 254
-653.5243249245547 -3.018977042713175 52.505550465837 75 205 254
-652.9290862897485 -2.4448676091047226 54.969113712966355 75 205 254
-654.0864442507968 -2.8842165578961207 53.68536282637726 74 205 254
-651.1974019359775 -2.6385953277268683 53.46439043950334 75 205 254
-649.4603896530814 -1.647906684478528 56.55232444536493 75 205 254
-652.6189073802481 -1.2962855057325235 58.26488404220199 74 205 254
-652.0568111660186 -2.5206039073940048 54.14947370539029 74 205 254
-651.4333219004876 -1.1395194317962876 58.95380700220513 75 205 254
-648.0739436186957 -1.82601601576021 55.64878103052883 74 204 254
-653.6175629417994 -2.392371904071716 55.49407384445411 75 204 254
-651.4299613858838 -2.728910100316618 53.24804273546883 75 204 254
-652.4701033630466 -1.9446997219069964 56.67137766962836 74 205 254
-653.3538442204991 -2.1286072547203574 56.50718997879096 75 204 254
-652.1523882560224 -2.6791650694866966 53.69669925101616 75 205 254
-653.9940358268783 -3.0936279774822317 52.779508271644225 75 205 254
-649.5746048854289 -1.2335629890551871 57.96291235468597 74 204 254
-648.544272440517 -1.8244927515432963 55.76537538437129 74 204 254
-648.6777348642657 -1.9266403423226812 55.34802204346851 75 204 254
-651.7547024032685 -1.2774091372629108 58.020962314570774 75 205 254
-652.5159624763644 -1.8488028484236843 56.881285385713454 74 205 254
-650.4088830869102 -1.6812687065984235 56.715823706685974 74 205 254
-654.1469351216841 -3.033409413332638 53.331478464161336 74 205 254
-648.8547667247394 -1.6674426704264427 56.39088862185944 75 205 254
-652.4794889380738 -2.8399143437601886 52.77265824236758 75 205 254
-651.9485187544582 -1.1534312219012328 59.07346071829703 75 205 254
-652.4212415911884 -2.4418056716064314 54.77909811863843 75 205 254
-653.440922641521 -2.2348243405874086 56.11993705319738 75 204 254
-651.735294339796 -2.1524784872510594 55.58987074568598 75 205 254
-651.4771837296244 -2.392136587897234 54.51490221737739 74 204 254
-651.9577425565176 -2.4251373365799793 54.63532302284239 75 205 254
-649.0504452164477 -1.6062837283049056 56.546637141172994 75 204 254
-650.8428786854813 -2.2484417390393006 54.868227539068215 74 205 254
-651.6178773909554 -2.4879528826422117 54.038800517968326 74 204 254
-649.2010409889738 -2.144033108200791 54.656965237822995 75 204 254
-653.9658392293542 -2.751157845366805 54.16240037283634 74 205 254
-650.3576617098848 -2.2257078352272934 54.76333698768213 74 204 254
-651.2493941961826 -1.265601527213704 57.927146103034566 74 205 254
-652.2167613068248 -1.501003436366183 57.63047518532123 75 205 254
-650.0890439193621 -1.213996987228139 58.088952955589505 74 204 254
-652.1717839945968 -1.2856219875880441 58.13401316806973 75 205 254
-653.3519040649882 -2.3593969324613333 55.49371050992387 75 205 254
-651.1904455006988 -1.4526127382244596 57.430326697563665 74 205 254
-650.8969825429078 -1.7042630388781994 56.832091739873185 75 205 254
-652.519610081091 -1.2430474233682105 58.712602835182814 75 205 254
-649.88427401166 -2.2110555396124667 54.60343049291641 75 204 254
-649.7480897449296 -2.0735353986350127 55.09301705340514 75 204 254
-652.4180220693374 -1.16194995281327 59.20279995516634 75 205 254
-653.5695665901575 -2.6290780161546543 54.564372560637175 75 205 254
-651.848477407324 -1.7384551130569328 57.0643448046334 75 205 254
-651.0656232746345 -1.2179518469550814 58.334392851788046 74 205 254
-652.9596454018152 -2.932016813314906 52.85897538048374 75 205 254
-649.0876536400774 -1.2102027579847459 57.89909629599177 75 204 254
-651.3942134709631 -1.7249561728203986 56.93336576506994 75 205 254
-649.6676582715977 -1.958487632489458 55.560292027345085 74 204 254
-649.3461259378975 -2.0679334026812732 54.97214784161568 74 204 254
-652.722653677764 -1.1599284440147883 59.335991150494266 75 204 254
-652.8489690234306 -1.2527151476878622 58.79674684688809 74 205 254
-652.7862632225368 -2.554491729109774 54.479845286573735 75 205 254
-651.10707814806 -2.4741367002753023 53.92498154849803 74 204 254
-649.9680911291382 -1.6582420697424745 56.520750266368275 75 204 254
-650.6821952185519 -2.57816772102548 53.439376214689446 74 205 254
-653.1692002916081 -2.6948950346921663 53.94047292630928 75 205 254
-650.9758699457018 -2.355568008612874 54.388228609780754 74 205 254
-652.8591373468498 -2.2168943171442486 55.82763724432498 74 205 254
-650.5822335010901 -1.2132390123931707 58.20653123693806 74 204 254
-650.2375358983323 -2.097615417450278 55.18770209266429 74 204 254
-652.0702160590179 -2.7819483333910675 52.877668724522934 75 205 254
-653.1579718277738 -2.1223337594621405 56.45113729002994 74 205 254
-648.4683612585847 -1.2070696388965843 57.73005298076913 75 205 254
-652.2589687279296 -1.7737990912303943 57.15825817153445 74 205 254
-649.1271622348404 -1.7254955788409063 56.0762898307718 74 205 254
-653.2803112239634 -2.8664550325230955 53.503132987534244 75 205 254
-651.484534256719 -1.2222197945709325 58.59215053689371 74 205 254
-651.5160250164091 -1.8697949149735926 56.52186594010774 75 205 254
-648.9580674786619 -2.06792952986601 54.86143270835527 74 205 254
-653.147497908688 -1.7466596531041674 57.52068806174039 75 204 254
-651.1950646050625 -1.2081502790557153 58.16253173304645 74 205 254
-653.8816514051292 -3.0267414239021306 53.139624366396355 75 205 254
-653.6316665193431 -2.7269460038976874 54.057213268751475 75 205 254
-649.0398479756652 -1.841536076413135 55.853047295085425 74 204 254
-652.088334820406 -2.0562240261769844 56.17901324134503 75 205 254
-652.7773552449694 -1.5028226664997213 57.80248818323678 74 205 254
-652.6663464769337 -2.186257393369651 55.8785779544617 75 205 254
-651.2508692779525 -2.1328018439687817 55.462209513636935 74 205 254
-653.8816392059084 -3.009853672189447 52.56208043098367 75 205 254
-654.4080285389789 -2.3373716033746064 55.65113637161281 74 205 254
-652.6701071745156 -1.0806874244307068 59.14274416582091 75 205 254
-652.4776467811342 -1.5244136918481495 57.61149298796584 75 205 254
-653.2086923555847 -1.6765051059682996 57.37350306858066 74 205 254
-653.181669679958 -1.8660552889822029 56.795833093744164 75 205 254
-653.4777918472016 -2.9622889362026754 52.51125285418249 75 205 254
-653.9559108138718 -2.181992438935122 55.9994471639161 75 205 254
-654.2373661637903 -2.8656032641688753 53.05001093266724 74 204 254
-653.5087697489339 -1.5530280228120468 57.894285285302814 75 205 254
-652.643177521111 -1.7010855800200169 57.128248768321825 75 205 254
-652.1875841911767 -1.1682018485592813 58.63395019356053 74 205 254
-653.9284878414296 -2.68061525461712 54.0258642665228 75 205 254
-653.6187726663419 -2.532273286099592 54.497910158058026 74 205 254
-652.3300250115677 -1.1454996022561197 58.450516594135166 74 205 254
-654.7570579286433 -2.7318267241358356 54.237856205514916 74 205 254
-649.9620680916075 -1.649608237625813 56.53351117594079 74 205 254
-653.5678730602788 -2.1041053892340145 56.08702533388413 75 204 254
-653.0568903105337 -2.264801404905267 55.28353157897895 75 205 254
-651.2477513836038 -1.7975529830173649 56.3298235097656 74 204 254
-653.641639232233 -2.688579129200658 53.51903665643893 74 205 254
-652.519352265871 -2.7786890279905982 52.974559907661096 74 205 254
-652.8136994990106 -1.1897323271762872 58.622286124586445 75 204 254
-653.0888619435613 -2.675738528139288 53.532977088019635 75 205 254
-652.6206411074784 -0.962673905525083 59.523703605244116 75 205 254
-652.124444081372 -1.681148809752262 57.02578734774727 75 205 254
-652.8301144492139 -1.9880397735008764 56.20460424737117 75 205 254
-653.1735185454456 -2.8865586819089124 52.796030504276864 75 205 254
-653.0774423370567 -1.5460607113876286 57.75147532821911 75 205 254
-652.8821919322505 -1.3526415240904512 58.24286810361527 75 205 254
-653.8026115740093 -2.419340289259633 55.0100984961283 75 205 254
-652.9298662477678 -2.1323158540843075 55.756731622828546 75 205 254
-654.7469774643562 -3.0659252230576612 52.68661235724792 75 205 254
-653.7040980514408 -2.8688157174303086 52.932698614770196 75 205 254
-654.5140323096517 -2.4544786720791656 55.18378335814961 75 205 254
-653.0492531326901 -1.725662428120824 57.22225183241406 75 205 254
-653.7241569295829 -1.4210273607818245 58.42543069608455 74 205 254
-652.5556812669505 -1.1460747977237276 58.9644192814294 75 204 254
-650.0769593921053 -1.7748543853324108 56.12435428662643 75 204 254
-653.1681064965031 -1.1156918988057924 59.24900322413714 75 205 254
-652.8090428309902 -2.5041799702837935 54.224069882739926 74 204 254
-653.2687374821862 -1.9918975481037826 56.374337649705474 75 205 254
-652.0214163109088 -1.5015167434637249 57.511396811003635 74 205 254
-655.0111719853265 -2.9693261459500278 53.30495432436616 74 205 254
-653.8711697698843 -2.5654065431590993 54.48566644389982 75 205 254
-653.9585582660612 -1.7587117526123386 57.4759224927325 74 205 254
-651.7240994902828 -1.8173984162681194 56.41713557768503 74 205 254
-653.7193821939807 -1.8789320016542916 56.95942524155644 75 205 254
-654.1592187610014 -2.4385574358962323 55.08257907258078 75 205 254
-651.3805538536346 -1.9359820717512015 55.83631314923744 74 204 254
-652.3956316692933 -1.3776360367592737 58.00512040622183 75 205 254
-654.6096217652083 -2.8990322610095376 53.11343281965164 75 204 254
-651.4981678049571 -1.3294581981440672 57.71493751648334 75 205 254
-652.7909724621675 -2.8459433646220056 52.812929401939485 75 205 254
-653.5991937685424 -1.7298804097339513 57.40381092143505 75 205 254
-652.2539961814127 -2.3628421504218124 54.57170906296864 74 204 254
-653.8635703901931 -1.5559146184325314 58.031064688256194 74 205 254
-653.7333128289561 -2.3130078185277085 55.38592971361555 74 205 254
-654.412239735221 -2.7102573058402655 54.14304418311387 75 205 254
-653.2826258515763 -1.2287140267928969 58.7815245658864 74 205 254
-652.0217940872028 -1.131691082418957 58.290269607725186 74 205 254
-650.6705160663676 -1.4885844783033875 57.054887037737515 75 205 254
-652.4505597249565 -1.259382318882139 58.22932207616258 74 205 254
-650.7869304414061 -1.784884058215379 56.18975020604881 74 204 254
-654.6606488533874 -2.6220544814129703 54.67837446406813 74 205 254
-654.3045931672918 -2.588346341497484 54.61955662334925 75 205 254
-653.3613823567702 -1.3978753889155975 58.33159908680989 75 205 254
-650.9058501934192 -1.9165140014349866 55.727477013471635 75 204 254
-653.3551998932232 -1.82868316515723 56.96072050686307 75 204 254
-653.5646068350634 -2.4287895654755793 54.901358449245556 74 205 254
-653.2539565004067 -2.6557793222720285 53.48279485007185 75 205 254
-654.0886316010026 -2.317522061870168 55.54875013778954 75 205 254
-653.4872368012826 -2.276897655588037 55.4291796616071 75 205 254
-653.3987687053517 -2.1575799551304335 55.850857879302716 75 205 254
-651.1875080035477 -1.0405534641905163 58.78289330937672 74 204 254
-654.277527560252 -2.2016682726234116 56.10181507619403 75 205 254
-652.5948543723958 -2.2413446870808578 55.17001021972848 74 205 254
-650.3354512503558 -1.7659251770837976 56.14968898331053 75 205 254
-652.1017748513159 -2.22424693015666 55.03240106412583 74 204 254
-652.2438258539272 -1.8305013753808055 56.566152537679585 75 205 254
-652.736059171212 -1.4340244706397272 58.00543267051123 75 204 254
-652.8757599820825 -1.5429011283740408 57.69431671317436 74 205 254
-650.5774853761648 -1.9080957156036575 55.65012560248108 75 205 254
-654.0592557663089 -1.9092962600902759 57.0236090491057 74 205 254
-650.2695927695881 -1.5393000613198602 56.82488748685977 75 205 254
-654.5354549438973 -2.834445051056285 53.66192085112812 75 205 254
-654.1895273013827 -2.0585256666888085 56.56191107567701 74 205 254
-653.5375566208534 -2.017076016704408 56.37971761806795 74 205 254
-653.5148180414363 -1.1352057519758603 59.32723906374795 74 205 254
-653.1928273142319 -2.4101580573073242 54.81842658213422 75 205 254
-652.4653558537589 -2.116466993224453 55.62755485000025 74 205 254
-654.0304275007425 -2.775519288315973 53.497364394445725 74 204 254
-651.1401925962954 -1.355143770128187 57.540574486997045 74 205 254
-652.0305301259363 -1.1847591261773935 58.14998241810642 74 205 254
-652.1801553390158 -1.084758155481822 58.96759814327842 75 205 254
-654.2779776456631 -3.0366525463516183 52.58826203248236 75 205 254
-653.8155533636289 -2.0350351404686897 56.45950582222904 75 205 254
-651.5997733136026 -2.209262431420143 54.908087922413515 74 204 254
-653.638262244766 -1.241675005923419 58.94017366549947 74 205 254
-652.7501355441995 -1.8422842545949933 56.71206135373404 75 205 254
-653.8816392059084 -3.009853672189447 52.56208043098367 75 205 254
-654.4080285389789 -2.3373716033746064 55.65113637161281 74 205 254
-654.641684562939 -1.439750166897003 57.886170962714075 75 205 254
-652.6701071745156 -1.0806874244307068 59.14274416582091 75 205 254
-652.4776467811342 -1.5244136918481495 57.61149298796584 75 205 254
-653.2086923555847 -1.6765051059682996 57.37350306858066 74 205 254
-653.181669679958 -1.8660552889822029 56.795833093744164 75 205 254
-653.4777918472016 -2.9622889362026754 52.51125285418249 75 205 254
-653.9559108138718 -2.181992438935122 55.9994471639161 75 205 254
-654.2373661637903 -2.8656032641688753 53.05001093266724 74 204 254
-653.5087697489339 -1.5530280228120468 57.894285285302814 75 205 254
-654.5641750745242 -1.6714353415629972 57.06066965886525 74 205 254
-652.643177521111 -1.7010855800200169 57.128248768321825 75 205 254
-652.1875841911767 -1.1682018485592813 58.63395019356053 74 205 254
-654.4358801272388 -1.5295926523114893 57.55765876143418 74 205 254
-653.9284878414296 -2.68061525461712 54.0258642665228 75 205 254
-653.6187726663419 -2.532273286099592 54.497910158058026 74 205 254
-652.3300250115677 -1.1454996022561197 58.450516594135166 74 205 254
-654.7570579286433 -2.7318267241358356 54.237856205514916 74 205 254
-649.9620680916075 -1.649608237625813 56.53351117594079 74 205 254
-653.5678730602788 -2.1041053892340145 56.08702533388413 75 204 254
-653.0568903105337 -2.264801404905267 55.28353157897895 75 205 254
-651.2477513836038 -1.7975529830173649 56.3298235097656 74 204 254
-653.641639232233 -2.688579129200658 53.51903665643893 74 205 254
-653.6665973646675 -1.5787257944138453 57.238863405957666 75 205 254
-652.519352265871 -2.7786890279905982 52.974559907661096 74 205 254
-652.8136994990106 -1.1897323271762872 58.622286124586445 75 204 254
-653.0888619435613 -2.675738528139288 53.532977088019635 75 205 254
-652.6206411074784 -0.962673905525083 59.523703605244116 75 205 254
-652.124444081372 -1.681148809752262 57.02578734774727 75 205 254
-652.8301144492139 -1.9880397735008764 56.20460424737117 75 205 254
-653.1735185454456 -2.8865586819089124 52.796030504276864 75 205 254
-653.638262244766 -1.241675005923419 58.94017366549947 74 205 254
-653.0774423370567 -1.5460607113876286 57.75147532821911 75 205 254
-652.8821919322505 -1.3526415240904512 58.24286810361527 75 205 254
-653.8026115740093 -2.419340289259633 55.0100984961283 75 205 254
-652.9298662477678 -2.1323158540843075 55.756731622828546 75 205 254
-654.7469774643562 -3.0659252230576612 52.68661235724792 75 205 254
-653.7040980514408 -2.8688157174303086 52.932698614770196 75 205 254
-654.5140323096517 -2.4544786720791656 55.18378335814961 75 205 254
-653.0492531326901 -1.725662428120824 57.22225183241406 75 205 254
-653.7241569295829 -1.4210273607818245 58.42543069608455 74 205 254
-648.544272440517 -1.8244927515432963 55.76537538437129 74 204 254
-652.5556812669505 -1.1460747977237276 58.9644192814294 75 204 254
-650.0769593921053 -1.7748543853324108 56.12435428662643 75 204 254
-653.1681064965031 -1.1156918988057924 59.24900322413714 75 205 254
-652.8090428309902 -2.5041799702837935 54.224069882739926 74 204 254
-655.1308619467229 -2.39039720392595 54.77698330172537 74 205 254
-648.6777348642657 -1.9266403423226812 55.34802204346851 75 204 254
-651.7547024032685 -1.2774091372629108 58.020962314570774 75 205 254
-652.5159624763644 -1.8488028484236843 56.881285385713454 74 205 254
-650.4088830869102 -1.6812687065984235 56.715823706685974 74 205 254
-648.8547667247394 -1.6674426704264427 56.39088862185944 75 205 254
-654.1469351216841 -3.033409413332638 53.331478464161336 74 205 254
-653.2687374821862 -1.9918975481037826 56.374337649705474 75 205 254
-652.0214163109088 -1.5015167434637249 57.511396811003635 74 205 254
-652.4794889380738 -2.8399143437601886 52.77265824236758 75 205 254
-655.0111719853265 -2.9693261459500278 53.30495432436616 74 205 254
-651.9485187544582 -1.1534312219012328 59.07346071829703 75 205 254
-652.4212415911884 -2.4418056716064314 54.77909811863843 75 205 254
-653.440922641521 -2.2348243405874086 56.11993705319738 75 204 254
-651.735294339796 -2.1524784872510594 55.58987074568598 75 205 254
-651.4771837296244 -2.392136587897234 54.51490221737739 74 204 254
-654.5342591704654 -1.3530466971109334 58.055482213685316 75 204 254
-651.9577425565176 -2.4251373365799793 54.63532302284239 75 205 254
-649.0504452164477 -1.6062837283049056 56.546637141172994 75 204 254
-650.8428786854813 -2.2484417390393006 54.868227539068215 74 205 254
-654.2963231922097 -1.067034145228991 58.95690813856094 75 204 254
-653.8711697698843 -2.5654065431590993 54.48566644389982 75 205 254
-653.9585582660612 -1.7587117526123386 57.4759224927325 74 205 254
-651.7240994902828 -1.8173984162681194 56.41713557768503 74 205 254
-651.6178773909554 -2.4879528826422117 54.038800517968326 74 204 254
-649.2010409889738 -2.144033108200791 54.656965237822995 75 204 254
-653.7193821939807 -1.8789320016542916 56.95942524155644 75 205 254
-653.9658392293542 -2.751157845366805 54.16240037283634 74 205 254
-654.1592187610014 -2.4385574358962323 55.08257907258078 75 205 254
-651.3805538536346 -1.9359820717512015 55.83631314923744 74 204 254
-650.3576617098848 -2.2257078352272934 54.76333698768213 74 204 254
-652.3956316692933 -1.3776360367592737 58.00512040622183 75 205 254
-654.5724012265093 -1.753842373813434 56.82894589888011 75 204 254
-654.6096217652083 -2.8990322610095376 53.11343281965164 75 204 254
-651.4981678049571 -1.3294581981440672 57.71493751648334 75 205 254
-652.7909724621675 -2.8459433646220056 52.812929401939485 75 205 254
-653.5991937685424 -1.7298804097339513 57.40381092143505 75 205 254
-652.2539961814127 -2.3628421504218124 54.57170906296864 74 204 254
-653.8635703901931 -1.5559146184325314 58.031064688256194 74 205 254
-654.3351111287 -1.7393695251222354 56.770584479967106 75 205 254
-651.2493941961826 -1.265601527213704 57.927146103034566 74 205 254
-653.7333128289561 -2.3130078185277085 55.38592971361555 74 205 254
-654.412239735221 -2.7102573058402655 54.14304418311387 75 205 254
-652.2167613068248 -1.501003436366183 57.63047518532123 75 205 254
-654.0582441704532 -1.5455904313059392 57.40635458174004 74 205 254
-650.0890439193621 -1.213996987228139 58.088952955589505 74 204 254
-652.1717839945968 -1.2856219875880441 58.13401316806973 75 205 254
-653.3519040649882 -2.3593969324613333 55.49371050992387 75 205 254
-653.2826258515763 -1.2287140267928969 58.7815245658864 74 205 254
-652.0217940872028 -1.131691082418957 58.290269607725186 74 205 254
-650.6705160663676 -1.4885844783033875 57.054887037737515 75 205 254
-651.1904455006988 -1.4526127382244596 57.430326697563665 74 205 254
-650.8969825429078 -1.7042630388781994 56.832091739873185 75 205 254
-652.519610081091 -1.2430474233682105 58.712602835182814 75 205 254
-652.4505597249565 -1.259382318882139 58.22932207616258 74 205 254
-649.88427401166 -2.2110555396124667 54.60343049291641 75 204 254
-649.7480897449296 -2.0735353986350127 55.09301705340514 75 204 254
-650.7869304414061 -1.784884058215379 56.18975020604881 74 204 254
-654.6606488533874 -2.6220544814129703 54.67837446406813 74 205 254
-652.4180220693374 -1.16194995281327 59.20279995516634 75 205 254
-653.5695665901575 -2.6290780161546543 54.564372560637175 75 205 254
-651.848477407324 -1.7384551130569328 57.0643448046334 75 205 254
-654.3045931672918 -2.588346341497484 54.61955662334925 75 205 254
-651.0656232746345 -1.2179518469550814 58.334392851788046 74 205 254
-654.1165126215265 -0.9728705710959957 59.29293655830392 75 204 254
-654.4293083863735 -1.4087933044122138 57.879213490354864 74 205 254
-653.3613823567702 -1.3978753889155975 58.33159908680989 75 205 254
-650.9058501934192 -1.9165140014349866 55.727477013471635 75 204 254
-653.3551998932232 -1.82868316515723 56.96072050686307 75 204 254
-652.9596454018152 -2.932016813314906 52.85897538048374 75 205 254
-653.5646068350634 -2.4287895654755793 54.901358449245556 74 205 254
-653.2539565004067 -2.6557793222720285 53.48279485007185 75 205 254
-654.0886316010026 -2.317522061870168 55.54875013778954 75 205 254
-653.4872368012826 -2.276897655588037 55.4291796616071 75 205 254
-653.3987687053517 -2.1575799551304335 55.850857879302716 75 205 254
-649.0876536400774 -1.2102027579847459 57.89909629599177 75 204 254
-651.1875080035477 -1.0405534641905163 58.78289330937672 74 204 254
-654.277527560252 -2.2016682726234116 56.10181507619403 75 205 254
-649.6676582715977 -1.958487632489458 55.560292027345085 74 204 254
-651.3942134709631 -1.7249561728203986 56.93336576506994 75 205 254
-649.3461259378975 -2.0679334026812732 54.97214784161568 74 204 254
-652.5948543723958 -2.2413446870808578 55.17001021972848 74 205 254
-652.722653677764 -1.1599284440147883 59.335991150494266 75 204 254
-650.3354512503558 -1.7659251770837976 56.14968898331053 75 205 254
-652.1017748513159 -2.22424693015666 55.03240106412583 74 204 254
-652.8489690234306 -1.2527151476878622 58.79674684688809 74 205 254
-652.7862632225368 -2.554491729109774 54.479845286573735 75 205 254
-652.2438258539272 -1.8305013753808055 56.566152537679585 75 205 254
-654.2178413458481 -1.0761149498436318 58.91461882317981 75 205 254
-651.10707814806 -2.4741367002753023 53.92498154849803 74 204 254
-652.736059171212 -1.4340244706397272 58.00543267051123 75 204 254
-652.8757599820825 -1.5429011283740408 57.69431671317436 74 205 254
-650.5774853761648 -1.9080957156036575 55.65012560248108 75 205 254
-649.9680911291382 -1.6582420697424745 56.520750266368275 75 204 254
