-44.97800064086914 15.552045822143555 70.14443969726562 75 205 254
-42.613800048828125 15.522408485412598 72.501708984375 75 204 254
-45.86130905151367 16.169204711914062 71.4771957397461 75 204 254
-42.12038803100586 15.355219841003418 72.46497344970703 75 205 254
-44.86777114868164 16.091815948486328 72.39292907714844 75 205 254
-42.54764175415039 15.796892166137695 74.03290557861328 75 205 254
-42.111053466796875 15.398476600646973 72.78575897216797 74 205 254
-42.030723571777344 15.798738479614258 74.6800537109375 75 205 254
-40.613563537597656 14.81308650970459 72.33685302734375 75 205 254
-44.553958892822266 16.07129669189453 72.30580139160156 74 205 254
-44.603336334228516 16.044719696044922 72.5777816772461 75 205 254
-43.21391296386719 15.677995681762695 72.31285858154297 75 205 254
-43.580604553222656 16.321224212646484 75.3970947265625 74 204 254
-40.02243423461914 14.636641502380371 72.4238510131836 75 204 254
-41.998634338378906 15.47712516784668 73.22880554199219 75 205 254
-45.13590621948242 15.607266426086426 69.96208190917969 75 204 254
-40.0269775390625 14.688663482666016 72.65303039550781 74 204 253
-45.53357696533203 16.07639503479004 71.36204528808594 75 205 254
-42.0385627746582 15.775015830993652 74.58258819580078 74 205 254
-45.39897918701172 16.299047470092773 73.03973388671875 75 205 254
-44.55012130737305 16.504465103149414 75.20577239990234 75 205 254
-42.23622512817383 15.41954231262207 72.93161010742188 74 205 254
-42.58529281616211 16.224756240844727 75.89070892333984 75 204 254
-42.12897491455078 15.961516380310059 75.29200744628906 74 205 254
-46.28251647949219 15.831771850585938 69.68028259277344 75 204 254
-44.04905700683594 16.687503814697266 76.58711242675781 74 205 254
-40.86322784423828 15.055538177490234 72.98673248291016 75 205 254
-44.06580352783203 16.464780807495117 75.56446075439453 74 205 254
-44.59575653076172 15.46748161315918 70.16272735595703 74 205 254
-44.285282135009766 16.10593605041504 73.43024444580078 75 204 254
-44.507659912109375 16.302677154541016 74.13524627685547 75 205 254
-42.418601989746094 15.50078010559082 72.97062683105469 75 204 254
-44.10686492919922 15.92017650604248 72.43119049072266 75 205 254
-45.09260559082031 15.93854808807373 71.23307800292969 75 204 254
-45.06967544555664 16.336477279663086 73.79609680175781 75 205 254
-43.092681884765625 16.178815841674805 75.2446517944336 74 204 254
-42.237457275390625 15.905473709106445 74.93480682373047 74 204 254
-41.047828674316406 14.934008598327637 72.25792694091797 75 205 254
-44.44414138793945 16.11460304260254 73.02586364746094 75 204 254
-44.70503616333008 16.470733642578125 74.73082733154297 75 205 254
-45.210445404052734 16.119815826416016 72.43208312988281 75 205 254
-43.723846435546875 16.59540367126465 76.49800872802734 75 204 254
-42.946292877197266 16.265962600708008 75.71963500976562 75 204 254
-42.87858581542969 15.658567428588867 73.12818908691406 75 204 254
-41.487152099609375 15.601244926452637 74.542236328125 74 205 254
-43.51974105834961 15.828170776367188 72.7412109375 75 205 254
-42.14502716064453 15.651446342468262 73.81283569335938 74 204 254
-39.801937103271484 14.533859252929688 72.33378601074219 75 205 254
-44.78361511230469 16.155292510986328 72.29844665527344 75 205 254
-43.92295837402344 15.95756721496582 72.89871215820312 75 204 254
-42.213409423828125 15.738527297973633 74.37036895751953 74 205 254
-42.85422134399414 15.960134506225586 74.61455535888672 75 204 254
-41.08318328857422 15.344780921936035 73.97638702392578 75 204 254
-43.692626953125 16.113780975341797 75.48259735107422 75 204 254
-44.55683898925781 15.840243339538574 73.18145751953125 75 204 254
-43.35288619995117 15.235390663146973 71.97452545166016 75 205 254
-43.38990020751953 15.407153129577637 72.62205505371094 74 205 254
-44.97712707519531 15.684442520141602 71.71294403076172 75 204 254
-43.72627258300781 15.794953346252441 73.94281005859375 75 204 254
-43.35201644897461 15.804841041564941 74.52543640136719 74 205 254
-43.76604461669922 15.460487365722656 72.32340240478516 75 205 254
-45.33385467529297 15.869795799255371 72.41249084472656 75 204 254
-43.522396087646484 15.295208930969238 71.9347152709961 74 204 254
-43.472171783447266 15.360546112060547 72.21121215820312 75 205 254
-41.76841735839844 15.210424423217773 73.8176040649414 74 204 253
-42.499088287353516 15.698309898376465 74.92112731933594 74 205 254
-46.005226135253906 15.870748519897461 71.13670349121094 75 205 254
-45.05747604370117 16.776716232299805 76.96392059326172 75 205 254
-44.70985412597656 15.771842002868652 72.70183563232422 75 204 254
-46.85849380493164 16.19051170349121 72.15242767333984 75 204 254
-45.9954719543457 15.968161582946777 72.05915832519531 74 205 254
-42.51929473876953 15.257874488830566 73.05276489257812 75 205 254
-43.108123779296875 15.689603805541992 74.25395965576172 75 204 254
-43.24094009399414 15.861587524414062 74.85848236083984 75 205 254
-43.33113479614258 15.472601890563965 73.02516174316406 75 205 254
-45.63618850708008 16.071718215942383 73.02642059326172 75 204 254
-44.865596771240234 15.715779304504395 72.2708740234375 74 204 254
-43.36259078979492 16.015281677246094 75.39054107666016 74 204 254
-42.690582275390625 15.196059226989746 72.574951171875 75 205 254
-43.381805419921875 15.673484802246094 73.79188537597656 75 204 254
-46.425106048583984 16.08963394165039 72.19331359863281 74 205 254
-43.116050720214844 15.336406707763672 72.6669921875 75 204 254
-43.85805130004883 16.055988311767578 75.03494262695312 75 204 254
-46.57771301269531 16.098901748657227 71.67428588867188 74 204 254
-44.47976303100586 16.143234252929688 74.71331024169922 74 204 254
-44.57963562011719 16.39486312866211 75.78189086914062 74 204 254
-43.671138763427734 15.539461135864258 72.86842346191406 75 204 254
-45.597171783447266 16.424440383911133 74.49195861816406 74 204 254
-46.45810317993164 16.07161521911621 71.89453125 75 204 254
-46.24403762817383 15.75207233428955 70.41427612304688 75 205 254
-45.21293640136719 16.710416793823242 76.50882720947266 74 205 254
-45.775367736816406 16.581689834594727 75.0889663696289 74 205 254
-42.96354675292969 15.412269592285156 73.1730728149414 75 204 254
-45.46260070800781 16.120012283325195 73.42412567138672 74 204 254
-42.34687423706055 15.325852394104004 73.5355224609375 75 205 254
-44.45136642456055 16.471853256225586 76.2409439086914 74 205 254
-45.40998840332031 16.457250595092773 74.9837646484375 75 205 254
-44.38788986206055 15.550504684448242 72.08295440673828 75 204 254
-43.18362808227539 15.616673469543457 73.8094253540039 75 204 254
-41.415061950683594 15.048712730407715 73.59078979492188 74 204 254
-46.029788970947266 15.950482368469238 71.56892395019531 75 205 254
-41.62516784667969 14.9287748336792 72.78728485107422 74 205 254
-43.57954788208008 15.840862274169922 74.3712158203125 75 204 254
-44.715187072753906 16.67681312561035 76.90718841552734 74 204 254
-43.87377166748047 16.378936767578125 76.46990203857422 74 204 253
-46.258514404296875 16.373437881469727 73.70339965820312 75 205 254
-43.05210494995117 16.00613021850586 75.61248779296875 74 205 254
-44.30109405517578 16.19635009765625 75.16099548339844 74 204 254
-45.92178726196289 16.263765335083008 73.56784057617188 74 205 254
-44.0467529296875 15.664432525634766 72.99300384521484 75 204 254
-45.483421325683594 15.815055847167969 71.85907745361328 75 205 254
-43.95701217651367 15.417991638183594 72.00361633300781 75 204 254
-42.93142318725586 15.201822280883789 72.2354965209961 75 204 254
-45.71162414550781 16.33843231201172 74.06509399414062 75 205 254
-45.27388000488281 16.198383331298828 73.95006561279297 75 205 254
-45.16697311401367 15.921123504638672 72.85045623779297 75 204 254
-44.3692626953125 15.905998229980469 73.64875793457031 75 204 254
-43.61676788330078 16.286060333251953 76.28801727294922 75 204 254
-41.90680694580078 15.156335830688477 73.36561584472656 74 205 254
-44.024173736572266 15.992857933044434 74.55171203613281 75 204 254
-46.72272491455078 15.848322868347168 70.3068618774414 75 205 254
-44.21599197387695 15.611085891723633 72.56004333496094 75 204 254
-45.06611633300781 16.54581642150879 75.91275787353516 74 205 254
-43.465824127197266 15.935429573059082 74.92723846435547 74 204 254
-42.230560302734375 15.044925689697266 72.51155090332031 75 205 254
-43.13698196411133 15.945687294006348 75.31395721435547 74 204 254
-45.226802825927734 16.490203857421875 75.46882629394531 74 205 254
-44.97090530395508 15.971060752868652 73.31961822509766 74 204 254
-43.49863815307617 15.591886520385742 73.30677795410156 75 204 254
-45.56581115722656 16.59431266784668 75.58557891845703 75 205 254
-42.104881286621094 15.445721626281738 74.35047912597656 75 204 254
-45.606719970703125 15.599960327148438 70.57110595703125 75 204 254
-45.7901611328125 16.00061798095703 72.5248794555664 75 204 254
-44.15993881225586 16.26017951965332 75.62801361083984 74 204 254
-46.74845886230469 16.182790756225586 72.3269271850586 75 205 254
-43.89545440673828 15.736032485961914 73.46207427978516 75 204 254
-43.31461715698242 15.755637168884277 74.25640106201172 74 205 254
-46.08258056640625 16.447141647338867 74.12286376953125 74 205 254
-44.953365325927734 16.305912017822266 74.8865966796875 74 205 254
-41.83447265625 15.322162628173828 74.158935546875 74 205 254
-43.97849655151367 16.33424186706543 76.13204193115234 75 204 254
-44.78268814086914 16.34857940673828 75.30909729003906 74 205 254
-47.43302917480469 15.973353385925293 70.39925384521484 75 205 254
-43.269535064697266 15.518331527709961 73.25945281982422 74 205 254
-46.26610565185547 16.125865936279297 72.6376724243164 75 204 254
-41.476436614990234 14.983771324157715 73.21728515625 74 205 254
-41.058589935302734 14.791431427001953 73.03691864013672 75 205 254
-46.924617767333984 16.187236785888672 71.83512878417969 75 205 254
-43.54256057739258 16.19957160949707 75.96612548828125 75 204 254
-42.80903625488281 15.488572120666504 73.6723861694336 75 205 254
-47.10133361816406 15.910837173461914 70.28312683105469 75 204 254
-46.42447280883789 16.287220001220703 73.23201751708984 75 205 254
-44.77088165283203 16.046720504760742 73.81871795654297 74 204 254
-44.587894439697266 16.384035110473633 76.67887115478516 75 205 254
-44.6328010559082 16.19420623779297 75.89157104492188 74 204 254
-43.928680419921875 15.484906196594238 73.61524200439453 75 204 254
-43.477928161621094 15.325125694274902 73.47575378417969 75 205 254
-44.30978775024414 15.61190414428711 73.71621704101562 75 205 254
-43.46452331542969 15.759408950805664 75.31550598144531 75 205 254
-42.7290153503418 15.262263298034668 74.17394256591797 75 205 254
-43.91282653808594 15.81563949584961 75.11149597167969 75 204 254
-44.42071533203125 15.530266761779785 73.22984313964844 74 205 254
-46.873416900634766 16.60673713684082 74.9605484008789 74 205 254
-43.158050537109375 15.42917251586914 74.3643569946289 75 205 254
-46.0949592590332 16.34528350830078 74.7073974609375 75 205 254
-44.84125518798828 15.818349838256836 73.95978546142578 75 205 254
-47.0997200012207 16.626352310180664 74.51405334472656 75 205 254
-42.56201171875 14.976334571838379 73.1633529663086 74 205 254
-44.3321533203125 16.091636657714844 75.77147674560547 75 205 254
-46.42753982543945 16.20852279663086 73.81983947753906 74 205 254
-43.22581481933594 15.093937873840332 72.81183624267578 75 205 254
-43.811912536621094 15.197761535644531 72.53456115722656 75 205 254
-45.045318603515625 15.763372421264648 73.42413330078125 74 204 254
-43.03533935546875 15.157052993774414 73.31061553955078 75 205 254
-44.199363708496094 15.680129051208496 74.1799545288086 75 204 254
-45.53828048706055 16.504919052124023 76.20670318603516 75 205 254
-44.98997497558594 16.06304931640625 74.95662689208984 74 204 254
-45.89783477783203 16.375682830810547 75.2623519897461 75 205 254
-43.36177062988281 15.040284156799316 72.42005157470703 75 205 254
-47.55998229980469 16.327980041503906 73.1505355834961 75 205 254
-43.63788604736328 15.600305557250977 74.51786804199219 75 204 254
-47.23173141479492 16.461936950683594 74.07453918457031 74 205 254
-45.286258697509766 16.655908584594727 77.11432647705078 74 205 254
-47.700130462646484 16.25838851928711 72.69676208496094 74 205 254
-43.66456985473633 15.249696731567383 72.92518615722656 75 205 254
-46.513980865478516 16.497461318969727 74.87464904785156 75 205 254
-44.12516784667969 16.019681930541992 75.68868255615234 74 205 254
-46.322818756103516 16.53181266784668 75.44989013671875 75 205 254
-46.541908264160156 16.701580047607422 75.99129486083984 74 205 254
-46.29483413696289 15.920889854431152 72.7489242553711 75 204 254
-45.41417694091797 16.58443832397461 76.68437957763672 75 205 254
-46.00884246826172 15.773005485534668 72.1147689819336 75 204 254
-45.683448791503906 16.784914016723633 77.26728820800781 74 205 254
-43.090484619140625 15.506121635437012 74.72787475585938 74 204 254
-45.58522033691406 16.17595672607422 74.62826538085938 75 205 254
-45.770233154296875 16.439495086669922 75.700927734375 74 205 254
-45.3497314453125 15.622391700744629 72.45358276367188 74 204 254
-46.18680953979492 16.84089469909668 76.94295501708984 74 205 254
-46.12591552734375 15.9968843460083 73.22747802734375 74 204 254
-46.295684814453125 16.318758010864258 74.1776123046875 74 205 254
-46.00043487548828 16.634288787841797 76.25421905517578 75 205 254
-42.43475341796875 15.134087562561035 73.99317169189453 74 204 254
-44.25099563598633 16.164356231689453 76.1396255493164 74 205 254
-44.473731994628906 15.765870094299316 74.18033599853516 74 205 254
-44.28875732421875 15.362141609191895 72.65472412109375 75 204 254
-44.490543365478516 15.69871997833252 73.8493881225586 75 205 254
-45.26598358154297 16.724140167236328 77.4279556274414 74 205 254
-44.45655822753906 15.807966232299805 74.4830551147461 75 204 254
-46.88621520996094 16.358036041259766 73.98418426513672 74 205 254
-44.61492156982422 15.600441932678223 73.25139617919922 74 204 254
-45.85096740722656 16.714872360229492 76.77781677246094 75 205 254
-45.80939483642578 16.161449432373047 74.10724639892578 75 205 254
-46.77497863769531 16.075416564941406 72.90706634521484 74 204 254
-44.2651252746582 15.947712898254395 75.27779388427734 75 205 254
-45.30396270751953 15.985815048217773 74.07657623291016 75 205 254
-41.825889587402344 14.620723724365234 72.67694091796875 75 205 254
-44.88719177246094 16.50447654724121 76.88493347167969 75 205 254
-42.793827056884766 15.378251075744629 74.53218841552734 75 205 254
-44.51986312866211 16.280006408691406 76.33100128173828 74 205 254
-44.94702911376953 15.504039764404297 72.3556900024414 75 204 254
-47.88487243652344 16.28095817565918 72.54459381103516 75 205 254
-44.58343505859375 15.926353454589844 74.82003021240234 74 204 254
-45.22402572631836 15.689741134643555 72.93001556396484 74 204 254
-44.96524429321289 16.436948776245117 76.52367401123047 74 204 254
-47.19695281982422 16.213394165039062 73.04692840576172 75 205 254
-44.056095123291016 15.746317863464355 74.64910888671875 75 204 254
-41.99279022216797 14.853209495544434 73.38854217529297 74 205 254
-44.74618911743164 15.523755073547363 72.7906494140625 75 204 254
-42.850067138671875 15.205968856811523 73.78115844726562 75 205 254
-44.46807861328125 15.997967720031738 75.25651550292969 75 205 254
-47.8223876953125 16.189664840698242 72.28629302978516 74 205 254
-46.604400634765625 16.147924423217773 73.35885620117188 74 205 254
-43.79840087890625 15.541990280151367 74.0506591796875 75 205 254
-44.27226257324219 15.559147834777832 73.3454360961914 75 205 254
-45.96529769897461 16.077558517456055 73.72647094726562 74 204 254
-45.0969352722168 16.345199584960938 76.02996063232422 75 205 254
-45.521915435791016 15.918702125549316 73.54493713378906 74 204 254
-46.379425048828125 16.767681121826172 76.41542053222656 74 205 254
-47.51268768310547 16.11392593383789 72.1544418334961 74 205 254
-45.670352935791016 15.848668098449707 73.09564208984375 74 204 254
-46.19829559326172 16.57144546508789 75.81694793701172 75 205 254
-44.363372802734375 15.856011390686035 74.78289031982422 75 205 254
-44.453460693359375 15.482757568359375 72.95955657958984 75 205 254
-46.46165084838867 15.882555961608887 72.24085998535156 75 204 254
-46.70213317871094 16.66864013671875 75.58056640625 75 204 254
-45.4886360168457 16.226144790649414 75.08668518066406 75 205 254
-43.339778900146484 15.384608268737793 73.93270111083984 75 205 254
-47.9425048828125 16.223501205444336 72.13682556152344 74 205 254
-44.36311340332031 15.314800262451172 72.34076690673828 75 205 254
-47.614532470703125 16.139123916625977 71.93464660644531 74 205 254
-45.842002868652344 15.781210899353027 72.62483978271484 74 204 254
-44.07749938964844 16.087215423583984 76.00081634521484 74 205 254
-46.059059143066406 16.901748657226562 77.36326599121094 74 205 254
-45.927330017089844 16.199628829956055 75.37682342529297 74 204 254
-47.77429962158203 16.76325035095215 75.49506378173828 74 205 254
-45.21636962890625 15.455720901489258 73.06765747070312 75 204 254
-46.46965408325195 15.667320251464844 72.43223571777344 75 205 254
-43.85371780395508 15.328754425048828 74.16937255859375 75 205 254
-43.38472366333008 15.143548965454102 74.03447723388672 75 205 254
-48.358333587646484 16.48404884338379 74.0154037475586 75 205 254
-48.50374221801758 16.452634811401367 73.6188735961914 74 205 254
-44.7420539855957 15.667740821838379 74.47142028808594 75 205 254
-45.204078674316406 16.197193145751953 76.17387390136719 74 205 254
-48.86238098144531 16.309202194213867 72.58768463134766 75 205 254
-45.65424728393555 15.996468544006348 74.7568359375 74 204 254
-46.30026626586914 16.120515823364258 74.46566772460938 74 204 254
-47.26152801513672 16.038942337036133 73.13636016845703 74 205 254
-46.140254974365234 16.167797088623047 74.84818267822266 74 205 254
-46.58159255981445 16.323701858520508 74.99011993408203 74 204 254
-43.700599670410156 15.382689476013184 74.61317443847656 75 204 254
-44.98967742919922 16.115177154541016 76.09146118164062 74 205 254
-46.7022705078125 16.571460723876953 76.13015747070312 74 204 254
-45.505149841308594 16.40420150756836 76.73062896728516 74 205 254
-47.5711784362793 15.892691612243652 72.1194076538086 74 204 253
-46.45365524291992 16.016033172607422 73.96332550048828 74 204 254
-43.04943084716797 14.910088539123535 73.49715423583984 74 205 254
-45.25663757324219 15.971965789794922 75.2642822265625 75 205 254
-44.041141510009766 15.606242179870605 75.11650085449219 75 205 254
-48.65607452392578 16.275508880615234 72.61245727539062 74 205 254
-43.533973693847656 15.098978996276855 73.59101104736328 75 205 254
-45.0885124206543 16.04560661315918 75.66808319091797 75 205 254
-46.80965805053711 15.894652366638184 73.0173568725586 74 204 254
-47.66896438598633 16.81792449951172 75.87508392333984 74 205 254
-47.32817459106445 16.89655303955078 76.86378479003906 75 205 254
-45.17772674560547 15.682197570800781 73.93841552734375 75 205 254
-48.066673278808594 16.05762481689453 72.35091400146484 74 204 254
-45.30367660522461 15.627002716064453 73.656982421875 75 205 254
-45.55648422241211 15.700325012207031 73.66387939453125 75 204 254
-48.253231048583984 16.273775100708008 72.99043273925781 75 205 254
-46.1829719543457 15.797683715820312 73.35315704345703 74 204 254
-47.179622650146484 15.798820495605469 72.01464080810547 75 205 254
-48.44050216674805 16.322959899902344 72.90678405761719 74 205 254
-45.66678237915039 15.612330436706543 73.19322967529297 74 204 254
-44.92298889160156 15.618632316589355 74.0137710571289 75 204 254
-45.06557083129883 15.78835678100586 74.62071228027344 74 205 254
-44.751060485839844 15.286354064941406 72.89322662353516 75 205 254
-47.895172119140625 16.471311569213867 74.32901763916016 75 205 254
-48.707481384277344 16.41178321838379 73.0359878540039 75 205 254
-47.4627685546875 16.643352508544922 75.34663391113281 75 205 254
-45.80108642578125 15.941956520080566 74.30023956298828 74 205 254
-44.17720413208008 15.189126968383789 73.1655044555664 75 205 254
-46.98630905151367 17.0411434173584 77.74132537841797 75 205 254
-47.201133728027344 16.420318603515625 74.68184661865234 74 204 254
-48.65078353881836 16.469629287719727 73.49322509765625 75 205 254
-45.256866455078125 15.396099090576172 72.69071197509766 75 205 254
-44.268470764160156 15.495651245117188 74.34564971923828 75 205 254
-46.25198745727539 16.865076065063477 77.8377685546875 75 205 254
-44.4202995300293 15.784004211425781 75.38997650146484 75 204 254
-48.506675720214844 16.389814376831055 73.28682708740234 75 205 254
-46.925655364990234 16.155881881713867 74.03858947753906 74 205 254
-45.98503494262695 15.854640007019043 73.8162612915039 74 204 254
-45.20562744140625 16.263755798339844 76.47813415527344 74 205 254
-45.91293716430664 16.564786911010742 76.92010498046875 75 205 254
-45.373104095458984 15.778104782104492 74.13797760009766 74 205 254
-45.30113983154297 15.617058753967285 73.57379913330078 75 205 254
-46.740577697753906 16.261062622070312 74.53710174560547 74 204 254
-44.35020446777344 15.166388511657715 72.88141632080078 75 205 254
-44.089595794677734 15.533927917480469 74.76809692382812 75 205 254
-44.42153549194336 15.436970710754395 73.88175964355469 75 205 254
-47.43346405029297 15.978310585021973 72.67425537109375 74 204 254
-46.611026763916016 15.951342582702637 73.5135498046875 74 204 254
-44.61906433105469 15.726500511169434 74.90737915039062 76 205 253
-42.71854019165039 14.670967102050781 73.00135803222656 74 204 254
-48.23341369628906 16.566173553466797 74.38522338867188 74 205 254
-48.171363830566406 16.34644317626953 73.47845458984375 74 204 254
-43.96843719482422 15.269979476928711 73.74897766113281 75 205 254
-44.79557800292969 16.028125762939453 75.96307373046875 75 205 254
-46.31859588623047 15.725358963012695 72.86074829101562 75 204 254
-47.17368698120117 16.72796630859375 76.26023864746094 75 205 254
-43.401580810546875 15.241412162780762 74.40225982666016 75 205 254
-46.377235412597656 16.354934692382812 75.52243041992188 75 205 254
-45.08649826049805 15.524340629577637 73.48217010498047 75 204 254
-47.769039154052734 16.02928924560547 71.91394805908203 74 205 254
-48.53201675415039 16.203632354736328 72.48272705078125 74 205 254
-47.340599060058594 16.705230712890625 75.79659271240234 75 205 254
-48.07602310180664 16.12812614440918 71.8566665649414 75 205 254
-47.50287628173828 16.836956024169922 76.35250854492188 74 205 254
-45.829830169677734 16.604488372802734 77.2110595703125 74 205 254
-46.24990463256836 16.407630920410156 75.92837524414062 75 205 254
-46.91566848754883 16.557056427001953 75.69654083251953 75 205 254
-45.533016204833984 16.055517196655273 75.2157974243164 75 204 254
-46.679847717285156 16.936508178710938 77.655029296875 75 205 254
-47.984066009521484 16.377193450927734 73.93383026123047 74 205 254
-45.29816818237305 15.863251686096191 74.64535522460938 75 205 254
-47.07063293457031 16.097286224365234 73.65747833251953 75 204 254
-47.619850158691406 16.55817985534668 74.8309326171875 75 205 254
-45.19654846191406 15.925626754760742 75.02080535888672 75 205 254
-47.73263168334961 16.202930450439453 73.31988525390625 74 205 254
-46.97557067871094 15.828788757324219 72.57780456542969 74 204 254
-47.55477523803711 16.248188018798828 73.80553436279297 74 204 254
-45.161231994628906 15.707971572875977 74.10530853271484 74 205 254
-44.47692108154297 15.87675952911377 75.70795440673828 75 204 254
-46.22688293457031 16.775304794311523 77.49437713623047 74 205 254
-45.946407318115234 15.847679138183594 74.93659973144531 74 205 254
-46.116973876953125 15.735413551330566 74.18819427490234 75 205 254
-47.05992889404297 16.225839614868164 75.13487243652344 75 204 254
-48.79728698730469 16.203506469726562 72.97034454345703 75 205 254
-46.037113189697266 16.306793212890625 76.71647644042969 75 205 254
-45.85417938232422 16.12827491760254 76.19518280029297 75 205 254
-48.37715148925781 16.04868507385254 72.83946990966797 75 204 254
-46.2042350769043 15.645791053771973 73.76546478271484 75 205 254
-47.50789260864258 16.661611557006836 76.81193542480469 74 205 254
-49.34016036987305 16.215662002563477 72.67779541015625 75 205 254
-49.18203353881836 16.051647186279297 72.11164855957031 75 204 254
-46.481143951416016 16.56692886352539 77.31055450439453 75 205 254
-49.49201202392578 16.12737464904785 72.1421890258789 74 205 254
-44.28609848022461 15.279309272766113 74.6223373413086 74 204 254
-46.06489562988281 15.510129928588867 73.4076919555664 75 205 254
-48.35684585571289 16.376296997070312 74.48011779785156 74 204 254
-49.3717155456543 16.564430236816406 74.1030502319336 74 205 254
-46.73158645629883 16.30653190612793 76.08248138427734 75 204 254
-48.178672790527344 16.13542938232422 73.35020446777344 75 205 254
-48.46148681640625 16.884504318237305 76.59800720214844 75 205 254
-48.75873947143555 16.71149253845215 75.02462768554688 75 205 254
-48.66480255126953 16.77161979675293 75.37550354003906 74 205 254
-46.45136260986328 15.300721168518066 72.08983612060547 75 205 254
-46.955387115478516 15.896495819091797 73.98286437988281 75 204 254
-49.66209411621094 16.206703186035156 72.28376007080078 74 205 254
-45.25318145751953 15.223206520080566 73.21414184570312 75 205 254
-48.101402282714844 16.763904571533203 76.46507263183594 75 205 254
-46.45861053466797 16.478103637695312 76.97574615478516 74 204 254
-48.19403076171875 16.522804260253906 74.87010192871094 75 205 254
-48.699623107910156 15.939305305480957 72.06976318359375 75 205 254
-47.023441314697266 16.508098602294922 76.68775177001953 75 204 254
-48.992210388183594 16.2998104095459 73.09754943847656 75 205 254
-49.157691955566406 16.722658157348633 74.9545669555664 75 205 254
-46.512386322021484 15.75230884552002 73.85802459716797 75 204 254
-45.784149169921875 15.984257698059082 75.729736328125 74 204 254
-45.37324905395508 15.484892845153809 74.12193298339844 75 204 254
-46.28642272949219 16.15601921081543 75.92082214355469 75 204 254
-47.943939208984375 16.816240310668945 76.97286987304688 75 205 254
-48.656490325927734 16.801067352294922 76.06501007080078 75 205 254
-49.119754791259766 16.62078094482422 74.74723052978516 75 205 254
-46.820377349853516 15.985200881958008 74.38762664794922 75 205 254
-48.13529586791992 16.94883918762207 77.49967956542969 75 205 254
-48.97037887573242 16.114004135131836 72.61517333984375 74 204 254
-47.647125244140625 16.612030029296875 76.32431030273438 74 205 254
-48.89483642578125 16.41798973083496 73.8106689453125 75 205 254
-48.112396240234375 15.87587833404541 72.3569107055664 75 205 254
-45.1142578125 15.24905776977539 73.47199249267578 75 205 254
-47.384666442871094 16.41763687133789 75.68860626220703 75 204 254
-48.82753372192383 16.54117202758789 74.66726684570312 74 204 254
-47.28458786010742 16.699575424194336 77.2738037109375 74 204 254
-45.964656829833984 15.555386543273926 73.6675796508789 75 204 254
-47.179805755615234 16.452404022216797 76.16929626464844 74 204 254
-45.64409637451172 15.712807655334473 74.74105834960938 74 204 254
-49.455711364746094 16.56521987915039 73.76123809814453 75 205 254
-44.7916145324707 15.377867698669434 74.42022705078125 75 205 254
-46.04460906982422 15.762333869934082 74.46204376220703 75 205 254
-49.139488220214844 16.467578887939453 73.65251922607422 75 205 254
-46.01044845581055 16.069316864013672 75.8324203491211 75 205 254
-44.9282341003418 15.307518005371094 73.94576263427734 75 205 254
-47.179542541503906 16.91628074645996 78.0686264038086 74 205 254
-47.08757400512695 15.857258796691895 73.6399154663086 75 205 254
-49.65932083129883 16.508567810058594 73.27735137939453 75 205 254
-46.89919662475586 16.25082778930664 75.55355834960938 75 204 254
-45.38502502441406 15.867151260375977 75.66563415527344 75 205 254
-47.56782150268555 16.020524978637695 73.76751708984375 75 205 254
-48.96213150024414 16.79430389404297 75.16373443603516 75 205 254
-44.66722106933594 15.541769981384277 75.19708251953125 75 205 254
-46.12410354614258 15.974502563476562 75.30577850341797 75 205 254
-46.76408004760742 16.68130874633789 77.49411010742188 75 205 254
-48.61216735839844 16.297706604003906 73.5284652709961 75 205 254
-46.20518493652344 15.916152000427246 74.87097930908203 74 205 254
-46.62794876098633 16.069425582885742 74.9771499633789 74 204 254
-45.087799072265625 15.608024597167969 74.99646759033203 75 204 254
-47.68849563598633 16.345378875732422 74.7202377319336 75 205 254
-48.285400390625 16.93206024169922 77.06046295166016 75 205 254
-47.99161911010742 16.511667251586914 75.43164825439453 75 204 254
-45.74849319458008 15.625643730163574 74.24999237060547 74 205 254
-46.573970794677734 16.379837036132812 76.53839874267578 75 204 254
-46.23178482055664 15.81429672241211 74.43061065673828 74 205 254
-45.699798583984375 15.377164840698242 73.28011322021484 74 204 254
-44.9671516418457 15.677473068237305 75.38001251220703 74 204 254
-49.723663330078125 16.0100040435791 71.4997329711914 75 205 254
-48.05524444580078 16.174226760864258 73.8656234741211 74 204 254
-48.84492874145508 16.37211036682129 73.52491760253906 74 205 254
-45.22257614135742 15.537187576293945 74.53759765625 75 204 254
-46.67279052734375 15.700855255126953 73.3657455444336 75 204 254
-44.6208381652832 15.438864707946777 74.86009979248047 75 205 254
-46.47393798828125 16.099979400634766 75.4150161743164 75 204 254
-48.51401901245117 15.986774444580078 72.39348602294922 75 204 254
-47.288734436035156 16.19257354736328 74.66207122802734 74 205 254
-49.50196838378906 16.311695098876953 72.82566833496094 75 205 254
-46.88962173461914 16.58797264099121 77.10590362548828 75 204 254
-48.4420280456543 16.64350128173828 75.55188751220703 75 204 254
-47.43879699707031 16.062633514404297 74.14502716064453 74 204 254
-45.365814208984375 15.936893463134766 75.9765396118164 74 205 254
-49.16365432739258 16.50579261779785 73.98167419433594 75 205 254
-48.490638732910156 16.31230354309082 74.01166534423828 75 205 254
-48.89263916015625 16.825929641723633 75.4665298461914 74 205 254
-49.29585647583008 16.395782470703125 73.1756362915039 74 204 254
-46.92372512817383 16.072649002075195 75.64742279052734 74 204 254
-47.36396026611328 16.46062660217285 76.88621520996094 74 204 254
-49.74924850463867 16.841230392456055 75.51029968261719 75 205 254
-47.61802291870117 16.686443328857422 77.52387237548828 75 204 254
-46.15730285644531 15.373677253723145 73.61115264892578 75 205 254
-46.14493942260742 15.605755805969238 74.49515533447266 75 204 254
-45.87736129760742 15.709868431091309 75.39928436279297 75 205 254
-49.06569290161133 17.048688888549805 77.48552703857422 75 205 254
-49.91305160522461 16.73576545715332 75.10704803466797 75 205 254
-47.97523880004883 16.9178409576416 78.09554290771484 75 205 254
-50.646873474121094 16.50230598449707 73.17594909667969 75 205 254
-50.19770050048828 16.50806999206543 73.55913543701172 75 205 254
-47.44010925292969 16.1838321685791 75.33455657958984 74 204 254
-49.46416473388672 16.372703552246094 73.89236450195312 74 204 254
-47.27577209472656 15.908934593200684 74.27183532714844 75 205 254
-48.27151107788086 16.759668350219727 77.124267578125 74 205 254
-49.78763198852539 16.24562644958496 72.98344421386719 74 204 254
-46.907772064208984 16.433948516845703 77.0770034790039 74 205 254
-48.205867767333984 16.216108322143555 74.5564193725586 75 205 254
-46.88066864013672 16.145484924316406 76.05220031738281 74 205 254
-49.945884704589844 16.434505462646484 73.52629089355469 75 205 254
-48.7766227722168 16.603120803833008 75.74486541748047 75 204 254
-46.94940185546875 16.32855796813965 76.7464828491211 75 204 254
-48.944358825683594 17.078998565673828 77.83634185791016 74 205 254
-46.78229522705078 16.223697662353516 76.52902221679688 74 205 254
-50.45219421386719 16.58626365661621 73.65879821777344 75 205 254
-46.70701599121094 16.015506744384766 75.67808532714844 75 204 254
-47.10366439819336 16.258882522583008 76.28733825683594 75 204 254
-50.35277557373047 16.60052490234375 73.93364715576172 75 205 254
-49.61981201171875 16.31877326965332 73.40123748779297 75 204 254
-48.1386604309082 16.517436981201172 76.0491943359375 74 204 254
-49.02762985229492 16.238880157470703 73.73912811279297 75 204 254
-45.31510925292969 15.252784729003906 74.20536041259766 75 204 254
-48.92892837524414 16.904083251953125 76.82586669921875 74 205 254
-47.922428131103516 15.94969654083252 73.91655731201172 75 204 254
-46.79762649536133 15.86055850982666 74.52931213378906 75 204 254
-46.6104850769043 16.089391708374023 76.14636993408203 75 204 254
-49.41106414794922 16.751401901245117 75.4181900024414 75 204 254
-48.3685417175293 17.037395477294922 78.24205017089844 74 205 254
-45.12929916381836 15.386544227600098 74.98140716552734 74 204 254
-48.39421844482422 16.11046600341797 74.0995864868164 75 204 254
-47.45132064819336 15.797881126403809 73.7945556640625 75 204 254
-45.602272033691406 15.476333618164062 74.72453308105469 74 205 254
-47.10919189453125 15.978342056274414 74.67247009277344 75 205 254
-49.59190368652344 16.64805793762207 75.00756072998047 75 204 254
-47.244136810302734 16.19713020324707 75.7853775024414 75 204 254
-46.7384033203125 15.938498497009277 75.24779510498047 74 205 254
-46.83913040161133 16.205406188964844 76.40586853027344 74 205 254
-49.31843185424805 16.093820571899414 72.82876586914062 74 204 254
-49.607872009277344 16.8405818939209 75.99230194091797 75 205 254
-48.834869384765625 16.24786376953125 74.23414611816406 75 204 254
-49.785552978515625 16.530733108520508 74.4915771484375 74 204 254
-48.53507995605469 16.082807540893555 73.60697937011719 75 204 254
-50.12751770019531 16.631969451904297 74.60128021240234 75 205 254
-48.38138961791992 16.48585319519043 75.61123657226562 75 204 254
-47.559268951416016 16.773399353027344 77.85026550292969 75 205 254
-46.34325408935547 15.876148223876953 75.53528594970703 75 205 254
-47.985389709472656 17.020736694335938 78.4178695678711 74 205 254
-48.43595886230469 16.73579216003418 76.75529479980469 74 205 254
-48.737552642822266 16.922325134277344 77.30472564697266 74 205 254
-49.079097747802734 16.824506759643555 76.33392333984375 74 204 254
-48.144046783447266 16.83365821838379 77.63301086425781 74 205 254
-46.973751068115234 16.00479507446289 75.19808959960938 74 204 254
-47.81002426147461 16.61317253112793 77.037841796875 75 204 254
-45.165374755859375 15.297111511230469 74.57007598876953 74 204 254
-50.413429260253906 16.44915008544922 73.18451690673828 75 205 254
-49.433372497558594 16.92437171936035 76.44929504394531 75 205 254
-47.72749710083008 16.37421989440918 75.92308044433594 75 204 254
-49.29905319213867 16.74873924255371 75.86802673339844 75 204 254
-45.81857681274414 15.787425994873047 75.73336791992188 74 204 254
-48.006717681884766 16.572904586791992 76.55370330810547 74 204 254
-48.888099670410156 15.951327323913574 72.73636627197266 75 204 254
-46.53784942626953 15.76138973236084 74.63552856445312 75 205 254
-48.75776290893555 17.151779174804688 78.36325073242188 75 205 254
-49.271942138671875 17.016984939575195 76.90819549560547 75 205 254
-46.038917541503906 15.652213096618652 74.89669799804688 75 205 254
-48.96586608886719 16.622669219970703 75.30975341796875 75 204 254
-48.47787857055664 16.45969581604004 75.14442443847656 75 204 254
-47.733543395996094 16.066238403320312 74.4235610961914 75 204 254
-46.602867126464844 16.257226943969727 76.71448516845703 74 205 254
-46.478904724121094 15.81709098815918 75.0576171875 75 204 254
-48.03831100463867 16.317951202392578 75.01288604736328 75 205 254
-45.44805145263672 15.53450870513916 75.18958282470703 75 205 254
-47.52717208862305 16.409866333007812 76.42945098876953 75 204 254
-46.782264709472656 15.899232864379883 74.9715347290039 75 205 254
-50.17475891113281 16.36159324645996 73.0790023803711 75 205 254
-50.1637077331543 16.55242919921875 73.85855865478516 75 205 254
-50.25773620605469 16.602909088134766 74.14495849609375 74 205 254
-49.285118103027344 16.381940841674805 74.36383056640625 74 204 254
-45.999244689941406 15.34367561340332 73.7272720336914 75 204 254
-47.605167388916016 16.163557052612305 74.84375 75 204 254
-46.212554931640625 16.050159454345703 76.32221221923828 74 205 254
-48.54546356201172 16.960420608520508 77.76546478271484 74 204 254
-46.95768356323242 15.789918899536133 74.15778350830078 74 204 254
-49.9139518737793 16.503154754638672 74.032958984375 74 204 254
-49.18878173828125 16.179248809814453 73.27449035644531 75 204 254
-47.22927474975586 16.565811157226562 77.33702087402344 75 204 254
-47.86943054199219 16.32491683959961 75.44502258300781 75 205 254
-49.78496170043945 16.90028953552246 75.64055633544922 74 205 254
-47.308631896972656 16.697084426879883 77.67958068847656 75 205 254
-49.63339614868164 17.27231788635254 78.30913543701172 75 205 254
-48.960609436035156 16.38684844970703 74.9738540649414 74 204 254
-51.31330490112305 16.891754150390625 73.63626861572266 74 205 254
-49.24267578125 16.579132080078125 75.61505126953125 74 204 254
-49.69158935546875 16.50041961669922 74.21353912353516 74 205 254
-47.62935256958008 16.089784622192383 75.6889877319336 75 204 254
-48.4102897644043 16.92462730407715 78.29683685302734 75 204 254
-48.757293701171875 16.394983291625977 75.53250885009766 74 205 254
-47.267032623291016 15.628636360168457 74.0965347290039 74 204 254
-50.065391540527344 16.348859786987305 73.23965454101562 75 204 254
-46.969573974609375 15.713817596435547 74.88489532470703 75 205 254
-49.144657135009766 16.309890747070312 74.53055572509766 74 204 254
-49.43722915649414 17.0811710357666 77.75370025634766 75 205 254
-50.51449966430664 16.789535522460938 74.92939758300781 75 205 254
-51.47648239135742 16.735292434692383 73.22955322265625 74 205 254
-49.63516616821289 16.203336715698242 73.18540954589844 74 204 254
-46.66852569580078 15.502784729003906 74.32604217529297 75 205 254
-48.851776123046875 17.010164260864258 78.081298828125 75 205 254
-49.38761901855469 16.5465145111084 75.12222290039062 74 204 254
-50.526065826416016 16.41423797607422 73.01441955566406 74 205 254
-46.49570846557617 15.528280258178711 74.7485580444336 75 205 254
-50.542015075683594 16.957857131958008 75.39579772949219 75 205 254
-47.91619873046875 16.427824020385742 76.77985382080078 75 205 254
-47.79170227050781 16.24816131591797 76.19454193115234 74 205 254
-50.97093200683594 16.903451919555664 74.5396499633789 75 205 254
-49.26085662841797 16.357666015625 74.1568374633789 74 205 254
-47.40622329711914 15.878509521484375 75.0256118774414 75 205 254
-50.31614303588867 17.014448165893555 75.8299560546875 75 205 254
-47.91793441772461 15.893730163574219 74.47252655029297 75 205 254
-49.00210952758789 16.922428131103516 77.58177947998047 74 205 254
-50.92005920410156 16.91385841369629 74.94640350341797 75 204 254
-48.73741912841797 16.714988708496094 76.99239349365234 74 205 254
-49.33084487915039 16.811832427978516 76.67823028564453 75 205 254
-49.8189582824707 17.001766204833984 76.86132049560547 75 205 254
-48.90985107421875 16.657066345214844 76.54755401611328 74 204 254
-46.65098190307617 15.931262016296387 76.1806640625 75 205 254
-48.47442626953125 16.493568420410156 76.39726257324219 74 205 254
-49.339393615722656 17.178224563598633 78.2358627319336 74 205 254
-46.80817794799805 15.455282211303711 74.01522064208984 74 205 254
-49.86444854736328 16.71690559387207 75.26870727539062 74 205 254
-50.0069694519043 16.91696548461914 76.34999084472656 75 205 254
-46.41391372680664 15.304952621459961 73.94171905517578 75 205 254
-47.12879943847656 16.000486373901367 75.92886352539062 75 205 254
-50.49452590942383 17.05997657775879 75.90416717529297 75 204 254
-48.47888946533203 16.20897674560547 74.86048126220703 74 204 254
-50.032066345214844 16.623485565185547 74.81135559082031 75 205 254
-47.65031814575195 16.33578109741211 76.72854614257812 74 205 254
-49.657039642333984 17.045299530029297 77.32565307617188 75 205 254
-48.24352264404297 16.547927856445312 76.88336181640625 75 204 254
-50.6910514831543 16.82477569580078 74.4453353881836 74 204 254
-48.718994140625 17.06365966796875 78.48756408691406 75 205 254
-49.78300094604492 17.203039169311523 77.87310791015625 74 205 254
-50.285614013671875 16.883800506591797 75.43865203857422 74 204 254
-48.02435302734375 16.037097930908203 74.73310852050781 75 204 254
-46.28221893310547 15.659270286560059 75.60331726074219 75 204 254
-50.25340270996094 16.69961166381836 74.19499969482422 75 205 254
-48.30856704711914 16.217666625976562 75.34563446044922 74 204 254
-45.34100341796875 15.046180725097656 74.38694763183594 74 204 254
-47.68456268310547 15.783600807189941 74.22045135498047 75 205 254
-47.846805572509766 15.846077919006348 74.101806640625 75 205 254
-47.240760803222656 15.936944007873535 75.51262664794922 75 205 254
-46.78001403808594 15.767359733581543 75.3853759765625 75 205 254
-46.31120300292969 15.58763599395752 75.25 75 205 254
-47.750335693359375 16.494905471801758 77.22189331054688 74 205 254
-47.85451126098633 16.208127975463867 75.9605484008789 75 205 254
-50.59559631347656 16.792221069335938 74.69546508789062 75 204 254
-50.82600784301758 16.861331939697266 73.95002746582031 75 204 254
-45.60123825073242 15.172563552856445 74.517822265625 74 204 254
-47.68442916870117 15.960538864135742 74.88077545166016 75 205 254
-50.72505569458008 16.455890655517578 72.85240173339844 74 204 254
-48.11595916748047 16.62272071838379 77.34654998779297 75 205 254
-51.1508674621582 16.951461791992188 74.04789733886719 75 205 254
-48.659812927246094 16.138229370117188 74.38550567626953 74 204 254
-49.125221252441406 17.239994049072266 78.72071838378906 75 205 254
-51.156124114990234 16.602521896362305 73.0407943725586 75 205 254
-50.16903305053711 17.111066818237305 76.90087890625 74 205 254
-48.189231872558594 15.968070983886719 74.24282836914062 75 204 254
-46.62246322631836 15.81430721282959 75.82778930664062 75 205 254
-50.29648971557617 17.02617835998535 76.49038696289062 74 205 254
-49.54876708984375 16.767196655273438 76.24546813964844 75 205 254
-50.14547348022461 16.644731521606445 74.41065216064453 75 205 254
-50.453426361083984 16.461925506591797 73.29949951171875 75 205 254
-49.67426300048828 16.7369327545166 75.72702026367188 74 205 254
-47.34174728393555 16.212993621826172 76.58003997802734 75 204 254
-47.743438720703125 16.017868041992188 75.230712890625 74 205 254
-49.14457321166992 16.871442794799805 77.18846130371094 75 205 254
-48.60273361206055 16.78046226501465 77.4450454711914 75 205 254
-50.65940856933594 16.946748733520508 75.38347625732422 75 204 254
-47.69878387451172 16.538984298706055 77.49392700195312 75 205 254
-51.657081604003906 16.66968536376953 72.69529724121094 75 205 254
-47.11376190185547 15.688860893249512 74.47771453857422 75 205 254
-49.3398323059082 16.177045822143555 73.28963470458984 75 205 254
-50.03171920776367 17.148923873901367 77.3255844116211 74 205 254
-47.546958923339844 16.16259002685547 76.10787200927734 75 204 254
-47.702816009521484 15.926119804382324 74.64803314208984 75 205 254
-47.500770568847656 16.399580001831055 77.1163101196289 75 205 254
-47.96048355102539 16.08102798461914 75.17759704589844 74 204 254
-50.96223831176758 16.770030975341797 73.54656982421875 75 204 254
-49.5429573059082 16.44980812072754 74.6768798828125 74 205 254
-50.52204132080078 16.58279800415039 73.41200256347656 75 204 254
-49.70565414428711 16.538909912109375 74.83531951904297 74 205 254
-47.77753829956055 16.1126651763916 75.79792022705078 74 205 254
-46.35493850708008 15.221780776977539 74.44898986816406 74 204 254
-49.40641403198242 16.362586975097656 74.31864166259766 75 205 254
-47.89169692993164 15.790888786315918 74.38424682617188 74 204 254
-48.09254837036133 16.156652450561523 75.47921752929688 75 205 254
-49.48457717895508 16.97919273376465 76.82870483398438 74 204 254
-49.60832595825195 17.275278091430664 77.85469818115234 74 204 254
-50.92848205566406 16.917400360107422 74.26123046875 74 205 254
-51.390113830566406 17.089685440063477 74.31546020507812 75 205 254
-45.80982971191406 15.020809173583984 74.48509216308594 74 205 254
-50.46225357055664 16.9884090423584 75.55374145507812 75 205 254
-49.37345504760742 16.629047393798828 75.72651672363281 75 205 254
-50.17420196533203 17.659273147583008 78.58084106445312 74 205 254
-49.105064392089844 17.122373580932617 77.75016021728516 75 205 254
-49.938209533691406 17.5789737701416 78.48947143554688 74 205 254
-50.6072998046875 16.89484405517578 75.08106231689453 74 205 254
-51.19988250732422 17.300769805908203 75.83674621582031 74 205 254
-47.957725524902344 16.263580322265625 76.2135009765625 75 205 254
-48.05754470825195 15.964212417602539 74.79766082763672 75 205 254
-48.42056655883789 16.00385284423828 74.4438247680664 74 205 254
-50.491310119628906 17.212865829467773 76.68595886230469 75 205 254
-47.377559661865234 15.932188987731934 75.67657470703125 75 204 254
-47.595760345458984 16.174617767333984 76.23362731933594 75 205 254
-50.44133377075195 17.477428436279297 77.77267456054688 75 204 254
-46.80353546142578 15.42962646484375 74.58277130126953 74 204 254
-48.815673828125 16.16802406311035 74.54193115234375 75 204 254
-47.131900787353516 15.692919731140137 75.06565856933594 75 205 254
-48.391685485839844 16.66604995727539 76.99214172363281 75 205 254
-50.9136848449707 17.023561477661133 75.22696685791016 74 205 254
-49.40134048461914 17.361982345581055 78.27630615234375 75 205 254
-49.008487701416016 16.767261505126953 76.70648193359375 74 205 254
-49.92060089111328 17.162878036499023 76.9608154296875 74 204 254
-47.178218841552734 16.006778717041016 76.0991439819336 75 205 254
-48.283878326416016 16.348569869995117 75.95118713378906 75 204 254
-49.95970916748047 16.77716064453125 75.39337158203125 74 205 254
-51.702415466308594 17.206693649291992 74.32911682128906 75 205 254
-50.543434143066406 16.782211303710938 74.1980209350586 74 205 254
-50.376609802246094 17.523000717163086 78.10430908203125 74 205 254
-48.00094985961914 16.20348358154297 75.76255798339844 75 205 254
-50.438446044921875 17.452226638793945 77.47146606445312 75 204 254
-47.306941986083984 15.644720077514648 74.63429260253906 75 204 254
-49.82548904418945 16.83017921447754 75.87324523925781 75 205 254
-51.11684036254883 17.09754180908203 75.25353240966797 75 205 254
-49.30546569824219 16.986940383911133 77.26084899902344 74 204 254
-50.784584045410156 17.226512908935547 76.07087707519531 74 205 254
-48.43927001953125 16.25894546508789 75.51464080810547 75 204 254
-50.75323486328125 17.053869247436523 75.46028900146484 75 205 254
-48.269840240478516 16.13532066345215 75.42961120605469 75 205 254
-46.23116683959961 15.2699556350708 74.78121948242188 75 205 254
-49.66082763671875 16.904296875 76.38042449951172 74 205 254
-47.71311569213867 16.305500030517578 76.47550964355469 74 205 254
-47.908294677734375 16.042072296142578 75.33700561523438 74 204 254
-49.792381286621094 17.516956329345703 78.41598510742188 75 205 254
-49.49448776245117 16.588266372680664 75.27279663085938 74 205 254
-50.967803955078125 17.330400466918945 76.3031234741211 75 204 254
-50.60374450683594 17.17032814025879 76.28252410888672 74 205 254
-50.8547477722168 17.390071868896484 76.94345092773438 75 205 254
-49.18714904785156 16.71196937561035 76.1974868774414 74 204 254
-47.221778869628906 16.127351760864258 76.44525146484375 75 205 254
-46.939456939697266 15.762402534484863 75.56490325927734 75 205 254
-48.194427490234375 15.916667938232422 74.4594497680664 75 205 254
-51.337528228759766 17.19512176513672 75.35948944091797 74 205 254
-47.449337005615234 15.609413146972656 74.31867980957031 75 205 254
-50.15422821044922 17.33741569519043 77.56504821777344 75 205 254
-46.662078857421875 15.485024452209473 74.97086334228516 75 205 254
-46.611419677734375 15.542376518249512 75.24356842041016 75 205 254
-51.231990814208984 17.06174087524414 74.74797058105469 75 205 254
