-90.70033264160156 4.841545581817627 50.8862190246582 255 255 255
-76.49747467041016 8.307744026184082 57.07785415649414 255 255 255
-75.57715606689453 2.664032220840454 45.65853500366211 255 255 255
-77.3297119140625 0.7654908895492554 47.98051834106445 255 255 255
-92.72772979736328 15.036154747009277 80.66199493408203 255 255 255
-95.2720947265625 16.224477767944336 80.78651428222656 255 255 255
-88.02059173583984 16.907983779907227 73.66045379638672 255 255 255
-90.82052612304688 15.273526191711426 79.96610260009766 255 255 255
-90.99014282226562 14.57874584197998 80.2120132446289 255 255 255
-73.89582061767578 -3.6080355644226074 2.798309803009033 255 255 255
-73.7258071899414 -3.680009365081787 2.405644178390503 255 255 255
-76.18311309814453 -7.291430950164795 -7.406412601470947 255 255 255
-85.3709716796875 -14.165976524353027 -27.258426666259766 255 255 255
-80.21222686767578 10.241405487060547 77.21367645263672 255 255 255
-79.34623718261719 6.740322113037109 75.81502532958984 255 255 255
-81.94474792480469 16.598224639892578 74.02684783935547 255 255 255
-90.33476257324219 5.925229549407959 45.74940872192383 255 255 255
-81.50202941894531 -11.732685089111328 -23.51056671142578 255 255 255
-80.15467071533203 -8.713774681091309 -13.222318649291992 255 255 255
-79.69375610351562 -7.143937110900879 -15.11956787109375 255 255 255
-80.25330352783203 -8.448565483093262 -14.98203182220459 255 255 255
-77.73751068115234 -8.263962745666504 -9.182815551757812 255 255 255
-72.65982818603516 -6.536184787750244 3.4331212043762207 255 255 255
-80.5557632446289 12.704968452453613 78.15586853027344 255 255 255
-91.79058074951172 4.2491679191589355 49.48938751220703 255 255 255
-76.28550720214844 14.38503646850586 68.1329345703125 255 255 255
-78.3326187133789 13.098166465759277 77.13131713867188 255 255 255
-76.81071472167969 14.279565811157227 67.46296691894531 255 255 255
-78.41413116455078 8.989282608032227 70.1797103881836 255 255 255
-78.41036224365234 17.100597381591797 78.83983612060547 255 255 255
-87.09415435791016 6.7335710525512695 55.44063186645508 255 255 255
-87.15507507324219 8.342813491821289 60.22182846069336 255 255 255
-81.9606704711914 12.616119384765625 76.85316467285156 255 255 255
-83.09825134277344 10.56738567352295 68.73931121826172 255 255 255
-76.51184844970703 15.249083518981934 69.43893432617188 255 255 255
-79.70149230957031 8.795734405517578 71.7298583984375 255 255 255
-89.81163024902344 4.671964168548584 65.77571105957031 255 255 255
-76.8438491821289 15.23272705078125 69.01319122314453 255 255 255
-78.17594146728516 5.886099338531494 55.819915771484375 255 255 255
-76.65155029296875 7.809674263000488 59.641380310058594 255 255 255
-76.23963928222656 -2.667438507080078 43.4128303527832 255 255 255
-78.96569061279297 16.71650505065918 78.85214233398438 255 255 255
-92.2545394897461 14.18708324432373 80.8723373413086 255 255 255
-79.5234603881836 17.74051284790039 79.2141342163086 255 255 255
-78.68266296386719 10.94742202758789 41.80828094482422 255 255 255
-76.37560272216797 7.982807636260986 58.49638366699219 255 255 255
-86.36714935302734 4.329881191253662 57.17001724243164 255 255 255
-77.11675262451172 7.259238243103027 60.34394836425781 255 255 255
-74.52415466308594 12.17441177368164 66.75 255 255 255
-77.68959045410156 12.419241905212402 57.47683334350586 255 255 255
-85.37540435791016 6.458014488220215 37.060203552246094 255 255 255
-79.5927505493164 10.266151428222656 74.79632568359375 255 255 255
-88.6938705444336 9.645393371582031 51.1933708190918 255 255 255
-75.73418426513672 6.23394250869751 65.24861145019531 255 255 255
-80.08154296875 4.480742931365967 59.79412078857422 255 255 255
-89.2550277709961 -5.695098876953125 41.584171295166016 255 255 255
-78.86234283447266 7.089629173278809 64.98387145996094 255 255 255
-73.75419616699219 14.348052024841309 67.55921936035156 255 255 255
-80.79852294921875 11.600187301635742 79.95088958740234 255 255 255
-77.13284301757812 12.418356895446777 78.82147979736328 255 255 255
-77.7479019165039 16.57172393798828 77.5789794921875 255 255 255
-76.67041778564453 16.096216201782227 73.1415786743164 255 255 255
-78.63004302978516 14.87990665435791 75.16788482666016 255 255 255
-77.98988342285156 16.389524459838867 75.96827697753906 255 255 255
-89.2464828491211 14.984357833862305 79.80947875976562 255 255 255
-84.85389709472656 14.318538665771484 69.56307983398438 255 255 255
-77.07106018066406 16.085275650024414 72.88082885742188 255 255 255
-72.70417785644531 -5.850831031799316 2.870835542678833 255 255 255
-80.26654815673828 16.918521881103516 79.44631958007812 255 255 255
-78.7351303100586 12.316632270812988 79.50553894042969 255 255 255
-77.25634002685547 5.623312950134277 45.0616340637207 255 255 255
-74.98175048828125 1.3969438076019287 46.770084381103516 255 255 255
-76.11573791503906 3.9712605476379395 48.09101867675781 255 255 255
-74.36011505126953 3.850831985473633 46.69644546508789 255 255 255
-79.18460083007812 2.353208303451538 49.21958923339844 255 255 255
-79.6032485961914 -9.68779468536377 -14.165103912353516 255 255 255
-75.92353820800781 -1.8395161628723145 -14.29957103729248 255 255 255
-82.03523254394531 14.15259838104248 66.12895202636719 255 255 255
-82.87606048583984 5.528524875640869 75.79708099365234 255 255 255
-88.11201477050781 14.851725578308105 79.93745422363281 255 255 255
-81.39263916015625 -3.1597704887390137 -19.16818618774414 255 255 255
-78.75862884521484 8.555215835571289 38.44902801513672 255 255 255
-85.50233459472656 6.030741214752197 31.725284576416016 255 255 255
-84.58377075195312 13.997274398803711 67.79956817626953 255 255 255
-75.60867309570312 13.700546264648438 64.63216400146484 255 255 255
-92.3704605102539 8.207324981689453 64.44670867919922 255 255 255
-76.6946029663086 12.785186767578125 59.991817474365234 255 255 255
-87.68292236328125 9.863239288330078 67.02002716064453 255 255 255
-77.2125473022461 4.88586950302124 57.288909912109375 255 255 255
-85.65472412109375 7.355992317199707 56.265018463134766 255 255 255
-81.38975524902344 5.862288951873779 60.227447509765625 255 255 255
-79.4092788696289 14.422828674316406 74.51585388183594 255 255 255
-74.69007110595703 9.152729988098145 69.42794036865234 255 255 255
-80.15402221679688 10.19174861907959 71.52558135986328 255 255 255
-79.6812744140625 16.430952072143555 75.4807357788086 255 255 255
-77.1017074584961 6.647897243499756 65.62386322021484 255 255 255
-80.10318756103516 13.44751262664795 78.32493591308594 255 255 255
-77.9642562866211 14.041089057922363 76.48970794677734 255 255 255
-80.52428436279297 16.946949005126953 78.01490783691406 255 255 255
-83.04685974121094 10.497547149658203 70.28762817382812 255 255 255
-81.3812255859375 10.516826629638672 78.34874725341797 255 255 255
-78.64173889160156 12.177633285522461 64.59488677978516 255 255 255
-88.4899673461914 12.38805103302002 55.923316955566406 255 255 255
-86.40216827392578 9.963164329528809 52.72271728515625 255 255 255
-74.63560485839844 4.446094989776611 45.67890167236328 255 255 255
-88.264404296875 7.435801029205322 48.412960052490234 255 255 255
-78.39654541015625 7.247721195220947 34.40696716308594 255 255 255
-73.8473129272461 5.3843865394592285 46.74520492553711 255 255 255
-77.1408920288086 1.9717192649841309 11.710958480834961 255 255 255
-76.62346649169922 14.307127952575684 67.61381530761719 255 255 255
-94.13838958740234 14.025433540344238 83.41358184814453 255 255 255
-84.58807373046875 15.065229415893555 75.24901580810547 255 255 255
-89.62843322753906 9.133283615112305 69.05524444580078 255 255 255
-82.07972717285156 10.865156173706055 70.89936828613281 255 255 255
-77.57611846923828 4.480788230895996 33.49338912963867 255 255 255
-77.05008697509766 8.134703636169434 58.74494934082031 255 255 255
-75.20579528808594 5.595495223999023 43.75445556640625 255 255 255
-77.43539428710938 -2.4081084728240967 45.62338638305664 255 255 255
-78.23965454101562 10.246193885803223 65.54826354980469 255 255 255
-83.12902069091797 7.711498260498047 70.7669906616211 255 255 255
-76.14179229736328 6.986225605010986 67.0222396850586 255 255 255
-85.71137237548828 12.41395378112793 69.96694946289062 255 255 255
-94.08394622802734 16.381555557250977 83.404296875 255 255 255
-78.67372131347656 9.258565902709961 64.25018310546875 255 255 255
-78.10948944091797 8.451966285705566 64.7502670288086 255 255 255
-80.93366241455078 8.024198532104492 70.04540252685547 255 255 255
-75.92508697509766 8.606252670288086 70.15596771240234 255 255 255
-78.01371002197266 17.1303653717041 77.47466278076172 255 255 255
-89.47267150878906 14.122696876525879 66.82813262939453 255 255 255
-75.01636505126953 12.681279182434082 66.7711181640625 255 255 255
-76.62919616699219 4.0074334144592285 58.1168212890625 255 255 255
-77.29926300048828 10.7714204788208 56.617637634277344 255 255 255
-78.29912567138672 2.1920604705810547 50.65108871459961 255 255 255
-73.97201538085938 9.817293167114258 79.37081146240234 255 255 255
-79.88504791259766 -13.02769660949707 -8.611859321594238 255 255 255
-83.27178192138672 -7.105479717254639 -23.517427444458008 255 255 255
-78.61615753173828 -9.843393325805664 -8.988967895507812 255 255 255
-78.86515045166016 -13.768865585327148 -8.841086387634277 255 255 255
-89.43984985351562 14.719565391540527 73.98440551757812 255 255 255
-76.80632781982422 15.52309799194336 70.20100402832031 255 255 255
-77.80769348144531 10.271888732910156 69.63899993896484 255 255 255
-89.64456176757812 14.678017616271973 73.90221405029297 255 255 255
-77.404296875 -9.265480995178223 -11.374027252197266 255 255 255
-81.70927429199219 8.878005027770996 50.01570129394531 255 255 255
-78.31451416015625 9.794089317321777 57.78157043457031 255 255 255
-75.96971130371094 9.055509567260742 58.90544509887695 255 255 255
-78.7633285522461 9.394085884094238 57.34653091430664 255 255 255
-77.0750503540039 3.311690330505371 54.91102600097656 255 255 255
-79.2703628540039 9.052545547485352 55.810569763183594 255 255 255
-77.4942398071289 10.306285858154297 59.564918518066406 255 255 255
-78.74311065673828 9.43363094329834 57.431297302246094 255 255 255
-74.87752532958984 4.061318874359131 42.69279861450195 255 255 255
-77.58711242675781 4.903047561645508 53.91513442993164 255 255 255
-78.89579010009766 11.8012056350708 65.48245239257812 255 255 255
-78.54795837402344 8.023675918579102 63.466182708740234 255 255 255
-77.84891510009766 10.646637916564941 69.49665832519531 255 255 255
-77.20600891113281 3.906658172607422 61.38164138793945 255 255 255
-77.72742462158203 4.0681023597717285 56.02862548828125 255 255 255
-88.6377182006836 2.2065589427948 53.06682586669922 255 255 255
-89.25053405761719 9.192712783813477 66.11378479003906 255 255 255
-82.32321166992188 13.421646118164062 62.42189025878906 255 255 255
-76.79651641845703 7.28569221496582 66.5945053100586 255 255 255
-75.09429931640625 11.25645923614502 71.85832214355469 255 255 255
-77.0034408569336 10.811135292053223 65.42156219482422 255 255 255
-91.3667984008789 13.51822566986084 63.2170524597168 255 255 255
-75.63617706298828 14.359543800354004 66.91143798828125 255 255 255
-82.6600341796875 4.945179462432861 68.61546325683594 255 255 255
-80.36363220214844 3.553173065185547 60.14173889160156 255 255 255
-83.81664276123047 17.747018814086914 77.46253967285156 255 255 255
-79.53887939453125 14.778688430786133 74.82613372802734 255 255 255
-76.6499252319336 15.940173149108887 73.13885498046875 255 255 255
-76.45745086669922 14.08088493347168 66.18141174316406 255 255 255
-74.2233657836914 -0.9272461533546448 -8.97485637664795 255 255 255
-73.18527221679688 -1.3569835424423218 -11.634987831115723 255 255 255
-75.90625 14.072848320007324 61.30240249633789 255 255 255
-77.23924255371094 12.137389183044434 56.41667175292969 255 255 255
-86.55184936523438 4.096628665924072 30.534337997436523 255 255 255
-76.70075988769531 13.301149368286133 61.94179916381836 255 255 255
-81.12374114990234 10.710569381713867 49.119895935058594 255 255 255
-78.90003204345703 8.296913146972656 64.10299682617188 255 255 255
-90.92278289794922 0.5369561910629272 50.418861389160156 255 255 255
-75.53571319580078 8.403641700744629 63.975337982177734 255 255 255
-77.58820343017578 0.6401458978652954 41.490966796875 255 255 255
-78.36436462402344 3.395637273788452 53.24689865112305 255 255 255
-84.56940460205078 11.858033180236816 64.15647888183594 255 255 255
-79.69261932373047 3.0605390071868896 26.733734130859375 255 255 255
-93.35554504394531 -7.943114280700684 45.865440368652344 255 255 255
-74.12254333496094 13.271698951721191 61.354366302490234 255 255 255
-74.05619812011719 13.818575859069824 64.33673858642578 255 255 255
-88.35070037841797 4.953018665313721 61.53840255737305 255 255 255
-74.30824279785156 0.3646824359893799 3.6449954509735107 255 255 255
-78.38246154785156 -12.562967300415039 -11.307772636413574 255 255 255
-77.00359344482422 -13.09933853149414 -11.616902351379395 255 255 255
-84.0492935180664 -6.637984275817871 -23.901655197143555 255 255 255
-78.7328109741211 -8.422161102294922 -10.6179838180542 255 255 255
-73.43489837646484 -3.841768980026245 0.45126873254776 255 255 255
-76.8072280883789 12.976840019226074 80.55018615722656 255 255 255
-77.11976623535156 12.431394577026367 79.95716094970703 255 255 255
-96.01884460449219 9.48085880279541 83.17493438720703 255 255 255
-77.04461669921875 -1.5105267763137817 46.70269012451172 255 255 255
-76.77716827392578 1.2224013805389404 45.059513092041016 255 255 255
-80.7409439086914 15.922492980957031 70.19945526123047 255 255 255
-87.51531219482422 6.274357318878174 59.722679138183594 255 255 255
-90.7751235961914 16.03644371032715 76.85901641845703 255 255 255
-80.37052917480469 17.540569305419922 77.89512634277344 255 255 255
-85.4625473022461 10.755776405334473 56.27452850341797 255 255 255
-89.11920928955078 15.181029319763184 79.98664855957031 255 255 255
-83.41716766357422 7.403677940368652 66.48890686035156 255 255 255
-74.97888946533203 12.677388191223145 66.88715362548828 255 255 255
-87.11763000488281 8.348023414611816 61.65298080444336 255 255 255
-80.83226776123047 13.383391380310059 76.00291442871094 255 255 255
-84.45475769042969 10.985465049743652 69.13785552978516 255 255 255
-82.12760162353516 5.08830451965332 58.433040618896484 255 255 255
-76.7031021118164 13.366106986999512 62.61946487426758 255 255 255
-76.85307312011719 2.7737040519714355 53.83632278442383 255 255 255
-76.79410552978516 5.438247203826904 63.234474182128906 255 255 255
-77.78155517578125 15.913063049316406 72.40839385986328 255 255 255
-75.60321044921875 5.6199493408203125 59.40427780151367 255 255 255
-76.8605728149414 14.911680221557617 68.21807098388672 255 255 255
-81.7233657836914 -2.785792827606201 50.90336608886719 255 255 255
-76.85665893554688 9.768210411071777 57.9350471496582 255 255 255
-88.73771667480469 14.825308799743652 80.70588684082031 255 255 255
-77.50385284423828 16.054737091064453 73.47980499267578 255 255 255
-75.70967102050781 13.462636947631836 79.89971923828125 255 255 255
-78.78819274902344 3.8644070625305176 40.80535888671875 255 255 255
-75.99091339111328 1.4065266847610474 46.19934844970703 255 255 255
-92.3880615234375 11.81623363494873 53.0577392578125 255 255 255
-77.13093566894531 11.005241394042969 67.0019302368164 255 255 255
-75.21912384033203 7.106175899505615 52.621673583984375 255 255 255
-76.55781555175781 5.143091678619385 50.79900360107422 255 255 255
-82.78166198730469 8.337312698364258 65.47713470458984 255 255 255
-78.2464599609375 3.8227651119232178 57.8082160949707 255 255 255
-76.25826263427734 7.5671162605285645 65.30657958984375 255 255 255
-78.24586486816406 2.7635014057159424 58.75306701660156 255 255 255
-74.80147552490234 10.12941837310791 79.32164764404297 255 255 255
-78.38928985595703 4.249917984008789 41.298095703125 255 255 255
-77.03358459472656 3.0633833408355713 46.98204803466797 255 255 255
-72.26251983642578 5.138324737548828 44.9620361328125 255 255 255
-79.2127914428711 5.457675457000732 53.19778823852539 255 255 255
-82.07312774658203 8.58111572265625 43.267242431640625 255 255 255
-75.10983276367188 12.169781684875488 66.80774688720703 255 255 255
-76.48200225830078 13.816304206848145 59.713623046875 255 255 255
-76.86033630371094 -7.610293865203857 -7.958292007446289 255 255 255
-78.3982162475586 -9.758804321289062 -10.275941848754883 255 255 255
-73.93528747558594 -4.8960041999816895 3.0572664737701416 255 255 255
-76.55461120605469 1.7799174785614014 47.57444763183594 255 255 255
-78.88385009765625 2.8671445846557617 28.405044555664062 255 255 255
-76.23316192626953 2.1733903884887695 41.39508056640625 255 255 255
-71.96390533447266 12.235013008117676 51.16085433959961 255 255 255
-76.84211730957031 14.707868576049805 64.71125030517578 255 255 255
-77.68480682373047 8.544543266296387 70.25212097167969 255 255 255
-78.37004089355469 10.140398979187012 65.3775405883789 255 255 255
-83.43346405029297 12.30135440826416 65.03861236572266 255 255 255
-77.0118637084961 15.912617683410645 72.89591979980469 255 255 255
-82.38953399658203 9.020003318786621 70.02879333496094 255 255 255
-80.06690216064453 16.581161499023438 75.38275146484375 255 255 255
-80.85321807861328 2.657980442047119 58.823238372802734 255 255 255
-79.09764099121094 11.51815414428711 54.3888053894043 255 255 255
-79.11405944824219 10.076759338378906 54.34189987182617 255 255 255
-74.84307861328125 10.096511840820312 65.52913665771484 255 255 255
-84.31497192382812 10.235419273376465 48.23691940307617 255 255 255
-80.30253601074219 10.00291919708252 69.89364624023438 255 255 255
-78.06029510498047 3.1531994342803955 56.502567291259766 255 255 255
-81.07918548583984 17.440202713012695 80.0423583984375 255 255 255
-88.2828369140625 4.103591442108154 14.953099250793457 255 255 255
-75.55467224121094 -0.26902130246162415 47.55467224121094 255 255 255
-88.35972595214844 8.573968887329102 64.3425521850586 255 255 255
-91.62210083007812 5.784212112426758 62.08272171020508 255 255 255
-88.00714111328125 5.367709636688232 57.26055145263672 255 255 255
-76.7679672241211 5.849212646484375 63.685829162597656 255 255 255
-71.9285888671875 13.302486419677734 56.270286560058594 255 255 255
-78.3631820678711 5.454746723175049 56.86927795410156 255 255 255
-74.20467376708984 -1.2711564302444458 -11.257959365844727 255 255 255
-76.38838958740234 5.647319316864014 57.84391784667969 255 255 255
-72.3943862915039 12.020606994628906 49.67500305175781 255 255 255
-77.72557830810547 7.1380414962768555 26.070716857910156 255 255 255
-78.03475189208984 6.080326080322266 21.626663208007812 255 255 255
-76.55615997314453 7.716488838195801 58.087974548339844 255 255 255
-76.95452117919922 14.25028133392334 67.39961242675781 255 255 255
-75.82670593261719 8.726795196533203 60.220916748046875 255 255 255
-86.4858627319336 8.37485408782959 50.0818977355957 255 255 255
-78.74324035644531 5.10830545425415 63.11772537231445 255 255 255
-80.58980560302734 14.146744728088379 76.01722717285156 255 255 255
-86.11965942382812 13.437398910522461 61.57347106933594 255 255 255
-83.71260833740234 6.733490943908691 62.888084411621094 255 255 255
-82.09859466552734 9.453497886657715 69.37150573730469 255 255 255
-83.14811706542969 11.565866470336914 59.1829719543457 255 255 255
-90.51396942138672 8.135529518127441 45.9184455871582 255 255 255
-78.92123413085938 17.318273544311523 77.34705352783203 255 255 255
-78.3851318359375 17.012754440307617 74.64293670654297 255 255 255
-84.23269653320312 12.604355812072754 76.40740203857422 255 255 255
-74.91828918457031 10.95665168762207 69.91316223144531 255 255 255
-80.87024688720703 17.133886337280273 77.79966735839844 255 255 255
-77.1962661743164 9.939502716064453 71.14846801757812 255 255 255
-79.11490631103516 11.685521125793457 72.32769012451172 255 255 255
-87.54811096191406 4.392875671386719 68.53560638427734 255 255 255
-79.04676818847656 14.648200988769531 74.67071533203125 255 255 255
-76.97664642333984 9.957119941711426 71.36597442626953 255 255 255
-73.48873901367188 -3.6339309215545654 0.6449729800224304 255 255 255
-91.10002899169922 -1.2035831212997437 48.80229949951172 255 255 255
-82.37599182128906 8.689847946166992 78.94534301757812 255 255 255
-76.58196258544922 9.68130111694336 65.83690643310547 255 255 255
-90.62173461914062 13.481919288635254 63.69171142578125 255 255 255
-86.48360443115234 6.816814422607422 60.86095428466797 255 255 255
-87.36639404296875 14.049700736999512 68.67958068847656 255 255 255
-86.82958221435547 8.192999839782715 49.49960708618164 255 255 255
-78.7724609375 3.8256170749664307 64.02435302734375 255 255 255
-94.4029312133789 15.852948188781738 79.87284851074219 255 255 255
-78.49381256103516 11.029106140136719 64.70443725585938 255 255 255
-89.55704498291016 5.733670711517334 64.23268127441406 255 255 255
-83.93794250488281 7.626255512237549 76.1692886352539 255 255 255
-80.86577606201172 4.5945611000061035 73.5223159790039 255 255 255
-79.41210174560547 -2.324598789215088 23.085460662841797 255 255 255
-78.6200942993164 4.595505237579346 24.701135635375977 255 255 255
-79.7396240234375 -8.151528358459473 -14.884637832641602 255 255 255
-89.41329956054688 16.288198471069336 80.34296417236328 255 255 255
-80.13018798828125 -8.431655883789062 -14.191473007202148 255 255 255
-75.82432556152344 17.364160537719727 75.41092681884766 255 255 255
-75.4056396484375 1.4446337223052979 58.184783935546875 255 255 255
-75.67293548583984 8.914825439453125 67.59674835205078 255 255 255
-76.18937683105469 10.554933547973633 59.837982177734375 255 255 255
-84.88859558105469 6.488985061645508 33.616920471191406 255 255 255
-77.13079071044922 13.233467102050781 61.81892395019531 255 255 255
-76.89064025878906 7.940080165863037 62.69655227661133 255 255 255
-77.62751770019531 4.3321123123168945 54.2320442199707 255 255 255
-79.77430725097656 9.96747875213623 70.61919403076172 255 255 255
-81.6013412475586 8.197299003601074 62.943809509277344 255 255 255
-76.29940795898438 8.568023681640625 57.72732925415039 255 255 255
-81.8986587524414 0.8363298177719116 49.83089065551758 255 255 255
-80.06094360351562 6.761338233947754 59.536582946777344 255 255 255
-77.02722930908203 15.802282333374023 71.20126342773438 255 255 255
-75.93888854980469 13.32579231262207 61.42253494262695 255 255 255
-79.95061492919922 6.201869487762451 64.74371337890625 255 255 255
-81.65283966064453 14.557043075561523 74.22262573242188 255 255 255
-77.27875518798828 13.4941987991333 63.297630310058594 255 255 255
-78.99005889892578 9.779288291931152 66.14508056640625 255 255 255
-77.31929016113281 3.0237300395965576 53.644283294677734 255 255 255
-87.535888671875 9.720312118530273 66.7006607055664 255 255 255
-84.87532806396484 13.911343574523926 67.22664642333984 255 255 255
-77.20902252197266 4.962209701538086 53.89057922363281 255 255 255
-78.60128784179688 8.002364158630371 63.421382904052734 255 255 255
-76.24169158935547 4.084172248840332 58.850341796875 255 255 255
-76.61212921142578 0.3552568256855011 46.36177444458008 255 255 255
-74.38860321044922 6.677675724029541 59.53856658935547 255 255 255
-87.21412658691406 0.9206311106681824 52.51844787597656 255 255 255
-74.61369323730469 4.944319725036621 46.89310836791992 255 255 255
-75.7150650024414 6.886727333068848 63.833351135253906 255 255 255
-79.96038055419922 -9.352030754089355 -8.208687782287598 255 255 255
-79.70819091796875 -7.347326278686523 -8.783543586730957 255 255 255
-74.90210723876953 12.055657386779785 78.26905059814453 255 255 255
-74.62537384033203 10.607839584350586 80.5977783203125 255 255 255
-73.5481948852539 4.774268627166748 43.86110305786133 255 255 255
-89.34259033203125 1.3145843744277954 4.927000522613525 255 255 255
-75.92037963867188 6.52296257019043 63.355560302734375 255 255 255
-75.73413848876953 -0.931775689125061 45.464263916015625 255 255 255
-77.548828125 -0.3168061077594757 46.50230026245117 255 255 255
-79.54894256591797 -8.529296875 -28.395498275756836 255 255 255
-76.79170989990234 11.374933242797852 53.38146209716797 255 255 255
-75.96261596679688 7.112304210662842 64.2519302368164 255 255 255
-87.61722564697266 5.277777194976807 28.006345748901367 255 255 255
-75.1248550415039 13.647748947143555 79.96678161621094 255 255 255
-79.28499603271484 11.07064437866211 78.80810546875 255 255 255
-69.22062683105469 3.09767484664917 59.51010513305664 255 255 255
-80.37199401855469 -12.652356147766113 -10.979635238647461 255 255 255
-80.14036560058594 -5.8047075271606445 -5.5332136154174805 255 255 255
-78.07069396972656 3.8259146213531494 53.12954330444336 255 255 255
-76.62871551513672 3.06314754486084 55.5609130859375 255 255 255
-82.54293823242188 9.13744831085205 60.503360748291016 255 255 255
-76.54619598388672 10.681045532226562 65.228271484375 255 255 255
-76.7679672241211 3.171882152557373 58.497528076171875 255 255 255
-76.6870346069336 2.0433669090270996 54.23442077636719 255 255 255
-78.35594177246094 4.223501682281494 57.13201904296875 255 255 255
-76.30219268798828 2.2656090259552 54.071075439453125 255 255 255
-85.35833740234375 1.6749886274337769 -11.806696891784668 255 255 255
-74.45539093017578 3.0774388313293457 45.28993225097656 255 255 255
-78.09971618652344 4.927999973297119 60.42966842651367 255 255 255
-80.67534637451172 12.57487678527832 76.21408081054688 255 255 255
-77.28489685058594 13.43208122253418 63.57267761230469 255 255 255
-85.82860565185547 5.834111213684082 64.56314086914062 255 255 255
-74.555419921875 10.451395988464355 68.75302124023438 255 255 255
-76.16943359375 14.362020492553711 68.14651489257812 255 255 255
-87.24777221679688 13.69446849822998 65.45779418945312 255 255 255
-82.3985595703125 6.895073890686035 69.05061340332031 255 255 255
-76.63871765136719 13.12093734741211 80.01156616210938 255 255 255
-82.59199523925781 -7.862767696380615 -24.614044189453125 255 255 255
-77.27354431152344 2.968501329421997 58.748435974121094 255 255 255
-74.9908218383789 8.756946563720703 68.89973449707031 255 255 255
-78.31861877441406 4.736073017120361 60.05491256713867 255 255 255
-78.87820434570312 10.134017944335938 72.66019439697266 255 255 255
-76.42649841308594 12.636307716369629 80.01336669921875 255 255 255
-78.04324340820312 12.374861717224121 78.19845581054688 255 255 255
-84.68529510498047 14.315174102783203 69.68794250488281 255 255 255
-82.18505096435547 14.642485618591309 71.11609649658203 255 255 255
-83.99009704589844 14.095673561096191 75.59085845947266 255 255 255
-76.93537139892578 15.508456230163574 70.09516143798828 255 255 255
-81.35802459716797 6.711907386779785 69.77213287353516 255 255 255
-88.8482894897461 13.457327842712402 77.8522720336914 255 255 255
-92.70024871826172 8.034982681274414 64.30937194824219 255 255 255
-78.68310546875 11.39116096496582 78.802978515625 255 255 255
-77.4399642944336 12.706731796264648 80.80538177490234 255 255 255
-81.281005859375 -4.249616622924805 48.52122497558594 255 255 255
-76.54702758789062 3.072746753692627 59.171844482421875 255 255 255
-77.0141830444336 14.238594055175781 67.3084487915039 255 255 255
-81.1474609375 2.6960201263427734 58.571163177490234 255 255 255
-76.79212188720703 5.807705402374268 63.605831146240234 255 255 255
-75.29405212402344 11.012503623962402 77.51685333251953 255 255 255
-76.99778747558594 -2.2664365768432617 45.75698471069336 255 255 255
-77.03824615478516 16.56532859802246 77.73746490478516 255 255 255
-79.91658020019531 16.75151824951172 78.7766342163086 255 255 255
-78.2823715209961 12.218682289123535 78.26873016357422 255 255 255
-79.84818267822266 11.0319185256958 80.0796890258789 255 255 255
-78.16084289550781 16.34585189819336 73.55502319335938 255 255 255
-77.5857925415039 13.333404541015625 80.30148315429688 255 255 255
-77.92713928222656 16.327245712280273 73.67031860351562 255 255 255
-78.12200927734375 16.048267364501953 73.08460235595703 255 255 255
-79.52660369873047 15.17686653137207 75.0407943725586 255 255 255
-76.16202545166016 0.7833768129348755 57.205421447753906 255 255 255
-75.2140121459961 0.019166985526680946 -5.966410160064697 255 255 255
-79.99864196777344 0.6085055470466614 -2.339862823486328 255 255 255
-80.414306640625 -3.7459280490875244 -12.054438591003418 255 255 255
-86.71845245361328 -6.804149627685547 -12.902241706848145 255 255 255
-78.9323501586914 10.473071098327637 72.2600326538086 255 255 255
-94.97377014160156 5.254775047302246 76.82861328125 255 255 255
-79.6079330444336 11.447601318359375 79.8516616821289 255 255 255
-79.87892150878906 9.808039665222168 72.89614868164062 255 255 255
-78.81094360351562 2.0341618061065674 48.107669830322266 255 255 255
-76.31124114990234 -1.6331309080123901 46.33797836303711 255 255 255
-76.36158752441406 1.9703946113586426 44.36051559448242 255 255 255
-72.2478256225586 12.354473114013672 52.37578201293945 255 255 255
-76.944580078125 4.058175086975098 48.84176254272461 255 255 255
-77.41476440429688 4.549674987792969 57.89983367919922 255 255 255
-79.42755126953125 9.855558395385742 53.10133361816406 255 255 255
-77.11801147460938 8.187997817993164 58.117942810058594 255 255 255
-77.67572021484375 -1.904714584350586 -14.62814998626709 255 255 255
-81.64087677001953 -8.954936027526855 -25.967151641845703 255 255 255
-80.31827545166016 -5.9874043464660645 -8.252718925476074 255 255 255
-77.14764404296875 -11.73539924621582 -11.829607009887695 255 255 255
-73.46306610107422 4.58317756652832 45.20751953125 255 255 255
-76.00296783447266 14.00292682647705 60.211509704589844 255 255 255
-78.68560791015625 -9.635090827941895 -14.438042640686035 255 255 255
-79.37869262695312 3.330700159072876 30.094017028808594 255 255 255
-79.10780334472656 3.1715033054351807 29.837129592895508 255 255 255
-72.26004791259766 -3.064830780029297 -0.20565634965896606 255 255 255
-78.21121215820312 3.535487651824951 32.48259735107422 255 255 255
-79.4839096069336 5.148933410644531 16.989999771118164 255 255 255
-72.61616516113281 -4.623392581939697 -0.35383397340774536 255 255 255
-86.14718627929688 -3.0626184940338135 12.316254615783691 255 255 255
-83.21956634521484 -6.717918872833252 12.45034408569336 255 255 255
-77.68897247314453 -2.0256550312042236 -14.920451164245605 255 255 255
-79.56555938720703 -8.111827850341797 -13.287976264953613 255 255 255
-76.61917877197266 -1.4805216789245605 -12.022192001342773 255 255 255
-81.71283721923828 -7.223448753356934 -13.09139633178711 255 255 255
-80.75393676757812 -13.638195037841797 -7.283607482910156 255 255 255
-72.59060668945312 -3.8188741207122803 -0.7701418995857239 255 255 255
-83.00183868408203 -3.3159120082855225 16.354419708251953 255 255 255
-78.65876770019531 -2.286250114440918 21.140275955200195 255 255 255
-79.01829528808594 5.563702583312988 22.60407829284668 255 255 255
-78.69160461425781 -1.49215567111969 15.05213737487793 255 255 255
-89.02495574951172 -0.12088469415903091 -2.1352193355560303 255 255 255
-77.80917358398438 -5.0183258056640625 8.516490936279297 255 255 255
-71.36949920654297 3.6586790084838867 17.376953125 255 255 255
-78.62142944335938 -8.184438705444336 -8.3248872756958 255 255 255
-79.25891876220703 -9.636980056762695 0.36942872405052185 255 255 255
-80.85857391357422 -14.221506118774414 -7.189565658569336 255 255 255
-72.74151611328125 -2.920111656188965 1.5236228704452515 255 255 255
-72.83866882324219 -6.274178981781006 2.822096586227417 255 255 255
-73.64234924316406 -4.011748313903809 3.6878020763397217 255 255 255
-82.55228424072266 -8.632752418518066 -11.474970817565918 255 255 255
-72.13733673095703 -5.143979072570801 -4.090170860290527 255 255 255
-77.9273910522461 5.351516246795654 28.089435577392578 255 255 255
-78.35110473632812 6.917356491088867 26.030757904052734 255 255 255
-71.48406219482422 6.612844944000244 22.14222526550293 255 255 255
-72.38121032714844 -7.223532676696777 1.7059590816497803 255 255 255
-86.33226013183594 -7.410613536834717 9.16637897491455 255 255 255
-75.37643432617188 10.32282829284668 43.79846954345703 255 255 255
-77.67459106445312 2.850086212158203 37.04795837402344 255 255 255
-74.78524017333984 9.84256362915039 38.64818572998047 255 255 255
-72.77690887451172 -4.107770919799805 0.8698616623878479 255 255 255
-82.43140411376953 -6.883768558502197 -22.027156829833984 255 255 255
-74.17573547363281 5.302340507507324 44.41130065917969 255 255 255
-78.40471649169922 6.693611145019531 31.583194732666016 255 255 255
-80.49461364746094 -4.181183815002441 10.917141914367676 255 255 255
-72.53765869140625 5.248442649841309 44.94062805175781 255 255 255
-78.46114349365234 7.043300628662109 31.322118759155273 255 255 255
-81.3736343383789 8.197667121887207 38.67803192138672 255 255 255
-79.72306060791016 9.235465049743652 43.515220642089844 255 255 255
-75.93585968017578 3.2216408252716064 46.51646423339844 255 255 255
-72.83541870117188 10.064438819885254 39.037689208984375 255 255 255
-80.03399658203125 -2.345139503479004 3.4391582012176514 255 255 255
-74.70817565917969 5.960350036621094 42.87539291381836 255 255 255
-77.61138153076172 5.430705547332764 46.333431243896484 255 255 255
-81.24453735351562 -3.092427968978882 -4.147505283355713 255 255 255
-81.63294219970703 -8.9352445602417 -25.9007568359375 255 255 255
-79.00467681884766 -9.044438362121582 -11.606741905212402 255 255 255
-84.03117370605469 -7.0342278480529785 -20.574949264526367 255 255 255
-76.82500457763672 2.1847918033599854 2.848863363265991 255 255 255
-74.0877456665039 2.6176888942718506 46.86529541015625 255 255 255
-76.17352294921875 2.693798303604126 43.85327911376953 255 255 255
-74.60560607910156 5.164581775665283 42.93098068237305 255 255 255
-76.7105712890625 -8.462930679321289 -7.756534099578857 255 255 255
-77.64159393310547 -1.9680986404418945 -14.687956809997559 255 255 255
-78.65074157714844 -7.889401435852051 -10.789255142211914 255 255 255
-81.93862915039062 -3.747136354446411 -24.354644775390625 255 255 255
-77.92772674560547 2.7651214599609375 23.339876174926758 255 255 255
-75.49061584472656 9.818198204040527 39.49189376831055 255 255 255
-75.40721893310547 7.298366546630859 26.52320671081543 255 255 255
-79.08152770996094 3.25346302986145 29.942668914794922 255 255 255
-72.04961395263672 5.286077499389648 45.201114654541016 255 255 255
-82.8077163696289 -10.371260643005371 3.621250629425049 255 255 255
-79.21080780029297 -7.298257827758789 12.684964179992676 255 255 255
-87.55367279052734 -8.999754905700684 4.872880935668945 255 255 255
-78.97462463378906 4.632351398468018 23.259798049926758 255 255 255
-80.4308853149414 14.17471981048584 76.05169677734375 255 255 255
-79.63744354248047 10.1380615234375 71.81552124023438 255 255 255
-74.88060760498047 11.642251968383789 80.30531311035156 255 255 255
-75.55426025390625 11.243526458740234 80.74674224853516 255 255 255
-79.25391387939453 17.119338989257812 75.92484283447266 255 255 255
-75.3788833618164 9.15548324584961 78.5511245727539 255 255 255
-73.3006820678711 9.704267501831055 78.53321838378906 255 255 255
-73.57625579833984 16.858903884887695 78.67670440673828 255 255 255
-79.46209716796875 -6.126511096954346 12.30697250366211 255 255 255
-80.53599548339844 3.65274715423584 10.470917701721191 255 255 255
-78.6546401977539 -7.316766262054443 10.993917465209961 255 255 255
-79.08367919921875 4.826403617858887 22.640283584594727 255 255 255
-79.5457534790039 -1.555675745010376 7.42500114440918 255 255 255
-79.4737548828125 2.4438910484313965 5.642779350280762 255 255 255
-83.22203063964844 -5.205358982086182 47.48489761352539 255 255 255
-79.89020538330078 14.781866073608398 74.73908996582031 255 255 255
-78.90811157226562 5.632192134857178 23.25437355041504 255 255 255
-76.6783218383789 2.7964119911193848 45.83198165893555 255 255 255
-81.70457458496094 6.1739935874938965 28.09343910217285 255 255 255
-77.3145980834961 16.17961883544922 74.07148742675781 255 255 255
-77.18952178955078 16.746606826782227 78.80300903320312 255 255 255
-77.37603759765625 13.878389358520508 77.594482421875 255 255 255
-80.7344970703125 12.864764213562012 66.71803283691406 255 255 255
-80.20992279052734 14.180338859558105 76.10053253173828 255 255 255
-82.8552017211914 6.593754768371582 69.7724380493164 255 255 255
-78.64997863769531 12.331887245178223 79.50751495361328 255 255 255
-95.554931640625 9.547741889953613 83.0963134765625 255 255 255
-77.52812957763672 17.040424346923828 77.20940399169922 255 255 255
-76.37286376953125 13.05682373046875 80.44747161865234 255 255 255
-77.63482666015625 -17.429039001464844 -28.52109146118164 255 255 255
-81.13275909423828 18.124160766601562 81.06806945800781 255 255 255
-94.23091125488281 5.163011074066162 83.2072982788086 255 255 255
-76.8692398071289 16.97085189819336 77.3602294921875 255 255 255
-78.17529296875 12.482098579406738 79.54240417480469 255 255 255
-89.4903564453125 14.685225486755371 73.96292114257812 255 255 255
-77.48235321044922 13.679343223571777 78.01551055908203 255 255 255
-77.16900634765625 13.783743858337402 80.68709564208984 255 255 255
-83.46954345703125 7.243023872375488 43.16974639892578 255 255 255
-76.52275085449219 6.242875576019287 59.43976974487305 255 255 255
-79.59014892578125 11.269495010375977 64.71538543701172 255 255 255
-78.14140319824219 12.516624450683594 80.3552474975586 255 255 255
-75.66519165039062 12.095303535461426 51.738677978515625 255 255 255
-71.33653259277344 8.270730018615723 51.08866500854492 255 255 255
-77.99974060058594 5.4629926681518555 35.88766098022461 255 255 255
-75.8942642211914 11.26043701171875 51.577392578125 255 255 255
-94.26236724853516 13.740001678466797 82.45608520507812 255 255 255
-72.37000274658203 -1.0898082256317139 2.859922409057617 255 255 255
-73.42940521240234 2.5806772708892822 47.08189392089844 255 255 255
-85.09546661376953 14.640604972839355 82.07142639160156 255 255 255
-81.39523315429688 -11.935256958007812 -23.910015106201172 255 255 255
-80.28034210205078 -7.987281322479248 -15.36331558227539 255 255 255
-78.04444122314453 2.7653768062591553 45.05165100097656 255 255 255
-80.1819076538086 8.596417427062988 47.97077560424805 255 255 255
-80.28640747070312 11.203948020935059 71.64164733886719 255 255 255
-91.83860778808594 6.041487216949463 59.95494079589844 255 255 255
-93.13655853271484 15.888459205627441 79.83650207519531 255 255 255
-88.64236450195312 14.771964073181152 74.1777114868164 255 255 255
-77.88855743408203 17.002826690673828 76.28477478027344 255 255 255
-78.44535064697266 14.379493713378906 78.22164916992188 255 255 255
-78.41621398925781 11.036383628845215 64.78714752197266 255 255 255
-79.7396240234375 11.763995170593262 70.41526794433594 255 255 255
-89.10221099853516 5.276851177215576 65.88934326171875 255 255 255
-82.37344360351562 6.879290580749512 68.9802474975586 255 255 255
-80.26014709472656 6.533433437347412 70.06328582763672 255 255 255
-73.92382049560547 11.43175220489502 78.55638122558594 255 255 255
-78.9102783203125 -12.375341415405273 -10.663865089416504 255 255 255
-78.8300552368164 -8.393560409545898 -7.8754048347473145 255 255 255
-83.66244506835938 7.62874698638916 77.24047088623047 255 255 255
-85.3713150024414 8.28394889831543 75.5757064819336 255 255 255
-82.41140747070312 17.670482635498047 79.95063018798828 255 255 255
-76.88359832763672 18.265546798706055 80.92188262939453 255 255 255
-76.03296661376953 13.53506088256836 63.669273376464844 255 255 255
-75.8019027709961 14.863459587097168 68.39869689941406 255 255 255
-76.44278717041016 10.024947166442871 69.22681427001953 255 255 255
-84.26121520996094 6.9192633628845215 65.8945541381836 255 255 255
-78.18519592285156 3.1201066970825195 60.4615478515625 255 255 255
-88.05718994140625 16.9425048828125 73.68020629882812 255 255 255
-74.76783752441406 12.224252700805664 66.50979614257812 255 255 255
-77.63130950927734 5.300637245178223 65.73579406738281 255 255 255
-77.88245391845703 2.8778302669525146 49.955020904541016 255 255 255
-78.27272033691406 -19.530006408691406 -28.728178024291992 255 255 255
-73.32743835449219 -4.222715377807617 -0.20082668960094452 255 255 255
-72.29923248291016 -4.624772548675537 -3.354046106338501 255 255 255
-73.11756134033203 -1.4490925073623657 -12.453327178955078 255 255 255
-80.92881774902344 7.148244380950928 30.03147315979004 255 255 255
-80.58088684082031 5.9429850578308105 73.3483657836914 255 255 255
-81.45401000976562 7.548478603363037 35.27136993408203 255 255 255
-80.33416748046875 -0.4545380771160126 46.43508529663086 255 255 255
-90.03449249267578 -2.447038173675537 46.269832611083984 255 255 255
-75.14784240722656 12.213027954101562 65.2030029296875 255 255 255
-83.12454986572266 5.498953342437744 65.39026641845703 255 255 255
-80.30142211914062 8.573598861694336 39.49998474121094 255 255 255
-76.874755859375 5.0274658203125 55.850948333740234 255 255 255
-77.06584167480469 15.777592658996582 72.17230987548828 255 255 255
-88.39744567871094 10.151961326599121 56.685935974121094 255 255 255
-86.14320373535156 5.287007808685303 60.3519172668457 255 255 255
-89.7640151977539 5.099521160125732 57.56180191040039 255 255 255
-83.77568054199219 5.628961086273193 69.07420349121094 255 255 255
-82.1099853515625 10.586211204528809 69.28607940673828 255 255 255
-81.98102569580078 6.28125 69.34159851074219 255 255 255
-91.38006591796875 6.2019572257995605 37.539703369140625 255 255 255
-74.40255737304688 10.319059371948242 41.49693298339844 255 255 255
-76.1758804321289 16.951955795288086 76.4050521850586 255 255 255
-89.5674819946289 11.569148063659668 81.20750427246094 255 255 255
-86.7826156616211 14.936607360839844 80.04446411132812 255 255 255
-81.11698150634766 5.6195197105407715 74.07310485839844 255 255 255
-81.75288391113281 5.414834499359131 74.04045867919922 255 255 255
-75.80071258544922 17.023880004882812 77.45843505859375 255 255 255
-74.3241195678711 10.698874473571777 76.39095306396484 255 255 255
-72.8554458618164 17.10978889465332 75.82872009277344 255 255 255
-80.40408325195312 17.75033950805664 74.67791748046875 255 255 255
-91.32654571533203 4.280736446380615 81.12603759765625 255 255 255
-72.07814025878906 14.969470977783203 70.33760070800781 255 255 255
-89.08415985107422 12.637042999267578 56.1428337097168 255 255 255
-84.78043365478516 13.709626197814941 62.937721252441406 255 255 255
-80.88841247558594 7.144288063049316 70.41316223144531 255 255 255
-74.89266204833984 8.569160461425781 68.96685791015625 255 255 255
-84.92076873779297 11.426081657409668 74.81755828857422 255 255 255
-75.53071594238281 11.06080436706543 66.32958221435547 255 255 255
-76.36125183105469 13.513949394226074 63.434791564941406 255 255 255
-75.7013168334961 14.894393920898438 68.58353424072266 255 255 255
-75.37318420410156 11.948209762573242 66.23320770263672 255 255 255
-86.23289489746094 8.516253471374512 67.91378784179688 255 255 255
-80.35144805908203 -12.960739135742188 -10.105685234069824 255 255 255
-79.82600402832031 -10.139989852905273 -14.97291374206543 255 255 255
-75.74949645996094 16.363319396972656 76.56349182128906 255 255 255
-83.928955078125 17.56977081298828 79.85526275634766 255 255 255
-75.14471435546875 12.56644058227539 57.90935516357422 255 255 255
-74.88725280761719 2.815164089202881 46.109073638916016 255 255 255
-78.33375549316406 1.1531288623809814 56.238365173339844 255 255 255
-84.80411529541016 13.209951400756836 61.38715744018555 255 255 255
-78.04883575439453 7.022871017456055 56.98921585083008 255 255 255
-76.92655181884766 8.775691032409668 70.81817626953125 255 255 255
-81.12364196777344 13.313374519348145 75.94707489013672 255 255 255
-79.01640319824219 14.115843772888184 74.42221069335938 255 255 255
-81.09268188476562 13.318819999694824 75.96932983398438 255 255 255
-92.54947662353516 5.7714009284973145 35.18622589111328 255 255 255
-76.61699676513672 6.150689125061035 62.75334930419922 255 255 255
-80.04427337646484 11.013327598571777 63.78573989868164 255 255 255
-77.6336669921875 9.00101375579834 70.6479263305664 255 255 255
-75.85760498046875 11.187889099121094 68.58099365234375 255 255 255
-85.72985076904297 6.600057601928711 77.1906509399414 255 255 255
-76.87593078613281 17.447071075439453 75.42605590820312 255 255 255
-77.40945434570312 15.896966934204102 72.6062240600586 255 255 255
-77.90650939941406 11.061174392700195 80.74884796142578 255 255 255
-77.79367065429688 2.5662004947662354 45.527984619140625 255 255 255
-73.3747787475586 9.668766975402832 78.4878158569336 255 255 255
-81.15811157226562 6.643618583679199 76.39884948730469 255 255 255
-74.01190185546875 10.157000541687012 78.72441101074219 255 255 255
-69.24015808105469 14.9630126953125 70.79627227783203 255 255 255
-76.76642608642578 6.043807029724121 64.74598693847656 255 255 255
-78.21410369873047 6.571948051452637 28.684814453125 255 255 255
-77.385498046875 7.761939525604248 58.68646240234375 255 255 255
-76.46056365966797 12.486149787902832 58.502830505371094 255 255 255
-78.43711853027344 16.01533317565918 72.9127197265625 255 255 255
-89.1272964477539 3.461463451385498 75.2822265625 255 255 255
-73.60162353515625 4.720734596252441 40.84296798706055 255 255 255
-77.35404205322266 6.945611476898193 46.34546661376953 255 255 255
-73.40660858154297 5.436990261077881 46.35739517211914 255 255 255
-75.77118682861328 0.6568920016288757 47.08043670654297 255 255 255
-78.12420654296875 13.58302116394043 76.91153717041016 255 255 255
-79.99353790283203 8.149539947509766 61.47304153442383 255 255 255
-79.73480987548828 2.7282302379608154 59.99357986450195 255 255 255
-76.00045013427734 14.615498542785645 63.147823333740234 255 255 255
-85.40208435058594 13.000523567199707 69.81819915771484 255 255 255
-73.14073944091797 2.3638622760772705 45.959659576416016 255 255 255
-77.03954315185547 0.9803458452224731 48.612709045410156 255 255 255
-78.18419647216797 3.001452684402466 45.06495666503906 255 255 255
-74.68037414550781 -1.5851892232894897 -5.547318935394287 255 255 255
-73.48851013183594 -5.542740345001221 2.4323008060455322 255 255 255
-78.32972717285156 -12.92722225189209 -11.598123550415039 255 255 255
-81.91229248046875 6.981325626373291 75.18517303466797 255 255 255
-83.0909423828125 5.5409746170043945 75.21347045898438 255 255 255
-85.10364532470703 5.689164638519287 76.35018920898438 255 255 255
-73.67301177978516 5.793977737426758 45.26516342163086 255 255 255
-76.8654556274414 12.662357330322266 59.52320861816406 255 255 255
-74.1574935913086 3.107818603515625 45.83073806762695 255 255 255
-79.27959442138672 17.64919662475586 74.69007873535156 255 255 255
-78.49241638183594 17.731414794921875 79.3992691040039 255 255 255
-77.37145233154297 6.97307825088501 46.3964729309082 255 255 255
-77.21194458007812 7.161810874938965 46.909393310546875 255 255 255
-73.8905258178711 2.5178911685943604 46.70045852661133 255 255 255
-77.69135284423828 17.05645751953125 76.58045196533203 255 255 255
-73.75421142578125 10.143208503723145 78.31143188476562 255 255 255
-73.64432525634766 9.53422737121582 78.97412109375 255 255 255
-73.60657501220703 11.179256439208984 77.72919464111328 255 255 255
-78.47968292236328 -2.26242995262146 21.69668960571289 255 255 255
-79.0205078125 4.879550457000732 27.172582626342773 255 255 255
-87.95256042480469 7.516152381896973 36.78476333618164 255 255 255
-75.41970825195312 3.1463403701782227 43.025081634521484 255 255 255
-74.7093505859375 11.09500789642334 42.14558792114258 255 255 255
-80.99951934814453 0.45588573813438416 32.13224411010742 255 255 255
-69.41558837890625 6.660693168640137 74.3640365600586 255 255 255
-76.78784942626953 -12.328051567077637 -10.828292846679688 255 255 255
-76.67678833007812 9.763056755065918 78.06749725341797 255 255 255
-88.24244689941406 14.167865753173828 82.00139617919922 255 255 255
-80.91002655029297 6.382976055145264 75.40424346923828 255 255 255
-73.27757263183594 17.82034683227539 80.18000030517578 255 255 255
-75.74528503417969 16.920801162719727 76.50607299804688 255 255 255
