-82.453857421875 -1.948330283164978 -13.9791841506958 74 205 254
-85.90833282470703 -0.9847548604011536 -9.950358390808105 75 205 254
-82.12813568115234 -2.8112051486968994 -9.86801815032959 74 204 254
-85.48168182373047 -1.3318241834640503 -11.958656311035156 74 204 254
-85.63456726074219 -1.0116567611694336 -11.794907569885254 74 205 254
-86.20379638671875 -0.8736472129821777 -13.601957321166992 75 205 254
-87.00434875488281 -0.7573800086975098 -12.53613567352295 75 205 254
-83.03778839111328 -1.5351831912994385 -14.352800369262695 74 205 254
-84.20266723632812 -1.1614073514938354 -14.92977523803711 74 204 254
-82.38749694824219 -2.038283348083496 -13.685376167297363 75 205 254
-84.14739227294922 -1.637926459312439 -12.603676795959473 74 204 254
-84.27438354492188 -1.3693822622299194 -12.294499397277832 74 204 254
-81.63652801513672 -1.9779611825942993 -15.414144515991211 74 204 254
-81.57261657714844 -2.0222506523132324 -15.042988777160645 75 205 254
-83.97781372070312 -1.9798948764801025 -10.89849853515625 75 205 254
-84.69491577148438 -1.2001053094863892 -12.280049324035645 75 205 254
-82.6633071899414 -2.1208367347717285 -10.313220024108887 74 204 254
-86.92628479003906 -0.5593158602714539 -11.506369590759277 75 205 254
-82.10511779785156 -1.8833773136138916 -14.12741470336914 75 205 254
-84.32258605957031 -1.5359548330307007 -11.145066261291504 74 204 254
-87.26666259765625 -0.6573081612586975 -12.192330360412598 75 205 254
-87.0586166381836 -0.7874475717544556 -12.203017234802246 75 205 254
-84.05780792236328 -1.3070253133773804 -13.146705627441406 75 204 254
-83.44263458251953 -2.3772964477539062 -9.672258377075195 75 205 254
-81.18722534179688 -2.0599472522735596 -12.60488224029541 75 205 254
-83.70973205566406 -1.6028751134872437 -11.455230712890625 75 205 254
-82.5555419921875 -2.2720115184783936 -10.241642951965332 75 205 254
-83.38046264648438 -1.4169015884399414 -13.836031913757324 75 205 254
-83.84890747070312 -2.1267623901367188 -8.124373435974121 75 204 254
-82.8910903930664 -1.9832944869995117 -10.731597900390625 75 204 254
-83.97456359863281 -1.3716239929199219 -12.9395112991333 75 205 254
-83.78451538085938 -1.7590758800506592 -10.343667030334473 74 204 254
-86.06266784667969 -0.9345319271087646 -10.193892478942871 75 204 254
-85.7967529296875 -0.9899816513061523 -11.182175636291504 74 205 254
-84.9782485961914 -1.1185121536254883 -12.582719802856445 75 205 254
-83.97975158691406 -1.3345189094543457 -13.259414672851562 75 205 254
-84.956787109375 -1.0340297222137451 -12.89159870147705 74 205 254
-85.08566284179688 -1.5995075702667236 -11.038015365600586 75 204 254
-86.21588897705078 -0.8927949070930481 -10.855165481567383 75 205 254
-85.86173248291016 -1.3845053911209106 -10.692265510559082 75 205 254
-86.36627197265625 -0.9431333541870117 -10.03502082824707 74 205 254
-82.05265808105469 -2.4659106731414795 -10.569759368896484 74 205 254
-85.91617584228516 -1.2238562107086182 -11.74553394317627 74 204 254
-85.40333557128906 -1.1862642765045166 -11.149495124816895 74 204 254
-82.44232940673828 -2.3125123977661133 -12.568257331848145 75 205 254
-82.51008605957031 -2.5247583389282227 -11.693991661071777 75 205 254
-82.35078430175781 -2.3453047275543213 -10.489202499389648 75 205 254
-83.12825775146484 -2.110537528991699 -11.587875366210938 74 205 254
-82.59515380859375 -1.9922865629196167 -13.902644157409668 74 204 254
-83.34634399414062 -2.4728925228118896 -9.364739418029785 74 204 254
-86.0281753540039 -0.8370431065559387 -11.855446815490723 75 205 254
-85.9999771118164 -0.9781119227409363 -13.272879600524902 75 205 254
-84.57808685302734 -1.55189847946167 -12.373200416564941 74 204 254
-87.54020690917969 -0.6774057745933533 -9.67841625213623 74 205 254
-84.7580337524414 -0.9857836365699768 -14.977425575256348 75 205 254
-85.58692169189453 -1.045231580734253 -11.374336242675781 75 204 254
-83.96017456054688 -1.6410161256790161 -10.767302513122559 74 204 254
-84.68216705322266 -1.0288430452346802 -14.813888549804688 75 205 254
-82.16006469726562 -1.9000812768936157 -13.855432510375977 75 205 254
-85.21627044677734 -0.9639396667480469 -13.243643760681152 75 205 254
-82.19718170166016 -1.7690727710723877 -14.780409812927246 74 205 254
-81.46062469482422 -2.1165716648101807 -13.669981002807617 74 204 254
-86.94525909423828 -0.7378449440002441 -12.908971786499023 75 205 254
-85.47115325927734 -1.1853166818618774 -10.566272735595703 75 205 254
-83.91038513183594 -1.2789393663406372 -13.896452903747559 74 205 254
-83.07678985595703 -2.0199265480041504 -10.683464050292969 75 204 254
-87.38365936279297 -0.6239375472068787 -12.639827728271484 75 205 254
-82.94940185546875 -1.5959888696670532 -14.163286209106445 74 205 254
-82.32831573486328 -1.9187780618667603 -13.195255279541016 75 205 254
-86.65753936767578 -0.7485777735710144 -13.377272605895996 75 204 254
-83.63878631591797 -2.2255570888519287 -10.131119728088379 75 204 254
-86.53681182861328 -0.9968441128730774 -11.970537185668945 75 205 254
-86.3882827758789 -0.8939328193664551 -12.956951141357422 74 205 254
-84.83202362060547 -1.2032020092010498 -14.306306838989258 74 205 254
-84.0884780883789 -1.5069719552993774 -13.706995010375977 74 204 254
-81.68724822998047 -2.432225465774536 -11.630139350891113 75 205 254
-85.71732330322266 -1.3607501983642578 -11.282496452331543 74 204 254
-86.4269790649414 -0.8534468412399292 -10.767502784729004 74 205 254
-85.29084777832031 -1.4619718790054321 -11.500556945800781 74 204 254
-81.7529067993164 -2.087270498275757 -14.372766494750977 75 205 254
-84.0063247680664 -1.4374043941497803 -14.653313636779785 74 205 254
-83.90528106689453 -1.4768329858779907 -11.882789611816406 75 205 254
-82.39606475830078 -2.6651840209960938 -11.09507942199707 75 205 254
-84.99958801269531 -1.2961409091949463 -13.281743049621582 74 205 254
-82.824951171875 -2.631035327911377 -9.456648826599121 75 205 254
-82.27847290039062 -2.4323689937591553 -9.479140281677246 75 205 254
-85.36996459960938 -1.3682177066802979 -10.09786605834961 74 204 254
-84.94354248046875 -1.3013159036636353 -11.364842414855957 74 205 254
-85.56932830810547 -1.332068681716919 -13.672404289245605 74 204 254
-83.56298065185547 -2.148164749145508 -12.515096664428711 75 204 254
-81.73670196533203 -1.8860574960708618 -16.740917205810547 75 205 254
-82.70699310302734 -2.0907161235809326 -14.456803321838379 75 204 254
-82.95684051513672 -2.064568042755127 -13.875471115112305 75 205 254
-82.03009796142578 -2.029451608657837 -14.949531555175781 75 204 254
-81.95389556884766 -1.946816086769104 -16.070194244384766 74 204 254
-85.9165267944336 -1.4409940242767334 -12.348212242126465 74 205 254
-82.92577362060547 -1.8102507591247559 -16.022441864013672 74 205 254
-85.71971130371094 -1.4195563793182373 -12.691823959350586 75 205 254
-82.96537780761719 -1.7510517835617065 -16.353055953979492 74 205 254
-81.93729400634766 -1.9583740234375 -16.46523666381836 75 204 254
-83.32196044921875 -2.094148874282837 -13.150948524475098 75 204 254
-84.1525650024414 -1.9058027267456055 -12.748083114624023 75 204 254
-88.17325592041016 -0.48224520683288574 -13.568968772888184 74 204 254
-86.93852233886719 -0.9976069331169128 -13.025154113769531 74 204 254
-85.40027618408203 -1.4499610662460327 -13.221251487731934 75 204 254
-84.76979064941406 -1.6691824197769165 -12.977607727050781 75 204 254
-82.18598937988281 -1.9932001829147339 -15.406678199768066 75 204 254
-87.55238342285156 -0.7679340839385986 -13.28044319152832 74 204 254
-87.85753631591797 -0.626654863357544 -13.270638465881348 74 205 254
-88.5674819946289 -0.3701416850090027 -13.38537883758545 74 205 254
-83.08529663085938 -2.3299973011016846 -12.319018363952637 74 205 254
-83.8559341430664 -1.7309092283248901 -14.510106086730957 74 205 254
-87.75443267822266 -0.6549866795539856 -13.730738639831543 74 205 254
-86.65633392333984 -0.992469072341919 -13.721022605895996 74 204 254
-82.75615692138672 -2.0345675945281982 -14.884379386901855 74 205 254
-82.43912506103516 -1.9569612741470337 -16.24414825439453 74 204 254
-82.09016418457031 -2.120595693588257 -14.4204683303833 75 205 254
-84.95309448242188 -1.5857388973236084 -13.132006645202637 74 205 254
-84.00657653808594 -1.7996151447296143 -13.823326110839844 75 205 254
-86.42865753173828 -0.965503990650177 -14.380043029785156 74 205 254
-83.736083984375 -1.5839285850524902 -15.675338745117188 74 205 254
-83.17784881591797 -1.9666680097579956 -14.221205711364746 75 204 254
-87.39960479736328 -0.6924713253974915 -14.199249267578125 74 205 254
-87.29529571533203 -0.756263017654419 -13.931098937988281 74 205 254
-84.30109405517578 -1.928147315979004 -12.365036964416504 74 205 254
-83.0250244140625 -1.8951668739318848 -14.93101978302002 74 204 254
-83.32262420654297 -1.7113587856292725 -15.839326858520508 74 204 254
-83.37821960449219 -1.8392157554626465 -14.758069038391113 74 204 254
-82.58607482910156 -1.863153338432312 -16.53403091430664 74 205 254
-82.3730697631836 -2.007782220840454 -15.177653312683105 75 204 254
-82.44544219970703 -2.6056206226348877 -11.952773094177246 75 205 254
-82.68061828613281 -2.3057668209075928 -12.919551849365234 75 205 254
-82.42387390136719 -2.054131031036377 -15.475944519042969 75 205 254
-85.20951080322266 -1.5849400758743286 -12.742058753967285 74 204 254
-82.49425506591797 -2.0596580505371094 -15.109272956848145 74 205 254
-85.8421859741211 -1.331498622894287 -13.006953239440918 75 204 254
-83.43573760986328 -2.261702299118042 -12.128924369812012 75 205 254
-82.4646224975586 -2.4903690814971924 -12.445199012756348 75 205 254
-82.1966323852539 -2.00431752204895 -15.77851676940918 75 205 254
-83.65554809570312 -2.224810838699341 -11.995551109313965 75 205 254
-85.09345245361328 -1.268546462059021 -14.996235847473145 74 205 254
-86.29947662353516 -1.2335816621780396 -12.80306625366211 75 204 254
-85.04605102539062 -1.6879854202270508 -12.424564361572266 74 204 254
-84.26346588134766 -1.6277716159820557 -14.301237106323242 74 204 254
-84.71488952636719 -1.5111653804779053 -14.078971862792969 74 204 254
-84.08292388916016 -1.60220468044281 -14.9505615234375 75 205 254
-86.03884887695312 -1.2081716060638428 -13.440057754516602 74 204 254
-83.8138427734375 -1.531194806098938 -15.940957069396973 74 205 254
-84.59146881103516 -1.7849479913711548 -12.61733627319336 74 204 254
-86.24064636230469 -1.0853745937347412 -13.900664329528809 74 204 254
-87.28256225585938 -0.8964254260063171 -12.911698341369629 75 205 254
-86.72451782226562 -1.1152393817901611 -12.664642333984375 74 204 254
-82.94377899169922 -1.9760836362838745 -13.988849639892578 75 205 254
-84.65262603759766 -1.3554896116256714 -15.198034286499023 74 205 254
-82.14380645751953 -2.185267686843872 -14.10115909576416 75 205 254
-84.4615707397461 -1.488002896308899 -14.747476577758789 75 205 254
-88.29817199707031 -0.43756940960884094 -13.783968925476074 74 205 254
-84.74337768554688 -1.284792423248291 -15.493809700012207 74 205 254
-84.31963348388672 -1.4131927490234375 -15.703445434570312 74 205 254
-82.26750183105469 -2.349168062210083 -13.228109359741211 75 205 254
-86.85894012451172 -0.8681716322898865 -14.16915225982666 75 205 254
-84.25164031982422 -1.480029821395874 -15.421747207641602 75 205 254
-83.90629577636719 -1.8953871726989746 -13.410188674926758 75 204 254
-84.68631744384766 -1.6445610523223877 -13.325495719909668 75 205 254
-85.62310791015625 -1.494980812072754 -12.478714942932129 75 205 254
-82.68064880371094 -2.6243669986724854 -11.662453651428223 75 205 254
-83.1181869506836 -1.8219425678253174 -15.373332977294922 74 204 254
-86.59044647216797 -0.8828766345977783 -14.611420631408691 75 204 254
-87.8303451538086 -0.5939021706581116 -14.0086669921875 74 205 254
-82.94866943359375 -1.9406565427780151 -14.519468307495117 74 205 254
-88.94395446777344 -0.25759533047676086 -13.317683219909668 75 204 254
-83.55901336669922 -1.7211397886276245 -15.185482025146484 74 204 254
-82.68461608886719 -1.9486055374145508 -15.588227272033691 74 204 254
-82.4969482421875 -2.091895341873169 -14.717995643615723 75 205 254
-82.37608337402344 -2.2669944763183594 -13.558405876159668 75 205 254
-82.38475799560547 -2.0253074169158936 -14.723065376281738 75 205 254
-86.07601928710938 -1.3531854152679443 -12.523948669433594 74 205 254
-86.47988891601562 -1.111552357673645 -13.261994361877441 74 204 254
-82.87490844726562 -2.1330432891845703 -13.498079299926758 74 205 254
-85.791015625 -1.5110304355621338 -12.185997009277344 75 205 254
-83.398681640625 -2.0061020851135254 -13.621374130249023 74 204 254
-85.2822036743164 -1.5221565961837769 -12.96982192993164 74 205 254
-83.70547485351562 -2.040062189102173 -12.92663288116455 75 204 254
-85.15421295166016 -1.4187991619110107 -13.886472702026367 74 204 254
-84.96385955810547 -1.5425713062286377 -13.428041458129883 75 204 254
-84.48076629638672 -1.6855995655059814 -13.422659873962402 74 205 254
-82.13117980957031 -1.981001853942871 -16.755001068115234 74 205 254
-87.11650085449219 -0.8742694854736328 -13.467883110046387 74 204 254
-83.99282836914062 -2.0086019039154053 -16.46778106689453 74 205 254
-84.88909912109375 -1.6835843324661255 -16.308013916015625 74 205 254
-85.24693298339844 -1.8020423650741577 -14.686812400817871 75 205 254
-87.88356018066406 -1.1518772840499878 -13.34872817993164 74 205 254
-84.82308197021484 -1.891219139099121 -14.873556137084961 74 205 254
-87.38668060302734 -1.1570298671722412 -14.715754508972168 74 205 254
-88.19168090820312 -1.1257665157318115 -12.819681167602539 75 205 254
-84.5789794921875 -1.7494291067123413 -16.482757568359375 75 205 254
-83.77046966552734 -2.2404367923736572 -15.423965454101562 75 205 254
-83.1140365600586 -2.5326015949249268 -14.523624420166016 74 204 254
-84.94963836669922 -2.5458154678344727 -10.622581481933594 74 205 254
-82.82178497314453 -2.7199862003326416 -13.851980209350586 75 205 254
-86.22764587402344 -1.5199042558670044 -14.667118072509766 75 205 254
-84.31375122070312 -2.422966480255127 -12.402267456054688 75 204 254
-87.05301666259766 -1.184017300605774 -15.239398956298828 75 205 254
-84.07305908203125 -2.398517370223999 -13.047453880310059 75 204 254
-84.1576156616211 -2.504117012023926 -12.222620010375977 74 205 254
-82.86259460449219 -2.8832650184631348 -12.551067352294922 75 204 254
-88.8533706665039 -0.7125936150550842 -14.401562690734863 75 205 254
-86.9898681640625 -1.3887532949447632 -13.838025093078613 75 205 254
-82.83174896240234 -2.9402554035186768 -12.170736312866211 75 205 254
-84.6953125 -2.1635401248931885 -13.306108474731445 75 204 254
-82.46361541748047 -2.660691738128662 -15.04098892211914 75 205 254
-83.90457153320312 -2.1055209636688232 -15.99807071685791 74 205 254
-82.96489715576172 -3.0182125568389893 -11.446693420410156 75 205 254
-83.64714050292969 -2.5530011653900146 -12.866003036499023 75 205 254
-85.31126403808594 -1.5905905961990356 -16.05314064025879 75 205 254
-83.10442352294922 -2.6964755058288574 -13.389427185058594 74 204 254
-86.56787109375 -1.485532283782959 -14.011528968811035 74 204 254
-83.04434204101562 -2.931469678878784 -11.897356033325195 75 205 254
-86.81916809082031 -1.5057518482208252 -13.3717622756958 74 205 254
-85.19231414794922 -1.6575452089309692 -15.791543960571289 75 205 254
-86.78907775878906 -1.3530890941619873 -14.50790786743164 75 205 254
-85.88260650634766 -1.6158982515335083 -14.873732566833496 75 205 254
-86.95965576171875 -1.2574794292449951 -14.884306907653809 75 205 254
-82.598388671875 -2.721130132675171 -14.3043794631958 75 205 254
-82.56688690185547 -2.775465965270996 -13.939927101135254 75 205 254
-82.9916763305664 -2.7739338874816895 -13.024714469909668 75 205 254
-85.1010971069336 -1.7113804817199707 -15.585612297058105 74 205 254
-84.02094268798828 -1.964919924736023 -16.728723526000977 74 205 254
-88.50973510742188 -0.92276930809021 -13.622716903686523 75 205 254
-89.15325164794922 -0.6801237463951111 -13.877155303955078 74 205 254
-85.55122375488281 -1.9757397174835205 -12.861124992370605 74 205 254
-83.67849731445312 -2.6733815670013428 -12.128342628479004 75 204 254
-85.44873046875 -1.6914169788360596 -15.080280303955078 75 205 254
-83.91960144042969 -2.5088489055633545 -12.63081169128418 74 205 254
-84.2770004272461 -2.265477180480957 -13.479720115661621 75 204 254
-88.25410461425781 -0.9174156188964844 -14.304930686950684 74 205 254
-85.3044662475586 -1.9680070877075195 -13.511401176452637 74 204 254
-84.54633331298828 -1.7819377183914185 -16.2500057220459 75 204 254
-86.61579132080078 -1.4338918924331665 -14.297857284545898 74 205 254
-82.56875610351562 -2.6748194694519043 -14.729043960571289 75 205 254
-85.93622589111328 -1.7215218544006348 -13.778328895568848 74 204 254
-87.54276275634766 -1.0691941976547241 -15.066435813903809 75 205 254
-88.0740966796875 -1.015305519104004 -13.864923477172852 75 205 254
-87.23110961914062 -1.2650705575942993 -14.249565124511719 75 205 254
-84.8329849243164 -1.729819655418396 -16.068294525146484 74 205 254
-86.44271087646484 -1.4341871738433838 -14.72391128540039 74 205 254
-82.91423797607422 -2.663336753845215 -14.102619171142578 75 204 254
-85.56242370605469 -1.6204241514205933 -15.362828254699707 74 205 254
-85.64835357666016 -1.564984679222107 -15.61789321899414 75 205 254
-84.99215698242188 -1.7739536762237549 -15.350240707397461 75 205 254
-83.29662322998047 -2.9717042446136475 -11.227601051330566 75 205 254
-82.80091094970703 -2.730166435241699 -14.000998497009277 74 205 254
-83.48706817626953 -2.618317127227783 -13.256341934204102 75 205 254
-84.34856414794922 -1.8807711601257324 -16.55158042907715 74 205 254
-87.64623260498047 -1.1478712558746338 -14.079524040222168 75 205 254
-84.02941131591797 -2.2706661224365234 -14.145400047302246 74 205 254
-84.88849639892578 -2.0407490730285645 -13.763961791992188 74 204 254
-86.1742172241211 -1.7374348640441895 -13.114999771118164 74 204 254
-84.82958221435547 -2.506066083908081 -11.060418128967285 75 204 254
-83.43402862548828 -2.1292724609375 -16.729154586791992 75 204 254
-85.50370788574219 -1.839185357093811 -14.005878448486328 74 204 254
-83.67526245117188 -2.5108816623687744 -13.316662788391113 75 205 254
-83.7795639038086 -2.214714288711548 -15.559452056884766 75 205 254
-87.49786376953125 -1.2476038932800293 -13.628332138061523 75 205 254
-87.12168884277344 -1.3285325765609741 -13.987931251525879 74 205 254
-83.24333190917969 -2.8012163639068604 -12.356391906738281 75 205 254
-87.84727478027344 -1.0403180122375488 -14.494810104370117 75 205 254
-88.70980834960938 -0.7980473041534424 -14.092890739440918 75 205 254
-84.42919921875 -2.148188352584839 -13.952042579650879 74 204 254
-82.94749450683594 -3.0675864219665527 -11.09294605255127 74 205 254
-85.75978088378906 -1.8381222486495972 -13.324673652648926 74 204 254
-82.63626098632812 -2.586249351501465 -15.270145416259766 75 205 254
-88.46565246582031 -0.8255829215049744 -14.588128089904785 74 205 254
-82.7889175415039 -2.754326820373535 -13.656905174255371 75 204 254
-83.62466430664062 -2.567880630493164 -13.634970664978027 75 205 254
-83.1075210571289 -2.279282569885254 -16.411121368408203 75 205 254
-85.68367004394531 -1.7300770282745361 -14.437186241149902 74 205 254
-86.39985656738281 -1.606360912322998 -13.520859718322754 74 205 254
-86.11471557617188 -1.478588581085205 -15.434613227844238 75 205 254
-85.07075500488281 -1.916391134262085 -14.243042945861816 74 205 254
-84.50216674804688 -2.293363332748413 -12.83674430847168 75 204 254
-84.6206283569336 -2.020599126815796 -14.403839111328125 74 205 254
-85.39127349853516 -2.0953168869018555 -12.408347129821777 75 204 254
-86.51627349853516 -1.370978593826294 -15.12999439239502 75 205 254
-83.12456512451172 -3.0948660373687744 -10.806648254394531 74 205 254
-86.1295166015625 -1.6040380001068115 -14.217251777648926 75 205 254
-86.01090240478516 -1.5398643016815186 -15.20052433013916 74 205 254
-86.35531616210938 -1.637094259262085 -14.020451545715332 74 204 254
-85.35665893554688 -2.133873462677002 -12.877898216247559 74 204 254
-84.65971374511719 -1.8415284156799316 -16.421817779541016 74 205 254
-88.21239471435547 -1.1246049404144287 -13.181560516357422 75 205 254
-87.5008773803711 -1.0940637588500977 -15.506596565246582 74 205 254
-85.13169860839844 -2.0880377292633057 -13.598882675170898 75 204 254
-87.61090087890625 -1.193152904510498 -14.511214256286621 75 205 254
-88.68782043457031 -0.8204455375671387 -14.569074630737305 75 205 254
-84.09452056884766 -2.318021059036255 -14.575255393981934 75 205 254
-85.7221450805664 -1.8835108280181885 -13.762361526489258 74 204 254
-84.11200714111328 -2.5960750579833984 -12.391853332519531 75 204 254
-83.77611541748047 -2.127577066421509 -16.42488670349121 74 205 254
-88.3023681640625 -1.0674982070922852 -13.639374732971191 74 205 254
-86.46039581298828 -1.4174941778182983 -15.568400382995605 75 205 254
-84.293212890625 -1.96663498878479 -16.652509689331055 75 205 254
-84.3173828125 -2.0846729278564453 -15.540986061096191 75 205 254
-85.19281005859375 -1.6699920892715454 -16.224733352661133 75 205 254
-87.2406005859375 -1.4192159175872803 -13.609387397766113 74 205 254
-84.2319107055664 -2.318948984146118 -13.950592994689941 74 204 254
-84.36223602294922 -2.6415860652923584 -11.71988582611084 75 205 254
-84.49124908447266 -1.9676563739776611 -15.979899406433105 75 205 254
-86.77867126464844 -1.5346624851226807 -13.81640338897705 74 204 254
-86.1558837890625 -1.4438226222991943 -16.125337600708008 74 205 254
-87.0488510131836 -1.3585031032562256 -14.456385612487793 74 205 254
-87.15306091308594 -1.3024886846542358 -14.68818187713623 75 205 254
-84.46874237060547 -2.3248894214630127 -13.302098274230957 74 204 254
-83.65411376953125 -2.7244954109191895 -12.642016410827637 75 205 254
-85.49394989013672 -1.8524281978607178 -14.501038551330566 74 205 254
-85.53180694580078 -2.0045247077941895 -13.347654342651367 74 204 254
-84.66930389404297 -1.806443452835083 -16.805864334106445 75 205 254
-85.23171997070312 -1.823353886604309 -15.155974388122559 74 205 254
-86.2613296508789 -1.5310559272766113 -15.138238906860352 75 205 254
-83.3354721069336 -3.3153955936431885 -10.099098205566406 75 205 254
-83.2970962524414 -2.6410460472106934 -13.918893814086914 74 204 254
-84.49014282226562 -1.87893807888031 -16.935317993164062 74 205 254
-88.03338623046875 -1.1744623184204102 -12.879255294799805 74 205 254
-83.21913146972656 -2.698293924331665 -13.76767635345459 74 205 254
-84.62559509277344 -2.6777117252349854 -11.066963195800781 75 205 254
-83.76405334472656 -2.6501808166503906 -13.00854206085205 75 205 254
-85.44993591308594 -1.7067073583602905 -15.573298454284668 75 205 254
-85.91936492919922 -1.7620197534561157 -14.206724166870117 74 204 254
-84.3268814086914 -2.4439408779144287 -12.855430603027344 75 204 254
-87.65768432617188 -1.2640891075134277 -13.787975311279297 74 205 254
-88.3607406616211 -0.8818151950836182 -15.118270874023438 74 205 254
-83.95952606201172 -2.553032875061035 -13.306309700012207 75 205 254
-83.53488159179688 -2.0643444061279297 -17.394006729125977 75 205 254
-87.8075180053711 -1.0742946863174438 -14.973952293395996 75 205 254
-84.89962768554688 -1.7819604873657227 -16.110260009765625 75 204 254
-85.50234985351562 -1.648471713066101 -15.878068923950195 74 205 254
-89.70491027832031 -0.5255783796310425 -14.494619369506836 74 205 254
-86.69224548339844 -1.7651324272155762 -12.256790161132812 75 204 254
-84.123779296875 -2.53776478767395 -12.74579906463623 74 205 254
-88.478515625 -0.940744936466217 -14.113385200500488 75 205 254
-83.93208312988281 -2.533132791519165 -13.12414264678955 75 205 254
-82.9001235961914 -2.3302724361419678 -16.921796798706055 74 205 254
-87.93535614013672 -0.994192898273468 -15.305643081665039 74 205 254
-84.87030792236328 -1.7061498165130615 -16.75627326965332 74 205 254
-84.98001098632812 -1.793861746788025 -15.785724639892578 75 205 254
-84.05714416503906 -2.44834303855896 -13.477920532226562 75 204 254
-84.77580261230469 -1.9295424222946167 -15.311936378479004 75 205 254
-86.61681365966797 -1.323960781097412 -15.929780960083008 74 205 254
-83.25736999511719 -3.286546230316162 -10.415104866027832 74 205 254
-87.85689544677734 -1.2980096340179443 -12.769731521606445 75 205 254
-86.80509948730469 -1.377126932144165 -14.992446899414062 75 205 254
-83.99378204345703 -1.9720016717910767 -17.121143341064453 74 205 254
-85.28087615966797 -1.9860293865203857 -14.01674747467041 74 204 254
-87.56094360351562 -1.253508448600769 -14.12497329711914 74 205 254
-83.38361358642578 -3.1884021759033203 -10.598235130310059 74 205 254
-84.61418914794922 -2.0444953441619873 -14.867931365966797 75 205 254
-83.13167572021484 -2.2804765701293945 -16.774860382080078 74 205 254
-88.26581573486328 -0.9448405504226685 -14.802577018737793 75 205 254
-86.11065673828125 -1.6364957094192505 -14.695852279663086 75 205 254
-86.99400329589844 -1.404914140701294 -14.265885353088379 75 205 254
-84.84498596191406 -2.0747525691986084 -14.19355583190918 74 204 254
-86.25817108154297 -2.0234522819519043 -11.60053825378418 75 204 254
-83.19462585449219 -3.2244608402252197 -10.88831615447998 75 205 254
-84.06080627441406 -2.1816487312316895 -15.591228485107422 75 205 254
-86.45055389404297 -1.4503183364868164 -15.297135353088379 74 205 254
-83.43101501464844 -2.583298444747925 -14.181977272033691 74 205 254
-85.94849395751953 -1.5684956312179565 -15.612531661987305 74 205 254
-84.44857788085938 -2.1685750484466553 -14.415346145629883 74 205 254
-84.91926574707031 -2.231099843978882 -13.094277381896973 75 204 254
-84.17310333251953 -2.7832539081573486 -11.28352165222168 75 205 254
-84.81060028076172 -1.749648928642273 -16.543155670166016 74 205 254
-87.36528778076172 -1.174461007118225 -15.172568321228027 75 205 254
-87.6676254272461 -1.2179490327835083 -13.368423461914062 75 205 254
-87.09346008300781 -1.193816900253296 -15.752782821655273 74 205 254
-88.0484848022461 -1.0723129510879517 -14.305684089660645 75 205 254
-86.92647552490234 -1.2891013622283936 -15.398664474487305 75 205 254
-82.93768310546875 -2.275700807571411 -17.3200740814209 74 205 254
-89.1023178100586 -0.7313923835754395 -14.337831497192383 75 205 254
-85.66608428955078 -1.7423948049545288 -14.933014869689941 74 205 254
-87.37586975097656 -1.3282562494277954 -14.008060455322266 75 205 254
-85.21558380126953 -2.415064573287964 -11.383975982666016 75 204 254
-85.84221649169922 -1.6331185102462769 -15.360050201416016 75 205 254
-87.8284912109375 -1.382321834564209 -12.287087440490723 75 205 254
-83.55340576171875 -3.036221504211426 -11.042304992675781 75 205 254
-83.33588409423828 -2.162180185317993 -17.123611450195312 75 205 254
-83.16487884521484 -2.7683370113372803 -13.47739315032959 75 205 254
-85.04057312011719 -1.9420620203018188 -14.696876525878906 74 205 254
-84.57353210449219 -1.9691376686096191 -17.62110137939453 74 205 254
-83.85607147216797 -2.126769542694092 -18.01642417907715 74 205 254
-85.29359436035156 -2.028411865234375 -15.243143081665039 74 204 254
-83.52613830566406 -2.340263605117798 -17.210805892944336 74 204 254
-84.89895629882812 -2.104146957397461 -15.483518600463867 74 204 254
-86.82073974609375 -1.598076581954956 -15.086614608764648 74 204 254
-83.44046783447266 -2.5669586658477783 -15.656976699829102 75 205 254
-84.0580062866211 -2.7595081329345703 -13.161233901977539 74 204 254
-84.96509552001953 -2.4889206886291504 -12.967445373535156 75 205 254
-82.80619049072266 -2.3931643962860107 -18.070199966430664 74 205 254
-83.53743743896484 -2.4733333587646484 -16.11273765563965 74 204 254
-85.14527130126953 -2.118454694747925 -14.862598419189453 75 204 254
-83.86283874511719 -2.446072578430176 -15.561286926269531 75 205 254
-88.61710357666016 -1.125672698020935 -14.278885841369629 74 205 254
-84.36747741699219 -2.4752893447875977 -14.111474990844727 74 204 254
-85.05188751220703 -1.9866293668746948 -15.978139877319336 75 205 254
-87.2281265258789 -1.356683373451233 -16.02031898498535 75 205 254
-84.70882415771484 -2.2279269695281982 -15.00458812713623 75 204 254
-83.9692611694336 -2.961796760559082 -12.13918685913086 75 205 254
-83.3826904296875 -3.0019750595092773 -12.971263885498047 75 205 254
-84.77948760986328 -1.9966042041778564 -16.6177978515625 75 205 254
-84.18448638916016 -2.8031139373779297 -12.553277969360352 75 205 254
-88.24516296386719 -1.0570461750030518 -15.924675941467285 75 205 254
-85.62313842773438 -1.660027265548706 -17.216259002685547 74 205 254
-85.49274444580078 -1.906705617904663 -15.701958656311035 74 205 254
-83.84578704833984 -3.2715954780578613 -10.786861419677734 75 205 254
-83.34782409667969 -3.0880067348480225 -12.562934875488281 75 205 254
-82.66150665283203 -2.469574213027954 -17.230609893798828 75 205 254
-82.7588882446289 -2.4386610984802246 -17.66617202758789 74 205 254
-87.34674835205078 -1.6016017198562622 -13.781927108764648 74 204 254
-83.54649353027344 -3.165367603302002 -11.859960556030273 75 205 254
-88.36328887939453 -1.4423208236694336 -12.982048988342285 75 205 254
-85.39585876464844 -2.1630733013153076 -14.16302490234375 74 204 254
-86.3917236328125 -1.611426830291748 -16.087888717651367 75 205 254
-85.1939697265625 -2.2950940132141113 -13.704751014709473 75 204 254
-86.99597930908203 -1.8296356201171875 -12.88774585723877 75 204 254
-83.25682067871094 -2.866635799407959 -14.015670776367188 75 205 254
-85.74716186523438 -1.9381619691848755 -15.061211585998535 74 204 254
-85.2391586303711 -1.8799022436141968 -16.364303588867188 75 205 254
-83.82640838623047 -3.1030914783477783 -11.67336654663086 74 205 254
-84.6537857055664 -2.692631959915161 -12.35020923614502 75 205 254
-86.83287811279297 -1.9294794797897339 -12.58266830444336 74 205 254
-84.94407653808594 -2.2506134510040283 -14.373448371887207 74 204 254
-85.95124816894531 -1.8144981861114502 -15.525740623474121 75 205 254
-89.12433624267578 -1.1378661394119263 -13.533543586730957 75 204 254
-87.36284637451172 -1.276894211769104 -16.33995246887207 74 205 254
-87.38447570800781 -1.4274388551712036 -14.994485855102539 75 205 254
-85.59188079833984 -2.0322868824005127 -14.656880378723145 75 204 254
-83.66735076904297 -2.2411091327667236 -17.65804672241211 75 205 254
-84.13880920410156 -2.6759488582611084 -13.555475234985352 74 205 254
-84.24825286865234 -2.0247018337249756 -17.79728889465332 74 205 254
-84.77828979492188 -2.369133949279785 -13.942665100097656 75 204 254
-83.27352905273438 -2.4592370986938477 -16.775358200073242 75 205 254
-87.91817474365234 -1.382294774055481 -13.970996856689453 75 205 254
-83.67952728271484 -3.241623878479004 -11.214387893676758 74 205 254
-83.29122924804688 -2.7892813682556152 -14.390471458435059 75 205 254
-86.00611877441406 -1.9388000965118408 -14.393750190734863 74 204 254
-88.09578704833984 -1.1351344585418701 -15.590522766113281 75 205 254
-85.75904846191406 -2.3145954608917236 -12.41728687286377 75 204 254
-87.72821044921875 -1.3370509147644043 -14.761275291442871 75 205 254
-88.54827117919922 -1.0038455724716187 -15.43563175201416 75 205 254
-88.97476959228516 -0.8881431818008423 -15.202577590942383 75 205 254
-83.186279296875 -2.5268354415893555 -16.336782455444336 75 205 254
-85.45103454589844 -2.4752330780029297 -12.074195861816406 74 204 254
-87.00736999511719 -1.5140259265899658 -15.336723327636719 75 205 254
-84.77001953125 -1.8970619440078735 -17.589414596557617 74 205 254
-87.47647094726562 -1.3625956773757935 -15.369280815124512 74 204 254
-85.18765258789062 -1.7567187547683716 -17.40765953063965 74 205 254
-87.8172836303711 -1.1707022190093994 -16.15373992919922 75 205 254
-85.08534240722656 -1.8284679651260376 -17.084354400634766 75 205 254
-83.3947982788086 -2.7908530235290527 -14.363417625427246 75 205 254
-83.50518798828125 -2.849543809890747 -13.798563957214355 74 205 254
-82.92113494873047 -2.4895544052124023 -16.980525970458984 75 205 254
-84.24044799804688 -2.5887012481689453 -13.683347702026367 75 205 254
-88.10844421386719 -1.2891876697540283 -14.14684009552002 74 205 254
-83.38282775878906 -2.254183769226074 -18.2742919921875 74 205 254
-87.09119415283203 -1.5893244743347168 -14.441117286682129 74 204 254
-84.37873077392578 -2.118598699569702 -16.791475296020508 75 205 254
-88.35631561279297 -1.1308563947677612 -14.94090461730957 74 205 254
-84.2636947631836 -2.0051510334014893 -17.911767959594727 75 204 254
-86.12783813476562 -1.7073051929473877 -15.941330909729004 75 205 254
-87.89742279052734 -1.2396878004074097 -15.14718246459961 74 204 254
-84.80116271972656 -1.8925988674163818 -17.38353729248047 75 205 254
-83.80086517333984 -2.9350171089172363 -12.696629524230957 75 205 254
-84.52693939208984 -2.344876527786255 -14.59730052947998 74 204 254
-84.18425750732422 -2.2339069843292236 -16.345903396606445 74 205 254
-83.23934936523438 -2.3349452018737793 -17.89620018005371 75 205 254
-84.4739990234375 -2.836895704269409 -11.892573356628418 75 205 254
-86.68997192382812 -1.5446618795394897 -15.821057319641113 75 205 254
-87.02281951904297 -1.4733343124389648 -15.593464851379395 75 205 254
-87.64796447753906 -1.2624692916870117 -15.81002426147461 75 205 254
-85.67306518554688 -1.7963390350341797 -16.144859313964844 75 205 254
-87.21343231201172 -1.496037483215332 -14.870882034301758 75 205 254
-86.18907928466797 -1.820837140083313 -14.85958480834961 75 204 254
-86.64390563964844 -1.7053518295288086 -14.651972770690918 74 205 254
-83.7361831665039 -2.346097707748413 -16.55243492126465 74 205 254
-88.56220245361328 -0.9529916644096375 -15.803608894348145 74 205 254
-83.89513397216797 -2.2283802032470703 -17.063955307006836 75 205 254
-85.81927490234375 -2.063650369644165 -13.949528694152832 74 204 254
-83.01671600341797 -2.4255874156951904 -17.434234619140625 74 204 254
-84.94617462158203 -1.8988499641418457 -18.250408172607422 75 205 254
-84.1469955444336 -2.4056687355041504 -16.3349609375 74 204 254
-85.83785247802734 -1.8605890274047852 -16.62178611755371 74 204 254
-84.55392456054688 -2.550088882446289 -14.571274757385254 74 205 254
-85.22045135498047 -2.475818157196045 -13.809117317199707 74 204 254
-87.43218231201172 -1.5617700815200806 -15.349605560302734 74 204 254
-87.00152587890625 -1.5236976146697998 -16.733760833740234 75 205 254
-85.15122985839844 -1.9308648109436035 -17.464513778686523 75 205 254
-83.17239379882812 -2.28926944732666 -19.246244430541992 74 205 254
-83.87367248535156 -2.1258628368377686 -18.91731071472168 75 205 254
-83.44264221191406 -2.702822685241699 -15.537333488464355 74 205 254
-84.08110046386719 -2.079357147216797 -18.774580001831055 75 205 254
-87.3565444946289 -1.4332067966461182 -16.448230743408203 74 205 254
-88.7030029296875 -1.0760828256607056 -15.851527214050293 74 205 254
-86.79810333251953 -1.7815715074539185 -15.080941200256348 74 204 254
-84.56808471679688 -2.301299571990967 -16.135602951049805 74 204 254
-85.73585510253906 -2.1194522380828857 -15.03605842590332 75 204 254
-82.8076400756836 -2.302271842956543 -19.193113327026367 74 205 254
-83.99110412597656 -2.1346943378448486 -18.572629928588867 75 205 254
-82.9346694946289 -2.3925249576568604 -18.11270523071289 74 205 254
-83.43396759033203 -2.755429267883301 -15.26305103302002 75 205 254
-88.40300750732422 -1.2908146381378174 -14.981795310974121 75 205 254
-83.54178619384766 -2.242482900619507 -18.746204376220703 74 205 254
-87.83641815185547 -1.4512929916381836 -15.133960723876953 74 205 254
-89.13460540771484 -0.9721715450286865 -15.665264129638672 74 205 254
-88.0784683227539 -1.321139931678772 -15.587442398071289 75 205 254
-87.67932891845703 -1.5595203638076782 -14.693021774291992 74 204 254
-88.41622924804688 -1.1238162517547607 -16.49277114868164 74 204 254
-83.79978942871094 -2.2485713958740234 -18.114458084106445 74 205 254
-83.56283569335938 -2.813680648803711 -14.775217056274414 75 204 254
-87.5715560913086 -1.313332200050354 -16.896743774414062 75 205 254
-85.92537689208984 -1.652780294418335 -17.972667694091797 75 205 254
-84.06846618652344 -2.265990972518921 -17.439062118530273 74 205 254
-84.84424591064453 -2.3058648109436035 -15.473490715026855 74 204 254
-84.29335021972656 -2.800976037979126 -13.666934967041016 75 205 254
-86.27507019042969 -1.7678098678588867 -16.429529190063477 74 204 254
-90.66990661621094 -0.528789758682251 -15.47716236114502 74 205 254
-84.80199432373047 -1.9740345478057861 -18.048187255859375 75 205 254
-86.7284927368164 -1.679855465888977 -16.1726016998291 74 205 254
-85.38118743896484 -1.802856206893921 -17.94117546081543 75 205 254
-86.22269439697266 -1.6449809074401855 -17.53600311279297 74 205 254
-87.80209350585938 -1.3259917497634888 -16.251882553100586 74 205 254
-85.28689575195312 -2.199512481689453 -15.259551048278809 75 204 254
-90.22795104980469 -0.6080294251441956 -15.967907905578613 75 204 254
-88.03152465820312 -1.3650610446929932 -15.283661842346191 74 205 254
-83.17374420166016 -2.4163544178009033 -17.864187240600586 74 204 254
-83.2301254272461 -2.5935025215148926 -16.371408462524414 74 205 254
-87.66450500488281 -1.2540959119796753 -17.166780471801758 74 205 254
-84.83454895019531 -2.7847328186035156 -12.799697875976562 75 205 254
-83.79869842529297 -2.6337649822235107 -15.471345901489258 74 204 254
-85.56915283203125 -1.8428906202316284 -17.210241317749023 75 205 254
-84.2509765625 -2.0409719944000244 -18.730344772338867 75 205 254
-83.81493377685547 -3.139547824859619 -12.728742599487305 75 205 254
-84.03787231445312 -2.7218096256256104 -14.640786170959473 75 205 254
-84.11458587646484 -2.662428617477417 -14.816690444946289 75 205 254
-85.49870300292969 -1.7325365543365479 -18.16128158569336 75 205 254
-88.73867797851562 -1.2090816497802734 -14.74074935913086 74 204 254
-84.68329620361328 -2.4307916164398193 -15.022555351257324 74 204 254
-86.1760482788086 -2.028961420059204 -14.842411041259766 75 204 254
-88.85384368896484 -0.9863305687904358 -16.27074432373047 74 205 254
-83.6037368774414 -2.1928658485412598 -19.033193588256836 74 205 254
-87.3142318725586 -1.4861997365951538 -16.107891082763672 75 205 254
-83.07540130615234 -2.5071213245391846 -17.035261154174805 75 205 254
-85.66776275634766 -1.9575334787368774 -16.198591232299805 75 204 254
-83.59568786621094 -2.7467596530914307 -15.0928373336792 74 205 254
-88.00212860107422 -1.213159203529358 -16.69202995300293 74 205 254
-84.52721405029297 -1.9925875663757324 -18.44695281982422 74 205 254
-86.43021392822266 -1.6751703023910522 -16.795269012451172 75 205 254
-89.05411529541016 -1.1762447357177734 -14.221240997314453 75 205 254
-84.70003509521484 -2.0468037128448486 -17.702606201171875 75 205 254
-87.61211395263672 -1.423576831817627 -15.92171859741211 75 205 254
-88.26544952392578 -1.2103530168533325 -16.055797576904297 74 205 254
-83.10953521728516 -2.3125336170196533 -18.995527267456055 74 204 254
-88.10552978515625 -1.1549152135849 -16.96381950378418 74 205 254
-86.54309844970703 -1.7871837615966797 -15.770051956176758 74 204 254
-84.57462310791016 -1.9640182256698608 -18.58909034729004 74 205 254
-85.4638900756836 -2.0785231590270996 -15.72220516204834 75 204 254
-85.0445785522461 -2.16910457611084 -15.928348541259766 74 204 254
-85.88786315917969 -2.004511594772339 -15.49800968170166 74 204 254
-85.5305404663086 -2.2511651515960693 -14.580866813659668 75 204 254
-89.3319320678711 -0.8630695343017578 -16.068105697631836 75 205 254
-88.49667358398438 -1.0688703060150146 -16.793792724609375 75 204 254
-87.11170196533203 -1.5645676851272583 -15.959949493408203 75 205 254
-85.22673034667969 -2.0530340671539307 -16.35896110534668 74 204 254
-82.99478912353516 -2.362175703048706 -18.51360511779785 75 205 254
-82.80841827392578 -2.334859848022461 -18.798248291015625 75 205 254
-83.65127563476562 -2.507197618484497 -16.533601760864258 74 204 254
-83.11528015136719 -2.465770959854126 -17.41259765625 75 205 254
-86.11489868164062 -1.8679951429367065 -15.997481346130371 74 204 254
-83.73374938964844 -2.864447832107544 -14.300980567932129 74 205 254
-83.62071228027344 -2.3629889488220215 -17.635208129882812 74 205 254
-86.99990844726562 -1.653801441192627 -15.53823184967041 74 204 254
-89.37335968017578 -0.8094218373298645 -16.380001068115234 75 205 254
-87.57156372070312 -1.4729619026184082 -15.674395561218262 75 205 254
-85.22974395751953 -1.873945951461792 -17.665191650390625 75 204 254
-85.78414154052734 -2.417146682739258 -13.10033893585205 74 205 254
-86.3801040649414 -1.9000096321105957 -15.307523727416992 74 204 254
-83.3348388671875 -2.3440661430358887 -18.29397964477539 74 205 254
-84.40607452392578 -2.7007813453674316 -13.985969543457031 75 205 254
-84.97998046875 -1.8650580644607544 -18.414047241210938 75 204 254
-84.94617462158203 -1.8988499641418457 -18.250408172607422 75 205 254
-82.8675765991211 -2.0090479850769043 -19.72032928466797 75 205 254
-84.57353210449219 -1.9691376686096191 -17.62110137939453 74 205 254
-84.1469955444336 -2.4056687355041504 -16.3349609375 74 204 254
-83.85607147216797 -2.126769542694092 -18.01642417907715 74 205 254
-85.29359436035156 -2.028411865234375 -15.243143081665039 74 204 254
-83.52613830566406 -2.340263605117798 -17.210805892944336 74 204 254
-84.89895629882812 -2.104146957397461 -15.483518600463867 74 204 254
-85.83785247802734 -1.8605890274047852 -16.62178611755371 74 204 254
-84.44717407226562 -2.270987033843994 -16.02782440185547 75 205 254
-84.57941436767578 -1.9053481817245483 -17.511396408081055 74 205 254
-84.32054138183594 -2.647256851196289 -14.82083797454834 75 205 254
-84.55392456054688 -2.550088882446289 -14.571274757385254 74 205 254
-85.22045135498047 -2.475818157196045 -13.809117317199707 74 204 254
-86.82073974609375 -1.598076581954956 -15.086614608764648 74 204 254
-83.94156646728516 -2.839876174926758 -14.432633399963379 75 205 254
-83.44046783447266 -2.5669586658477783 -15.656976699829102 75 205 254
-84.0580062866211 -2.7595081329345703 -13.161233901977539 74 204 254
-87.43218231201172 -1.5617700815200806 -15.349605560302734 74 204 254
-83.37059783935547 -2.3570632934570312 -17.489519119262695 75 205 254
-87.00152587890625 -1.5236976146697998 -16.733760833740234 75 205 254
-85.15122985839844 -1.9308648109436035 -17.464513778686523 75 205 254
-83.23028564453125 -2.084392547607422 -18.496164321899414 74 205 254
-84.96509552001953 -2.4889206886291504 -12.967445373535156 75 205 254
-82.80619049072266 -2.3931643962860107 -18.070199966430664 74 205 254
-83.17239379882812 -2.28926944732666 -19.246244430541992 74 205 254
-83.87367248535156 -2.1258628368377686 -18.91731071472168 75 205 254
-83.44264221191406 -2.702822685241699 -15.537333488464355 74 205 254
-83.53743743896484 -2.4733333587646484 -16.11273765563965 74 204 254
-84.08110046386719 -2.079357147216797 -18.774580001831055 75 205 254
-83.09516906738281 -2.253690481185913 -17.838735580444336 74 205 254
-85.14527130126953 -2.118454694747925 -14.862598419189453 75 204 254
-84.22119903564453 -2.898141622543335 -13.823223114013672 74 205 254
-83.86283874511719 -2.446072578430176 -15.561286926269531 75 205 254
-88.61710357666016 -1.125672698020935 -14.278885841369629 74 205 254
-84.30371856689453 -2.7095143795013428 -14.574177742004395 75 205 254
-84.36747741699219 -2.4752893447875977 -14.111474990844727 74 204 254
-85.05188751220703 -1.9866293668746948 -15.978139877319336 75 205 254
-87.2281265258789 -1.356683373451233 -16.02031898498535 75 205 254
-87.3565444946289 -1.4332067966461182 -16.448230743408203 74 205 254
-88.7030029296875 -1.0760828256607056 -15.851527214050293 74 205 254
-86.79810333251953 -1.7815715074539185 -15.080941200256348 74 204 254
-83.09750366210938 -2.1005866527557373 -18.837377548217773 75 204 254
-83.9571533203125 -2.668820381164551 -15.071743965148926 74 205 254
-84.70882415771484 -2.2279269695281982 -15.00458812713623 75 204 254
-83.9692611694336 -2.961796760559082 -12.13918685913086 75 205 254
-83.3826904296875 -3.0019750595092773 -12.971263885498047 75 205 254
-84.56808471679688 -2.301299571990967 -16.135602951049805 74 204 254
-85.73585510253906 -2.1194522380828857 -15.03605842590332 75 204 254
-83.45626068115234 -2.2051217555999756 -17.612260818481445 75 204 254
-84.65699768066406 -1.645156979560852 -18.8824462890625 75 204 254
-84.77948760986328 -1.9966042041778564 -16.6177978515625 75 205 254
-85.19342041015625 -1.4314707517623901 -18.621030807495117 75 205 254
-82.8076400756836 -2.302271842956543 -19.193113327026367 74 205 254
-83.99110412597656 -2.1346943378448486 -18.572629928588867 75 205 254
-84.18448638916016 -2.8031139373779297 -12.553277969360352 75 205 254
-88.24516296386719 -1.0570461750030518 -15.924675941467285 75 205 254
-83.93766021728516 -2.9207653999328613 -14.014183044433594 74 205 254
-82.9346694946289 -2.3925249576568604 -18.11270523071289 74 205 254
-83.18154907226562 -2.1515674591064453 -18.2226619720459 75 204 254
-85.62313842773438 -1.660027265548706 -17.216259002685547 74 205 254
-83.43396759033203 -2.755429267883301 -15.26305103302002 75 205 254
-88.40300750732422 -1.2908146381378174 -14.981795310974121 75 205 254
-83.54178619384766 -2.242482900619507 -18.746204376220703 74 205 254
-85.49274444580078 -1.906705617904663 -15.701958656311035 74 205 254
-83.84578704833984 -3.2715954780578613 -10.786861419677734 75 205 254
-87.83641815185547 -1.4512929916381836 -15.133960723876953 74 205 254
-83.34782409667969 -3.0880067348480225 -12.562934875488281 75 205 254
-83.94640350341797 -2.61387300491333 -15.326387405395508 75 204 254
-89.13460540771484 -0.9721715450286865 -15.665264129638672 74 205 254
-83.94959259033203 -2.581319808959961 -15.573049545288086 74 205 254
-88.0784683227539 -1.321139931678772 -15.587442398071289 75 205 254
-86.30081939697266 -1.2422442436218262 -17.95745849609375 74 205 254
-82.66150665283203 -2.469574213027954 -17.230609893798828 75 205 254
-87.67932891845703 -1.5595203638076782 -14.693021774291992 74 204 254
-88.41622924804688 -1.1238162517547607 -16.49277114868164 74 204 254
-82.7588882446289 -2.4386610984802246 -17.66617202758789 74 205 254
-87.34674835205078 -1.6016017198562622 -13.781927108764648 74 204 254
-83.54649353027344 -3.165367603302002 -11.859960556030273 75 205 254
-83.79978942871094 -2.2485713958740234 -18.114458084106445 74 205 254
-88.36328887939453 -1.4423208236694336 -12.982048988342285 75 205 254
-85.10972595214844 -1.451298475265503 -18.561626434326172 75 205 254
-85.39585876464844 -2.1630733013153076 -14.16302490234375 74 204 254
-83.56283569335938 -2.813680648803711 -14.775217056274414 75 204 254
-86.3917236328125 -1.611426830291748 -16.087888717651367 75 205 254
-85.1939697265625 -2.2950940132141113 -13.704751014709473 75 204 254
-84.67744445800781 -1.7800663709640503 -18.052820205688477 74 205 254
-83.59825134277344 -2.6142876148223877 -16.00653839111328 75 205 254
-86.99597930908203 -1.8296356201171875 -12.88774585723877 75 204 254
-84.15621948242188 -2.987377882003784 -13.475441932678223 74 205 254
-83.25682067871094 -2.866635799407959 -14.015670776367188 75 205 254
-85.74716186523438 -1.9381619691848755 -15.061211585998535 74 204 254
-83.47843933105469 -2.1165242195129395 -17.91314125061035 75 204 254
-85.2391586303711 -1.8799022436141968 -16.364303588867188 75 205 254
-84.73995971679688 -1.5177497863769531 -18.745885848999023 75 205 254
-83.82640838623047 -3.1030914783477783 -11.67336654663086 74 205 254
-84.6537857055664 -2.692631959915161 -12.35020923614502 75 205 254
-87.5715560913086 -1.313332200050354 -16.896743774414062 75 205 254
-85.92537689208984 -1.652780294418335 -17.972667694091797 75 205 254
-84.06846618652344 -2.265990972518921 -17.439062118530273 74 205 254
-84.84424591064453 -2.3058648109436035 -15.473490715026855 74 204 254
-84.29335021972656 -2.800976037979126 -13.666934967041016 75 205 254
-86.83287811279297 -1.9294794797897339 -12.58266830444336 74 205 254
-84.94407653808594 -2.2506134510040283 -14.373448371887207 74 204 254
-84.907470703125 -1.559617280960083 -18.480825424194336 74 204 254
-86.27507019042969 -1.7678098678588867 -16.429529190063477 74 204 254
-84.48680877685547 -2.1859118938446045 -16.346296310424805 75 204 254
