-617.3362206854754 17.38285178525481 181.07218264017575 75 204 254
-615.5294795409377 15.619864857482252 185.34826868515123 74 205 254
-618.8925172331566 16.63390849540027 182.62541783398026 74 204 254
-617.5623858779462 16.13351495568974 183.80532792920536 74 205 254
-616.747050063055 16.629747705212218 182.73969377753036 75 205 254
-615.731655750732 16.351231102677488 183.42989487202559 74 205 254
-615.4703050555278 15.932794653329374 184.38482173462955 74 205 254
-618.0563808944585 17.137740058000407 181.55944181180348 74 204 254
-621.0211677459074 15.716303987810589 184.3923239101982 75 204 252
-617.8507595432461 15.751713088865598 184.78399738841955 74 205 254
-621.6354919717522 15.824689438979897 184.00501877061916 75 205 254
-615.2805119077863 15.619518264957293 185.33099760705076 74 205 254
-616.877879516901 15.80834546268871 184.6221639557582 74 205 254
-616.0905894456391 17.127067370674915 181.67439389907585 75 205 254
-617.4537895475172 15.952156614766736 184.23779864352466 74 205 254
-617.0759994863606 16.2006897294862 183.68895023900734 75 205 254
-617.7790463379207 16.5445724690815 182.88038838433738 74 204 254
-617.8145726652274 16.747229537539432 182.46298473621087 74 204 254
-617.5786742335841 17.200545481815666 181.44632405102416 75 205 254
-620.0540625670983 16.644436844590842 182.44705258913112 75 205 254
-617.3822080185281 16.80650071522194 182.3491029322368 74 205 254
-619.5097912398847 16.321936544788993 183.23227237941998 74 205 254
-619.2511456667992 16.368257651076796 183.15281573402524 75 204 254
-618.2471243752484 16.462966689522936 183.0285042877492 74 205 254
-619.1607695454996 15.819099750894328 184.40425688139166 74 205 254
-615.7808938576726 15.742613691431643 184.89459681228553 75 205 254
-618.4746261729636 15.83524812439839 184.431814582209 74 204 254
-615.4034079869456 15.77515032107436 184.77320519176277 74 205 254
-617.477641060997 16.985654528528272 181.94559695291204 74 205 254
-619.6866559744634 16.531625100371915 182.7646403206296 75 205 254
-616.5032496916432 16.05386181591763 184.0638036902681 75 205 254
-616.905161919005 17.25387186389651 181.36364950910252 74 205 254
-616.3895962277579 15.851464778851872 184.5244883363836 75 205 254
-616.9123201265389 16.841996202979722 182.2807908521248 75 205 254
-619.9978365177246 16.351132260905004 182.99509827223687 74 204 254
-618.1517915573351 15.975286179460802 184.07224981766825 75 204 254
-617.2621222393276 16.270672989050663 183.44492743489968 74 205 254
-618.5345607984849 16.753418665545617 182.286812657306 74 204 254
-615.6589645719217 16.230613431693744 183.66657386734002 75 205 254
-616.3129746835046 16.36035311276291 183.26890498484366 75 205 254
-615.5769055911106 16.04345907474178 184.09492860971892 75 205 254
-619.4185339953876 16.819111991600256 182.15192139761467 74 205 254
-617.236819447766 17.40839071616877 181.131089055104 74 204 254
-616.6127177990189 17.18243553396695 181.5029514154245 75 205 254
-616.8936446212101 16.98279100333279 181.89803855124873 74 205 254
-617.8499011311117 16.40129614085954 183.11140768606245 74 204 254
-618.1128940970126 17.04198371724289 181.73988491695155 74 204 254
-617.2850503917387 17.07986567320386 181.68461276839707 74 205 254
-618.0301645271633 16.81657008000602 182.19049864150912 74 204 254
-619.4759684345443 15.652484289667694 184.82639671561105 74 205 254
-617.6291158744941 16.021678338134794 184.0093938035905 75 205 254
-616.4508418983148 16.517631504836757 182.91370898725776 75 205 254
-617.5511840529668 15.841390793962361 184.46197860169875 75 205 254
-615.6233872150306 15.547470561450416 185.37086090826907 75 205 254
-615.7446663973053 15.815801039765544 184.6816187851105 74 205 254
-618.8036479267773 16.303419924678956 183.25230772352558 75 204 254
-615.4529785238659 15.87354598388549 184.53888627576075 75 205 254
-619.1111499908911 15.858558370592739 184.24161720287987 74 204 254
-617.3690195130794 16.475694469292314 182.9836908523067 74 204 254
-618.9441493378131 16.48702632866957 182.8129778753977 74 204 254
-617.5187075247402 16.862845323885153 182.11961441342126 74 205 254
-615.7416261500236 17.255593734297342 181.35826172648154 74 205 254
-618.3169946565444 16.341179314133974 183.2065503793471 74 204 254
-616.042462804777 16.438023980060226 183.07190530506702 75 205 254
-620.2201797957855 15.909446285650485 183.94643617727922 75 204 254
-621.2145921506545 15.764194390229832 184.11035361519396 75 204 253
-619.2357305439613 16.043173634625244 183.78639371895426 75 204 254
-618.6669197917195 15.49755178884094 185.3984737234363 75 205 254
-616.8565348811793 16.51600506081962 182.91349589183892 74 205 254
-616.0132707594539 15.81091986822242 184.66551688812166 75 205 254
-617.436405937504 16.654814330192956 182.56806008953328 74 204 254
-621.7235661796559 15.706325389918135 184.13433923192812 76 204 252
-618.0369844250723 15.792410652867318 184.54384848056426 75 204 254
-619.6715658873945 16.234760729457303 183.30790000987753 75 205 254
-615.1655361994467 16.058037373168464 184.07385050266004 74 205 254
-615.563133014761 16.839665407008027 182.22963403475944 75 205 254
-616.3213809421998 17.732518363443912 180.55252468368403 74 205 254
-616.0299985186441 16.25408345491278 183.59359288937358 74 205 254
-621.8094313887597 15.865625408617287 183.74467559971313 75 205 254
-615.4979465332287 16.645144110192856 182.6721625045775 74 205 254
-616.5886459510864 16.72063759171799 182.453695106437 74 205 254
-616.5410852374498 16.965319375830084 181.93328054750944 75 205 254
-615.3871454271939 15.67941135918155 185.0282260107901 75 205 254
-618.7271881876793 16.10907673935719 183.6994293953892 74 204 254
-617.0829636096737 17.155737451114852 181.53347330915338 75 205 254
-615.6615378346961 17.036991813163414 181.79973618632687 74 205 254
-616.7538384523259 16.31815766707412 183.36268016623006 74 205 254
-616.5513420571777 15.944507499816115 184.28973535575523 74 205 254
-615.6810070254384 15.67874222085312 185.02792376528868 75 204 254
-617.6285577265392 17.081805767844383 181.65985429353395 74 205 254
-615.9548994077636 16.80988501809557 182.28147433199842 75 205 254
-617.7714216402724 16.222652036472688 183.5251138654676 74 204 254
-615.4235265953193 16.429962436432035 183.13876777513974 74 205 254
-619.4538758295886 16.42168205840764 182.9020807965927 75 204 254
-619.0646027456794 16.8757476816572 182.04014303273786 74 205 254
-616.3860850066195 16.762100160179617 182.375914484217 75 205 254
-618.6478094682506 15.919161487519641 184.15976938999117 74 204 254
-616.2553221331872 16.59666381322478 182.76261244537147 74 205 254
-616.6306583900399 16.119771533473532 183.85870451009595 75 205 254
-615.9630316432529 17.734674233464595 180.4742376008805 75 205 254
-614.8890542632203 15.527344587462576 185.4208623412648 74 205 254
-619.7397643031127 15.96817273267332 183.8886621695043 75 204 254
-615.7611606822272 16.39836333300236 183.2043515104344 75 205 254
-616.954582579734 15.707386534646375 184.8590851104935 74 204 254
-617.0476256913233 15.897041367480712 184.37576702354286 74 205 254
-615.0283530123683 15.716159347102499 184.96580798277137 74 205 254
-616.0650447989697 15.99380753012941 184.19891069863155 75 205 254
-618.5294740750599 15.750498890900753 184.61518618230608 74 204 254
-617.8717292526513 15.522759719363691 185.6294956427599 75 205 254
-616.0698501532953 17.0067011320543 181.85166288860506 75 205 254
-621.7505506603221 16.032023334466317 183.39227243615565 74 204 254
-620.4529123854796 16.464207634067396 182.69826453949065 74 204 254
-618.4335182010152 16.53957400830163 182.7498903070831 74 204 254
-616.9346571794599 16.705768600204976 182.47590400333996 74 205 254
-619.3849267995909 15.747623878414029 184.51483624546782 75 205 254
-616.4984991356325 15.76965312265208 184.73238277453015 75 205 254
-619.7660632612393 16.386673360373482 182.94490739400624 74 205 254
-619.3367422831011 16.235210171023862 183.34403362717748 75 204 254
-617.1853554119263 16.073018177131175 183.92277584748268 74 205 254
-615.822297777553 16.030713858444912 184.10615718814793 75 205 254
-618.2104778504325 16.156402066634673 183.64154086234123 74 204 254
-615.297345861916 15.525896567825988 185.41322395090924 75 205 254
-616.2204640610761 16.186667958141737 183.7360494647631 75 205 254
-617.7011063055655 17.372119027032888 181.26307196831632 74 205 254
-616.1213332947056 17.238318119377688 181.39412385487486 75 205 254
-619.4571411926476 16.003085620015728 183.83530388082394 75 205 254
-615.8899333188543 16.611694081779948 182.73575054066234 75 205 254
-619.3816534781683 15.85744674578234 184.2044015864769 75 205 254
-615.0587181406544 15.90527250715246 184.46912990000817 74 205 254
-617.9312476120047 16.60808286801549 182.64029744144932 74 204 254
-617.3137412295212 15.488617834641238 185.83214254261725 74 205 254
-622.1518433538758 15.79818989955792 183.81466155176125 75 204 254
-616.0843197439632 16.3194612074884 183.42712073321437 74 205 254
-616.7311228507492 17.42516143507597 181.03358233638465 75 205 254
-616.7031340648764 16.228192574739992 183.59189187250797 75 205 254
-618.3943824481321 15.652032701177946 184.80628454960578 75 205 254
-616.5308597166464 15.825072012514514 184.5204208077841 74 204 254
-615.751169880445 16.324441554906347 183.41709534431376 75 205 254
-616.3293104955831 16.99320521475913 181.96175791583454 75 204 254
-620.2784407619519 15.970857956636625 183.7340120802617 75 205 254
-616.6110433306145 16.041526316921498 184.05042141429567 74 205 254
-616.2696093678702 17.570380983805773 180.75305219917837 74 205 254
-615.2857117036232 17.17356512603368 181.5598296240813 74 205 254
-615.1624643474489 15.977626749215739 184.2857278390956 75 205 254
-616.3348442715146 15.492960884375698 185.23140186188976 75 205 254
-614.5484737485343 15.615004245190871 185.10975066982607 74 205 254
-616.0889291139094 17.131276215983405 181.62767926752477 75 205 254
-619.9013898257305 16.405492445244985 182.8461490292535 75 205 254
-617.6330080375761 15.910020578576766 184.24296014813055 75 204 254
-619.0212647304306 16.76035797172086 182.2396760028097 74 204 254
-617.5294181075819 15.725987670044882 184.66028964319275 74 204 254
-616.4851805577237 16.878862364547167 182.1764255467013 75 205 254
-616.3958021863643 16.680142309973444 182.60443953541153 74 204 254
-620.2933044488512 16.31319669741269 182.96957690960556 74 205 254
-614.4487817844915 15.516385459312396 185.50996308605193 75 204 254
-616.304831319779 16.459452889045416 183.0634822705214 74 205 254
-618.9596095304254 16.152320778305878 183.51511726175383 75 205 254
-614.6976313955863 15.5347344785778 185.4803664792284 74 205 254
-621.2812570595074 15.822398057484603 183.8324443502351 75 205 254
-616.9800829375962 16.82776413875402 182.25446678766912 74 204 254
-619.0873969185434 16.305791053883187 183.16584044949144 74 205 254
-615.521171675327 15.944044652698407 184.34385760125613 75 205 254
-615.6246336541975 17.1794361196671 181.53583403026835 74 204 254
-616.631380417751 17.33493064759027 181.20576778823252 75 205 254
-615.2841020311292 16.571904903909207 182.85206863395868 75 205 254
-616.3900420196028 17.086246235531164 181.7204125366236 74 205 254
-619.3977569609515 16.3173050242912 183.09018533860097 75 204 254
-616.194215340215 17.327656500960288 181.1994412375579 74 205 254
-618.4227422619982 16.44412481816484 182.94301618043949 75 204 254
-617.2811792273675 16.35604429209415 183.2326932258383 74 204 254
-614.8762904505606 16.39734481293847 183.27366019932813 74 205 254
-616.1350736504515 16.844775617027068 182.24433523001255 74 205 254
-617.2080999604245 17.26344899421825 181.34656612364745 74 204 254
-618.9940098489375 16.601869039019906 182.55692397053514 75 204 254
-615.848174203302 16.507149835792735 182.97216645330744 74 205 254
-616.2046442005685 16.285626345872526 183.492004906774 74 205 254
-615.3788678219505 16.34687917864426 183.382332225951 75 205 254
-619.7216839572943 15.868573599762554 184.05788405879215 75 205 254
-618.2033293685687 16.057936668810683 183.8598089330113 74 204 254
-618.7407094124039 16.199870778713752 183.43095675054482 74 204 254
-615.2828235314496 16.184874518131892 183.81256163133506 74 205 254
-617.0284147506991 15.775129795552873 184.57689317471045 74 204 254
-618.5556570993135 16.880211651564952 182.0397177081942 75 204 254
-618.0393937906725 15.664435728152375 184.77515564492697 76 204 252
-614.9686820835998 16.5552299552209 182.88795729152173 74 205 254
-619.203226636598 15.932976852533871 184.00199972004228 75 204 254
-616.8087629479203 16.416278094011638 183.12836221634825 74 205 254
-617.9948582409652 16.728507478970275 182.39144964062973 75 204 254
-617.0275574896972 17.361656490188746 181.16907556303818 75 204 254
-617.8193322396522 16.303308450291407 183.30537839460587 74 204 254
-615.4040626154274 16.76512301334599 182.452943058409 75 205 254
-618.0761642391146 16.916396342801367 181.97870801126993 75 204 254
-617.8993678291963 16.503358583180024 182.8708883289037 74 204 254
-619.309779499582 16.122363254572154 183.52744094195202 75 204 254
-615.6503520401957 16.140833971411006 183.9000762842544 75 205 254
-615.4591038927066 17.646857168818094 180.58145706276576 74 205 254
-617.0947351485195 17.023338270851916 181.80062051412742 74 204 254
-618.1356165952172 15.844173185157652 184.3231807037705 75 204 254
-615.1704237427749 16.974243366683 181.98491321153048 74 205 254
-619.3574262503158 16.585250753155666 182.55466878421228 74 205 254
-618.5181247380606 16.66256200527652 182.47862869033435 75 204 254
-615.1071821084652 16.79608713183562 182.3949242361315 74 205 254
-615.8171557273 17.608144765548545 180.66166720691635 75 205 254
-617.3999192495336 16.567686326404026 182.778743773362 74 204 254
-616.1237106020421 16.093143726812354 183.9794597944611 75 205 254
-618.8827907254757 16.389730440184014 183.00698857222477 75 204 254
-620.7911180596022 15.903785036723516 183.76628043199048 75 205 254
-617.1185337043225 16.001380985703772 184.10225031527972 74 204 254
-615.7618314051774 16.749740481788123 182.47622063559936 75 205 254
-617.5095440801244 16.774293660795998 182.33078993487135 74 204 254
-617.5904081970673 16.9797746133518 181.86730773974065 74 204 254
-616.912897295552 16.626125794410846 182.69198609748727 75 205 254
-615.0955541563059 16.20696659517888 183.7783204253529 75 205 254
-616.6204429210846 17.07524496695497 181.7180214216818 75 205 254
-618.4316988643006 17.029367825821776 181.79029430304647 75 205 254
-614.8338811419467 15.564218852848468 185.40092183318092 75 205 254
-619.1780939918995 16.44416650464486 182.85352135126627 75 205 254
-617.7143887460059 16.11846562781134 183.78004486857037 74 204 254
-618.8529982966946 15.966519392099954 183.98308158417163 75 205 254
-618.332713228453 16.24293618304771 183.38338373446373 74 204 254
-614.9723830605653 15.783219506755282 184.71529460078753 75 205 254
-615.9799997724964 16.704321689390543 182.56432454278277 75 205 254
-615.3904814142984 17.422040120406926 180.9671656397061 74 205 254
-615.4815119572645 16.511892413224608 182.96495523583826 74 205 254
-616.0349254362416 15.906627677090297 184.3898554251034 75 205 254
-614.8954592519578 16.006871662210916 184.2371841967989 74 205 254
-615.5412133639213 16.979632023574915 181.97821807825153 75 205 254
-615.9606508993843 16.93987671340658 182.0638362708848 75 205 254
-617.1741391917146 16.18212553175185 183.67295202160517 75 204 254
-614.7983224609014 15.891446694697672 184.50052997792415 75 204 254
-618.4466526987549 15.844581898851656 184.28453651314786 75 205 254
-617.6566968164962 17.2291132935036 181.4413062661843 75 204 254
-616.7641540754507 17.217433623290617 181.40955256906025 74 205 254
-614.6231624002667 15.8033072096618 184.70233340333974 75 204 254
-618.4794945465777 16.493633817113597 182.8077533207599 75 204 254
-614.9478784714678 16.663843211899643 182.6971466296811 75 205 254
-616.4389489269422 15.712156411913043 184.96610702963704 74 205 254
-616.2922355481352 17.409740123977212 181.0535628379547 74 204 254
-614.5283971719534 16.703107817900527 182.62414513017 75 205 254
-617.0914906507178 16.433367497581386 183.07291074175072 75 205 254
-615.932913870256 16.575592002338464 182.84850571170568 74 205 254
-618.1177961133241 16.906734361380185 181.9736893659794 75 205 254
-614.2748971768826 16.154714517635878 184.0105474444724 74 205 254
-617.4223967833159 16.41020085000993 183.0896353102224 74 204 254
-618.5739901422111 16.69906706843721 182.35217694869738 75 204 254
-614.9765148679074 15.688689122152933 185.05949783115156 75 205 254
-615.0760340760203 17.119369331244904 181.81293740889913 74 205 254
-617.2239519569182 16.022383586713147 184.0137974814652 75 204 254
-615.4079178884635 16.625605079428436 182.7691893433669 74 205 254
-614.914450338496 17.515277038817096 180.85677509495991 75 205 254
-615.1330156925136 16.060559758726235 184.1458065589574 75 205 254
-616.5564586812743 16.104476425071713 183.92665315076653 75 205 254
-619.682197098348 15.915564989729612 183.84326081982735 75 204 254
-616.6124084934603 16.953953831633726 182.04213583996903 74 204 254
-616.4439661227156 15.987936989218152 184.17602678875681 75 205 254
-617.9740843129164 17.01423601937062 181.8131633177969 74 205 254
-615.9892358072766 16.78236020122914 182.43465609349974 74 205 254
-619.3815831123384 16.32512944389589 183.0189503998487 74 204 254
-620.0514262407364 16.039635900509353 183.48276041531295 74 204 254
-618.3213634580336 16.100190686679145 183.68558026393345 75 204 254
-615.7936150634337 17.442176864304354 181.0047883296878 75 205 254
-615.3122056259921 16.453616412268172 183.23453154583217 75 205 254
-618.3783222199623 16.292547088749902 183.23476119762668 75 204 254
-615.6068033119844 17.063187475616907 181.9052222747281 75 205 254
-615.673819118702 17.23558118938307 181.4374587614987 74 205 254
-614.5843666360992 15.900833517034629 184.4876729061824 75 205 254
-615.8639179274962 16.400790704828598 183.31156656202634 74 204 254
-618.0040242862193 16.558085802965874 182.73068410783102 75 204 254
-618.7932521446078 16.02742357341041 183.77037376712133 75 204 254
-614.4782940013682 15.712245681751982 184.9728067943982 75 205 254
-616.0249884993382 15.745288767567928 184.78891730300603 75 205 254
-619.8125460057415 16.08588484703017 183.43227775317533 75 204 254
-616.8785724296009 15.288335723412294 184.42912775903406 75 205 254
-615.0252344725491 16.890470496744385 182.2428270210365 75 205 254
-617.7588734097419 16.81846989582921 182.20584962844558 75 205 254
-616.6486247629389 15.866961771613681 184.3770709424362 74 205 254
-614.847903873529 17.307742037503473 181.31230955299867 75 205 254
-614.7210399472207 17.14784207027847 181.75567335370488 75 205 254
-618.7181224395855 15.832439086247817 184.20867034399356 75 205 254
-617.7103899265211 15.950979753342015 184.0938284290973 75 204 254
-615.3925330573804 17.710989713386052 180.44333936925017 74 205 254
-614.8153670896068 16.497085575498346 183.15045058671654 74 205 254
-616.7702496205355 16.302970532614687 183.45700113837404 75 205 254
-617.0125986474484 16.276281447681498 183.4808692922413 74 205 254
-617.167680905789 17.090011268780724 181.666818197983 74 204 254
-615.2311817280487 16.276148383366248 183.66473886202232 75 205 254
-617.5300687753938 16.84354240193542 182.18228813675188 74 204 254
-616.1994776609508 17.184518328168497 181.51554945520118 74 204 254
-615.5119418887522 16.832558454536784 182.3482320255872 74 205 254
-615.0605588247889 15.83378471039557 184.59372817923744 75 205 254
-616.7701123608779 17.370279328792073 181.13205017592693 75 204 254
-616.8415086992006 16.054019268844627 183.9936880950483 75 205 254
-615.6496194071019 15.99570899185684 184.22579601159276 74 205 254
-618.0812649022881 16.770674535583318 182.26840418162175 75 204 254
-616.6910996241772 17.13053014211588 181.6012205929256 74 204 254
-616.8551061587748 16.480645108238136 182.99727561428875 75 205 254
-616.2655773637788 15.857421968231137 184.4243710094847 74 205 254
-614.122890422598 15.734631916774717 184.9202825414037 74 205 254
-616.2520932672896 16.164245819938426 183.81803111290043 74 204 254
-617.308367442156 16.23358846166101 183.53996482663064 74 204 254
-616.4118652601891 16.52182464299706 182.93989296441745 74 204 254
-614.4036039480783 16.33837651064281 183.57790202242086 74 205 254
-616.3078843467563 16.351393349470904 183.3951671170821 74 204 254
-614.1914916633443 15.918835576189856 184.47421586539133 75 205 254
-614.8290764748116 17.65021968089769 180.6109329189461 75 205 254
-616.504247729845 16.743842829997156 182.4791763350869 74 205 254
-614.6340535702934 16.92066397584547 182.18318425169838 75 205 254
-619.9073204870847 15.852140269739802 183.93384234209827 75 204 254
-614.7573348156211 16.32391791772154 183.592942829332 75 205 254
-617.9105275990578 16.35347629732029 183.15870583994493 75 204 254
-617.0801743426575 16.898865969615557 182.11421600256483 74 204 254
-617.7889336862005 16.17043311584168 183.6133171313443 75 204 254
-619.2046860276839 15.776638060871928 184.28610216185518 75 205 254
-616.9745969660429 16.68794742110304 182.560972546382 74 204 254
-614.9460377056362 17.747427474197476 180.3962436929907 74 205 254
-617.392179485134 16.692591927250646 182.52593960449803 75 205 254
-616.1118490839991 15.962483851040593 184.25211419826778 75 205 254
-618.8852370166348 16.222911803317306 183.31069866747885 75 204 254
-615.265083685696 17.4916526863623 180.91651488422505 75 205 254
-615.1610057119274 17.283269868553457 181.3620412010539 74 205 254
-617.5499427577869 16.594731382491 182.6935535171706 74 205 254
-618.2194412276907 15.8947799201341 184.1375611969212 75 204 254
-617.8241140472223 16.92385540487242 181.93518709779767 74 205 254
-618.9127009729634 16.61258901908627 182.48976727135536 75 205 254
-614.4717239377298 16.52102135131991 183.09229174036787 74 205 254
-617.660031176104 17.05502661351413 181.7248821620533 75 204 254
-619.3263748140673 15.947267789810505 183.84536940936027 75 205 254
-615.7389946804151 16.19621836389497 183.78974977996668 75 205 254
-619.3994785278642 16.146534050309533 183.38329058227217 75 204 254
-616.402592353588 15.653541037035012 185.13163669038178 74 205 254
-615.0457145655405 17.724163399834467 180.4402992386913 74 205 254
-616.1162308475626 17.018620079486983 181.95077635067753 74 205 254
-618.9822849176218 16.42609395674505 182.8739631103526 75 204 254
-620.3541405583755 15.971155345425291 183.56735760812902 75 205 254
-614.833114631881 16.76300328918482 182.47374258474287 75 205 254
-614.235721579876 16.987889537756878 181.9899067209867 74 205 254
-614.6156772076316 15.967125194614601 184.34842802270467 75 205 254
-615.0268412338895 16.950310309208767 182.05766139195646 75 205 254
-615.6822023861758 17.08107306153306 181.70179005784283 75 205 254
-614.8662267178534 17.612675142179153 180.65454691301215 75 205 254
-615.129873293281 15.927595828706899 184.3872328513232 75 205 254
-614.4751130781913 16.779897521776505 182.45552717799967 75 205 254
-616.6272644098461 15.74144684516379 184.63708533169495 74 204 254
-615.1497058225679 17.13909063077254 181.6188111299211 75 205 254
-614.2563276170898 16.002061501572797 184.29528497451574 75 205 254
-617.5887394365823 16.663345976631163 182.4370746911029 75 204 254
-616.5786503153785 16.778956494924582 182.30317582827246 74 204 254
-616.474538327655 16.574939402346867 182.75362851717418 74 204 254
-619.3637789080154 15.969533532733196 183.6703673649858 75 205 254
-617.5395333470558 15.854129124812433 184.24767174015008 75 205 254
-616.3765207855039 15.028202826069805 184.40619374115417 75 205 254
-616.3613879920896 16.36595694309036 183.21022641617725 74 204 254
-618.2923583071752 15.937775653033396 183.95391168922168 75 204 254
-618.8112766409376 15.871284670817106 184.0026648328617 75 205 254
-613.9419328723085 15.595352476056876 185.41701353985988 75 205 254
-617.0645746837121 16.73125433096597 182.357094323564 75 204 254
-616.0826711609644 17.36307266945112 181.14572641093739 75 204 254
-614.6843518720627 17.188925179398893 181.5333987758234 74 204 254
-614.6064012541634 16.991566227962245 181.97787632238163 75 205 254
-615.8145679615452 15.299332384956054 184.52751103368178 74 205 254
-614.0715675521341 15.810523944808871 184.7284419684831 75 205 254
-614.5072393966863 17.652635660822764 180.57929320956092 74 205 254
-614.4431587840909 17.429933228185835 180.96700258244027 74 205 254
-618.2530383531819 16.44371152589183 182.80350662358038 75 205 254
-615.2497103331932 17.332992088368073 181.1881864468168 74 205 254
-615.8221033418201 17.221167981514217 181.39063210168658 74 205 254
-616.2653046489193 17.264877050432908 181.32107050426407 74 204 254
-616.6537739897368 16.981904618880854 181.83761746110616 74 204 254
-617.8229000629763 16.204096822932534 183.38829717951478 74 204 254
-618.0427663447265 16.155947836541102 183.46953877278787 75 205 254
-619.3691989910087 16.308231810516197 182.90419049038883 74 205 254
-616.7150547504126 17.228950998644677 181.40953553210136 75 204 254
-613.7222899269424 15.832133004238782 184.72039302035472 75 204 254
-618.4755083636082 16.316961237853334 183.03759812687747 75 204 254
-616.2598974413622 16.194580331593542 183.6527916429839 75 204 254
-615.4519064538994 17.093129109408558 181.70743294647446 74 205 254
-614.3600282122638 16.589088951903022 182.8572373785786 75 205 254
-613.8949251961874 15.918535587387868 184.51568823035015 75 204 254
-618.3929400525718 16.124461660302604 183.4769830296489 75 204 254
-616.7256753425954 15.923060189890428 184.21744820359837 75 204 254
-615.6272500549283 15.84440244713827 184.5110692424898 74 204 254
-614.9254756016694 16.52233936818369 182.96954575971705 74 205 254
-615.0523140808214 16.717007038222434 182.55893321565708 75 205 254
-618.0888326655082 16.75774434632789 182.19048151949403 74 204 254
-616.1573978415087 17.027403056214936 181.7778341106056 74 204 254
-616.0483966732127 16.83446969846996 182.23419277513634 74 204 254
-615.4685453519894 16.691130514667694 182.59319685309686 74 204 254
-615.787984423728 16.24240357330568 183.5782709575996 75 205 254
-615.2135894615841 16.111790382974274 183.9747367343481 75 205 254
-615.1045594131591 15.320227240715557 184.66325436572183 75 205 254
-616.8013398809088 16.128973448548038 183.75243267696675 74 204 254
-617.7048896699806 16.03159718031553 183.84235479478235 74 204 254
-617.959723438476 16.39133092140529 182.9614458521397 75 204 254
-615.8877972087423 16.427844732975093 183.11238821562176 74 205 254
-613.9887859452476 16.032289470935808 184.25043049051922 74 205 254
-618.6211169058372 16.509204731985125 182.62564314349243 74 204 254
-614.1831702266886 16.229332952651966 183.78781027593325 75 205 254
-614.6763905714436 15.299281510284542 184.729417340598 75 205 254
-615.2034096363024 16.855262910650943 182.2360903284141 74 205 254
-617.4940835621198 17.027324687438497 181.74832667807516 75 205 254
-615.6869474866224 17.33831427087874 181.18821204042447 75 205 254
-619.8765614282945 15.90028841961341 183.6956070238365 75 205 254
-617.229083191513 15.85531053885721 184.2907697202563 75 204 254
-618.42868898605 16.58258667374483 182.50145006172778 74 205 254
-614.4613951395244 16.366112048436197 183.38714519413364 75 205 254
-615.9865888955196 16.635180508705133 182.6735805537188 75 205 254
-617.2910998909932 16.066601417675933 183.82546877313928 74 204 254
-614.558773908402 16.52871000055483 182.96756657002373 74 205 254
-613.9575366068216 16.41834711729089 183.28544935102408 74 205 254
-614.3708120839466 16.20655261709753 183.81946684837018 74 205 254
-613.6526130706916 15.646072821043953 185.12972108526145 74 205 254
-614.8340518124742 16.342149711283483 183.41667466348684 75 205 254
-620.367237587978 15.816990027504685 183.75512731950312 75 205 254
-616.900286566651 16.311122988978347 183.27544216445233 74 204 254
-614.045094333084 16.574011553959892 182.89771903186096 74 205 254
-617.4144528266372 16.2487887107658 183.34637126565787 74 204 254
-616.9749711245245 16.508779383192802 182.83891109908762 74 204 254
-615.2883742550739 16.30162914480915 183.48526541825683 74 205 254
-617.94205666157 15.972816789278301 183.93985157014112 75 205 254
-618.0654229481446 16.6008616383176 182.50883376775806 75 204 254
-614.3457906310659 17.18470220981291 181.56227821617463 74 205 254
-614.1775778944562 16.81193633790422 182.40161680629046 74 205 254
-615.3942366169687 17.00149153841294 181.95005838467034 75 204 254
-618.1662114572141 16.307206728653966 183.11774547118205 74 205 254
-615.7016551587197 16.058297651228816 184.03894616507154 74 205 254
-616.1253433826878 15.792470560855246 184.5606405122615 74 204 254
-616.2096518308538 16.016094553646926 184.08368947846895 74 204 254
-614.7393613068434 16.161255414683048 183.90191483696736 75 205 254
-615.5526520366715 16.88744495563872 182.16301291103764 75 205 254
-618.9759702125452 16.401726114742438 182.78595508750877 75 205 254
-617.1407915866197 16.916845974304707 181.94234296226034 75 204 254
-615.3831830240083 16.472999544840047 183.05453267896922 74 205 254
-617.4990612668407 16.447511348391625 182.90381032990263 75 204 254
-617.6209387796873 16.87877289559504 181.99665308353582 75 204 254
-613.8715595087706 16.0093822382033 184.57375131264178 74 204 254
-614.9710779215093 17.29469864268608 181.4632381030509 74 204 254
-615.3863305609318 15.88883285837362 184.80405118048049 75 204 254
-616.6897820198182 16.47658878133193 183.08833557206674 75 204 254
-613.8924218623462 16.167274269181114 184.06471347162426 75 205 254
-614.7736377362871 16.499865292661966 183.30286683847146 75 205 254
-617.4525861426167 16.042012358625204 184.0131794534595 74 204 254
-615.6685059004541 17.092370661094964 181.9240655093618 75 205 254
-615.7838705637918 16.818042756285735 182.5132607433116 75 204 254
-614.5298890342344 16.529056672532917 183.25708549841625 75 205 254
-616.313662102101 17.285528679309188 181.36137605977808 74 205 254
-617.1868964858231 16.412699544955817 183.1566318888822 75 204 254
-615.0401065854339 16.274403046130573 183.7864729463942 74 204 254
-616.4383915094032 15.960185378695115 184.48725161858087 75 204 254
-613.4783352073748 16.031622342363473 184.49755765207578 75 205 254
-617.9054311914471 16.138480748734747 183.65960409745986 74 205 254
-613.3698929712132 15.871240997382698 184.940804865872 75 205 254
-614.4430375747957 17.35217852789468 181.37706967656572 74 204 254
-614.5314280016458 17.54368429714594 180.89339595420557 74 205 254
-616.5345694314484 16.09956152737984 184.00807140240397 75 204 254
-615.1881161689244 16.913627942712782 182.36855852061953 75 205 254
-614.6055900972414 16.2885745829077 183.79315123547883 75 205 254
-614.228475597959 16.24840074593841 183.87444138230023 75 205 254
-615.1861621199827 16.654397818792656 182.8589431812384 74 204 254
-614.8086961573271 16.922124339834248 182.35297491448958 74 204 254
-615.4525384141914 16.045850662454164 184.334158674588 75 204 254
-614.4271803168082 16.375421636026406 183.6393616584196 75 205 254
-616.8813666953934 15.953402092565863 184.435131127944 74 204 254
-614.3011434599229 15.815814289151197 185.04676439089934 74 204 254
-616.2653046489193 17.264877050432908 181.32107050426407 74 204 254
-616.6537739897368 16.981904618880854 181.83761746110616 74 204 254
-617.8229000629763 16.204096822932534 183.38829717951478 74 204 254
-618.0427663447265 16.155947836541102 183.46953877278787 75 205 254
-619.3691989910087 16.308231810516197 182.90419049038883 74 205 254
-615.0288632469249 17.4819518031448 180.99607191064138 74 204 254
-614.8680919124719 15.92885337484265 184.72758696006 74 204 254
-614.4694381398177 15.970344354662538 184.65274299116192 75 205 254
-615.6535337211193 17.14933610248714 181.75640173250017 75 205 254
-616.7150547504126 17.228950998644677 181.40953553210136 75 204 254
-616.6439618235298 16.689625689454488 182.71067815155934 74 204 254
-615.5444926455406 16.208326131441922 183.86259523934268 74 204 254
-614.1129777100425 16.12761834308846 184.13331544285128 75 205 254
-616.204566445321 16.541409852265353 183.00209832254123 75 204 254
-613.7222899269424 15.832133004238782 184.72039302035472 75 204 254
-618.4755083636082 16.316961237853334 183.03759812687747 75 204 254
-614.360420893014 17.18621668260809 181.8377886800586 74 204 254
-616.2598974413622 16.194580331593542 183.6527916429839 75 204 254
-615.4519064538994 17.093129109408558 181.70743294647446 74 205 254
-617.0267547754321 16.050328358439888 184.08054928281712 75 205 254
-615.1193937341332 16.46887898869743 183.33582764544303 74 204 254
-614.628726830779 16.71576106772665 182.76496451168833 75 205 254
-614.3600282122638 16.589088951903022 182.8572373785786 75 205 254
-615.3472971480744 16.817015887976076 182.53403271478447 75 205 254
-616.339261540558 16.96727289192165 182.12189473583436 75 204 254
-613.8949251961874 15.918535587387868 184.51568823035015 75 204 254
-618.3929400525718 16.124461660302604 183.4769830296489 75 204 254
-617.5619133264752 15.698277825121561 184.84885174993173 75 205 254
-615.9435824561942 17.191908463904618 181.6079853083499 75 204 254
-616.0987140210094 16.357219080800135 183.4782063493958 75 204 254
-616.7256753425954 15.923060189890428 184.21744820359837 75 204 254
-616.7012988722793 17.035286331808702 181.8597446491822 75 204 254
-615.6272500549283 15.84440244713827 184.5110692424898 74 204 254
-614.9254756016694 16.52233936818369 182.96954575971705 74 205 254
-615.0523140808214 16.717007038222434 182.55893321565708 75 205 254
-613.6488895971281 16.415427191927822 183.57914833170062 75 205 254
-618.0888326655082 16.75774434632789 182.19048151949403 74 204 254
-615.699703817595 16.590333978777885 182.94900457663377 74 204 254
-616.1573978415087 17.027403056214936 181.7778341106056 74 204 254
-616.0483966732127 16.83446969846996 182.23419277513634 74 204 254
-614.9072264838022 17.131492456503242 181.90562449017614 74 204 254
-616.0253628202397 16.151159536156104 183.93463826377265 75 204 254
-613.8071689665612 15.824665064106597 185.0261242230184 74 204 254
-615.4685453519894 16.691130514667694 182.59319685309686 74 204 254
-614.0144398623452 15.780677155646362 185.10718174356995 75 205 254
-614.1974190101179 15.785322484735424 185.1951470478498 75 205 254
-615.787984423728 16.24240357330568 183.5782709575996 75 205 254
-615.2135894615841 16.111790382974274 183.9747367343481 75 205 254
-614.237602485827 15.993577257454293 184.62050376170677 75 205 254
-615.1045594131591 15.320227240715557 184.66325436572183 75 205 254
-616.8013398809088 16.128973448548038 183.75243267696675 74 204 254
-617.7048896699806 16.03159718031553 183.84235479478235 74 204 254
-617.959723438476 16.39133092140529 182.9614458521397 75 204 254
-615.8877972087423 16.427844732975093 183.11238821562176 74 205 254
-615.8681154084609 15.859075977690424 184.8718307535481 75 204 254
-613.9887859452476 16.032289470935808 184.25043049051922 74 205 254
-614.8495935007171 16.666688608580216 182.858381122933 74 205 254
-618.6211169058372 16.509204731985125 182.62564314349243 74 204 254
-614.1831702266886 16.229332952651966 183.78781027593325 75 205 254
-614.6763905714436 15.299281510284542 184.729417340598 75 205 254
-615.2034096363024 16.855262910650943 182.2360903284141 74 205 254
-617.4940835621198 17.027324687438497 181.74832667807516 75 205 254
-615.6869474866224 17.33831427087874 181.18821204042447 75 205 254
-619.8765614282945 15.90028841961341 183.6956070238365 75 205 254
-617.229083191513 15.85531053885721 184.2907697202563 75 204 254
-618.42868898605 16.58258667374483 182.50145006172778 74 205 254
-614.4613951395244 16.366112048436197 183.38714519413364 75 205 254
-615.9865888955196 16.635180508705133 182.6735805537188 75 205 254
-617.2910998909932 16.066601417675933 183.82546877313928 74 204 254
-614.1979941911324 16.751362478158164 182.71543111105473 74 205 254
-615.9494047381987 16.0089089563524 184.401073876894 75 204 254
-616.6178064572806 16.869715483681652 182.2982121681067 75 205 254
-614.558773908402 16.52871000055483 182.96756657002373 74 205 254
-615.4572582296811 17.253695082036916 181.51670838614226 74 204 254
-613.9575366068216 16.41834711729089 183.28544935102408 74 205 254
-614.3708120839466 16.20655261709753 183.81946684837018 74 205 254
-616.5992020869049 16.29224972374331 183.55678040019006 75 204 254
-613.6526130706916 15.646072821043953 185.12972108526145 74 205 254
-617.5938728523225 16.143314612304124 183.72585940473917 75 205 254
-614.8340518124742 16.342149711283483 183.41667466348684 75 205 254
-615.5324941224359 17.434921979639636 181.07314314700665 75 204 254
-620.367237587978 15.816990027504685 183.75512731950312 75 205 254
-616.900286566651 16.311122988978347 183.27544216445233 74 204 254
-615.374536127553 17.077375982845055 181.98506557116926 74 204 254
-614.045094333084 16.574011553959892 182.89771903186096 74 205 254
-617.4144528266372 16.2487887107658 183.34637126565787 74 204 254
-616.9749711245245 16.508779383192802 182.83891109908762 74 204 254
-615.2883742550739 16.30162914480915 183.48526541825683 74 205 254
-614.0254832319823 16.37983073830792 183.6471698683509 74 204 254
-617.94205666157 15.972816789278301 183.93985157014112 75 205 254
-615.5791032626826 17.051235288438562 182.00331874192628 75 205 254
-618.0654229481446 16.6008616383176 182.50883376775806 75 204 254
-614.3457906310659 17.18470220981291 181.56227821617463 74 205 254
-614.1775778944562 16.81193633790422 182.40161680629046 74 205 254
-615.3942366169687 17.00149153841294 181.95005838467034 75 204 254
-616.0440089278346 17.352861133878307 181.23816587285515 74 205 254
-618.1662114572141 16.307206728653966 183.11774547118205 74 205 254
-615.7016551587197 16.058297651228816 184.03894616507154 74 205 254
-616.24965571317 16.76462004332364 182.59224721202065 75 204 254
-614.5210337059764 16.11435152778924 184.16022471027293 74 204 254
-616.1253433826878 15.792470560855246 184.5606405122615 74 204 254
-616.2096518308538 16.016094553646926 184.08368947846895 74 204 254
-615.7520921230957 17.288312729869958 181.41015582870958 75 205 254
-616.4023313262944 17.134968108459447 181.68251588327152 75 204 254
-614.7393613068434 16.161255414683048 183.90191483696736 75 205 254
-615.5526520366715 16.88744495563872 182.16301291103764 75 205 254
-618.9759702125452 16.401726114742438 182.78595508750877 75 205 254
-617.1120099496891 16.22134885922725 183.63486908726827 75 204 254
-613.5649969788893 16.189261396417525 184.03100782695594 75 205 254
-617.1407915866197 16.916845974304707 181.94234296226034 75 204 254
-615.3831830240083 16.472999544840047 183.05453267896922 74 205 254
-615.8477838152745 17.026034630488404 182.05440115120615 75 204 254
-617.4990612668407 16.447511348391625 182.90381032990263 75 204 254
-613.7340862379288 16.600362816364587 183.12069172649186 74 205 254
-615.9148856417722 17.457527589639877 181.02540266830215 75 205 254
-614.9385070906145 16.084564034380676 184.2492166968313 74 204 254
-617.0120282397679 16.57188162297433 182.8979251137682 75 205 254
-617.7977775852247 16.04558338360438 183.91749663402885 75 205 254
-615.5942053717016 16.41878736853653 183.40109306115764 74 204 254
-614.2637894296766 16.955341009036594 182.30174465416047 74 205 254
-617.6209387796873 16.87877289559504 181.99665308353582 75 204 254
-614.1154004224969 16.562175897152677 183.2149462653918 74 205 254
-613.890311876427 17.214351153300342 181.88744848916565 74 204 254
-614.3564456056763 16.241509424073246 184.25405981037295 75 205 254
-615.5753557114692 16.398507684642716 183.59481129333966 75 204 254
-613.0734866751159 16.29191153669493 184.12791514434758 75 205 254
-614.9824668599013 16.332691658493303 183.95880656376352 75 204 254
-615.407755778088 17.332836230798726 181.38054253308923 75 204 254
-614.2604188933556 16.40178346606234 183.69172859544364 74 205 254
-614.9506430177966 17.276160837475015 181.6083336320352 75 204 254
-614.0466188155409 16.381991852269906 183.84304455241488 74 204 254
-613.5765013263216 17.405206770371823 181.40967079216225 75 205 254
-613.4359323119394 16.263881179665447 184.20272752743034 75 204 254
-614.3533586826256 17.157966935088123 181.985607444391 74 204 254
-614.1067791979381 17.743848122642987 180.543692031933 74 204 254
-615.8383549085146 15.95887347993321 184.66184406174705 75 205 254
-614.5074010259403 16.672973369744838 183.04794334243724 74 205 254
-615.4046651743421 17.28092443638079 181.51359379895433 75 205 254
-613.4097131676601 17.017065618593925 182.28185399603467 75 205 254
-614.7163103683074 16.942174550179814 182.38586187491924 75 205 254
-614.5146836619281 16.16144335336989 184.39350734158927 74 204 254
-614.7419139390354 16.695415000522765 182.91986588617195 74 204 254
-614.8712659687876 15.945793188761492 184.862554081677 75 204 254
-615.1833918938228 16.978786635482145 182.32276991217836 75 205 254
-614.8774969751693 17.11334441423656 182.05272790159918 75 204 254
-613.6094424205022 16.63284174996738 183.26998437551012 74 204 254
-613.7222899269424 15.832133004238782 184.72039302035472 75 204 254
-618.4755083636082 16.316961237853334 183.03759812687747 75 204 254
-614.360420893014 17.18621668260809 181.8377886800586 74 204 254
-614.2190017633167 16.05825345433053 184.70394160125795 75 205 254
-616.2598974413622 16.194580331593542 183.6527916429839 75 204 254
-615.4519064538994 17.093129109408558 181.70743294647446 74 205 254
-614.6929298734835 16.507421193035793 183.45435340840257 74 204 254
-613.7496894335441 17.777554568216445 180.46467075356577 75 205 254
-617.0267547754321 16.050328358439888 184.08054928281712 75 205 254
-615.1193937341332 16.46887898869743 183.33582764544303 74 204 254
-614.628726830779 16.71576106772665 182.76496451168833 75 205 254
-615.9647626324806 16.342886213639176 183.65395218150638 75 205 254
-614.3600282122638 16.589088951903022 182.8572373785786 75 205 254
-615.3472971480744 16.817015887976076 182.53403271478447 75 205 254
-616.339261540558 16.96727289192165 182.12189473583436 75 204 254
-613.8949251961874 15.918535587387868 184.51568823035015 75 204 254
-618.3929400525718 16.124461660302604 183.4769830296489 75 204 254
-617.5619133264752 15.698277825121561 184.84885174993173 75 205 254
-615.9435824561942 17.191908463904618 181.6079853083499 75 204 254
-616.0987140210094 16.357219080800135 183.4782063493958 75 204 254
-614.6048827869744 17.72356278142566 180.5966500497734 74 204 254
-616.7256753425954 15.923060189890428 184.21744820359837 75 204 254
-616.7012988722793 17.035286331808702 181.8597446491822 75 204 254
-615.6272500549283 15.84440244713827 184.5110692424898 74 204 254
-615.7285031751805 16.739332720684466 182.70107830282663 74 204 254
-615.024334655169 17.45521596156809 181.13591162128182 75 204 254
-614.9254756016694 16.52233936818369 182.96954575971705 74 205 254
-613.6488895971281 16.415427191927822 183.57914833170062 75 205 254
-615.0523140808214 16.717007038222434 182.55893321565708 75 205 254
-618.0888326655082 16.75774434632789 182.19048151949403 74 204 254
-614.8401624940017 16.35893404935915 184.00341477596228 75 204 254
-614.8592882437382 16.83982830662479 182.56307959397526 75 205 254
-614.4999814838455 16.346181622621117 184.0080235789978 74 204 254
-615.699703817595 16.590333978777885 182.94900457663377 74 204 254
-616.1573978415087 17.027403056214936 181.7778341106056 74 204 254
-616.0483966732127 16.83446969846996 182.23419277513634 74 204 254
-614.9072264838022 17.131492456503242 181.90562449017614 74 204 254
-616.0253628202397 16.151159536156104 183.93463826377265 75 204 254
-613.8071689665612 15.824665064106597 185.0261242230184 74 204 254
-613.2964898477111 15.93167918799208 185.0848127417755 74 204 254
-613.8905865403998 16.061269348430592 184.72292593782575 74 204 254
-615.4685453519894 16.691130514667694 182.59319685309686 74 204 254
-615.4961038916941 16.24983879230806 184.03755681853468 75 205 254
-614.0144398623452 15.780677155646362 185.10718174356995 75 205 254
-615.2431509558946 17.251898504495383 181.63792003412632 75 205 254
-614.1974190101179 15.785322484735424 185.1951470478498 75 205 254
-615.787984423728 16.24240357330568 183.5782709575996 75 205 254
-615.5811581484312 15.295909782076661 184.60104589574001 75 205 254
-615.106933724572 16.489726489452266 183.4662139667388 75 204 254
-615.2135894615841 16.111790382974274 183.9747367343481 75 205 254
-614.237602485827 15.993577257454293 184.62050376170677 75 205 254
-615.4295394439325 16.074844906152315 184.48814749870442 75 204 254
-615.1045594131591 15.320227240715557 184.66325436572183 75 205 254
-614.4272509703156 17.33303576204355 181.5263841199187 74 204 254
-616.8013398809088 16.128973448548038 183.75243267696675 74 204 254
-617.7048896699806 16.03159718031553 183.84235479478235 74 204 254
-617.959723438476 16.39133092140529 182.9614458521397 75 204 254
-615.8877972087423 16.427844732975093 183.11238821562176 74 205 254
-615.8681154084609 15.859075977690424 184.8718307535481 75 204 254
-613.9887859452476 16.032289470935808 184.25043049051922 74 205 254
-614.8495935007171 16.666688608580216 182.858381122933 74 205 254
-618.6211169058372 16.509204731985125 182.62564314349243 74 204 254
-614.1831702266886 16.229332952651966 183.78781027593325 75 205 254
-614.6763905714436 15.299281510284542 184.729417340598 75 205 254
-615.2034096363024 16.855262910650943 182.2360903284141 74 205 254
-617.4940835621198 17.027324687438497 181.74832667807516 75 205 254
-615.6869474866224 17.33831427087874 181.18821204042447 75 205 254
-619.8765614282945 15.90028841961341 183.6956070238365 75 205 254
-615.3156256938311 17.395538892240488 181.2575434754601 74 205 254
-617.229083191513 15.85531053885721 184.2907697202563 75 204 254
-618.42868898605 16.58258667374483 182.50145006172778 74 205 254
-614.4613951395244 16.366112048436197 183.38714519413364 75 205 254
-613.7247148703735 16.790566866011574 182.79708303928146 74 204 254
-614.1177504680066 16.586365154950983 183.3381747304983 74 204 254
-613.2940143543542 16.8326469689751 182.7426009203949 74 205 254
-613.1776276183579 16.453998173890685 183.66144803548033 75 205 254
-615.198430551443 16.626198561477274 183.04506003458445 74 204 254
-615.9865888955196 16.635180508705133 182.6735805537188 75 205 254
-617.2910998909932 16.066601417675933 183.82546877313928 74 204 254
-614.1979941911324 16.751362478158164 182.71543111105473 74 205 254
-615.9494047381987 16.0089089563524 184.401073876894 75 204 254
-614.4139070888874 15.9882843824564 184.82801101198518 74 205 254
-616.6178064572806 16.869715483681652 182.2982121681067 75 205 254
-614.558773908402 16.52871000055483 182.96756657002373 74 205 254
-615.4572582296811 17.253695082036916 181.51670838614226 74 204 254
-613.9575366068216 16.41834711729089 183.28544935102408 74 205 254
-614.3708120839466 16.20655261709753 183.81946684837018 74 205 254
-616.5992020869049 16.29224972374331 183.55678040019006 75 204 254
-613.6526130706916 15.646072821043953 185.12972108526145 74 205 254
-614.20223388145 16.73755767123159 182.89200919119156 74 204 254
-617.5938728523225 16.143314612304124 183.72585940473917 75 205 254
-614.8340518124742 16.342149711283483 183.41667466348684 75 205 254
-615.5324941224359 17.434921979639636 181.07314314700665 75 204 254
-620.367237587978 15.816990027504685 183.75512731950312 75 205 254
-616.900286566651 16.311122988978347 183.27544216445233 74 204 254
-615.374536127553 17.077375982845055 181.98506557116926 74 204 254
-615.1490013635307 17.081739950365005 182.10707645386807 74 205 254
-614.045094333084 16.574011553959892 182.89771903186096 74 205 254
-617.4144528266372 16.2487887107658 183.34637126565787 74 204 254
-614.4958701059867 16.58085899331085 183.33997573915948 75 205 254
-616.9749711245245 16.508779383192802 182.83891109908762 74 204 254
-615.2883742550739 16.30162914480915 183.48526541825683 74 205 254
-614.0254832319823 16.37983073830792 183.6471698683509 74 204 254
-614.0307102882992 15.87843337689533 185.11543621421677 75 205 254
-614.0313150036435 17.551255092056834 180.98362847759023 74 204 254
