-11.52973461151123 -2.5044121742248535 27.537099838256836 255 255 255
-3.504815101623535 -4.647005081176758 17.18813705444336 255 255 255
9.522492408752441 -0.4838027060031891 27.080106735229492 255 255 255
8.473624229431152 -6.087630748748779 15.772045135498047 255 255 255
9.119247436523438 -9.01547908782959 19.015127182006836 255 255 255
8.419689178466797 -4.784368991851807 17.72941780090332 255 255 255
-7.928030490875244 -4.184068202972412 8.577754974365234 255 255 255
-3.4437437057495117 1.8392372131347656 9.339279174804688 255 255 255
-3.9778859615325928 -4.72702169418335 13.768442153930664 255 255 255
-11.755027770996094 -2.1061744689941406 32.62804412841797 255 255 255
-5.634793758392334 -3.3260481357574463 13.125679969787598 255 255 255
-2.488947629928589 -2.8170320987701416 10.522181510925293 255 255 255
7.8784942626953125 -3.736917018890381 7.219973564147949 255 255 255
7.552639007568359 -6.128869533538818 6.346545696258545 255 255 255
-7.404401779174805 -3.356013536453247 7.681351184844971 255 255 255
-12.278844833374023 -7.2443461418151855 3.367932081222534 255 255 255
-7.8790082931518555 -4.8874616622924805 6.551980018615723 255 255 255
8.521696090698242 1.6352399587631226 18.117616653442383 255 255 255
7.574377059936523 -3.4436182975769043 3.6294918060302734 255 255 255
9.045478820800781 2.2377090454101562 24.160900115966797 255 255 255
-8.822211265563965 -1.9066683053970337 27.0457820892334 255 255 255
-8.717066764831543 -4.684001922607422 9.221868515014648 255 255 255
-13.61474609375 -6.553175449371338 13.896978378295898 255 255 255
-17.758358001708984 0.7785019874572754 35.519874572753906 255 255 255
-7.043898582458496 -3.2537310123443604 8.272326469421387 255 255 255
-11.325909614562988 -2.414771795272827 21.823572158813477 255 255 255
17.44216537475586 3.690033197402954 27.340688705444336 255 255 255
9.42910385131836 0.3013432025909424 22.911396026611328 255 255 255
3.556171178817749 -0.07657964527606964 -4.16933012008667 255 255 255
2.76385498046875 0.21058443188667297 -4.226286888122559 255 255 255
6.4176459312438965 1.0898878574371338 11.54647159576416 255 255 255
-16.02947998046875 -2.6890640258789062 -0.5277773141860962 255 255 255
-2.749610185623169 2.1895666122436523 10.881595611572266 255 255 255
-10.438218116760254 -2.3529603481292725 14.450407981872559 255 255 255
3.7347822189331055 0.09102807939052582 -2.879432201385498 255 255 255
-8.587145805358887 -5.563413619995117 7.366589546203613 255 255 255
4.347842216491699 3.653498888015747 182.20144653320312 255 255 255
8.222585678100586 -2.7238452434539795 13.280138969421387 255 255 255
4.473236083984375 2.215578556060791 7.893863201141357 255 255 255
-9.316038131713867 -5.616962909698486 6.791746616363525 255 255 255
-2.6439521312713623 -9.251984596252441 72.06851196289062 255 255 255
9.011204719543457 -3.4293384552001953 13.529256820678711 255 255 255
-15.296751022338867 -0.8272780776023865 76.97262573242188 255 255 255
-13.725879669189453 -0.32910478115081787 42.299522399902344 255 255 255
-11.630616188049316 -8.904433250427246 -0.006726952735334635 255 255 255
-8.128361701965332 -4.665138244628906 8.42058277130127 255 255 255
-6.218620300292969 0.058487411588430405 -9.307522773742676 255 255 255
8.6112699508667 -12.048605918884277 11.700345993041992 255 255 255
-12.400036811828613 -6.232378959655762 0.029107287526130676 255 255 255
-7.8011040687561035 -2.745156764984131 18.00697898864746 255 255 255
-2.623549461364746 1.8574751615524292 8.841384887695312 255 255 255
-9.779779434204102 -7.613945007324219 -3.1080431938171387 255 255 255
-11.174322128295898 -5.594199180603027 3.942979574203491 255 255 255
-2.5257461071014404 1.9391332864761353 9.707640647888184 255 255 255
-11.60700798034668 -5.826528072357178 5.217328071594238 255 255 255
8.11080265045166 -0.6788091063499451 11.973885536193848 255 255 255
4.901684284210205 -7.049674987792969 -0.8326070308685303 255 255 255
-11.739758491516113 -5.738514423370361 4.355038166046143 255 255 255
-12.034212112426758 -2.181079149246216 26.017257690429688 255 255 255
3.0465433597564697 4.193058490753174 47.16127395629883 255 255 255
-6.832790851593018 -3.3824636936187744 16.19859504699707 255 255 255
7.981095314025879 -0.835701048374176 10.025620460510254 255 255 255
-12.228861808776855 -3.1131067276000977 -1.421040415763855 255 255 255
-12.189631462097168 -2.714675188064575 26.585939407348633 255 255 255
-3.8914384841918945 0.36647844314575195 -5.240296840667725 255 255 255
9.029732704162598 -9.450319290161133 16.49625015258789 255 255 255
8.287086486816406 -2.445493221282959 14.75332260131836 255 255 255
-26.879980087280273 3.5670979022979736 113.20201873779297 255 255 255
11.145001411437988 -2.6483962535858154 24.837120056152344 255 255 255
-9.274442672729492 -2.5987889766693115 16.20566749572754 255 255 255
8.233378410339355 -1.8598613739013672 14.711894035339355 255 255 255
-13.325448036193848 -8.049566268920898 5.549668788909912 255 255 255
-10.532541275024414 -6.020911693572998 12.498311996459961 255 255 255
18.354583740234375 -17.33106231689453 56.44062423706055 255 255 255
-8.962010383605957 -6.5068159103393555 -2.963442325592041 255 255 255
2.9435875415802 -2.8358168601989746 -9.5550537109375 255 255 255
-12.080289840698242 -3.8878672122955322 6.66947078704834 255 255 255
-8.676918983459473 -6.609045505523682 -7.168262958526611 255 255 255
-6.804652690887451 0.11370540410280228 -10.007150650024414 255 255 255
5.732154369354248 -2.1224169731140137 1.5469268560409546 255 255 255
-10.391767501831055 -7.500709056854248 -3.3236985206604004 255 255 255
6.999998569488525 -0.24258004128932953 12.621301651000977 255 255 255
7.951432228088379 -2.3224103450775146 24.826101303100586 255 255 255
9.99057674407959 -8.9183349609375 24.51082420349121 255 255 255
4.06392240524292 -5.576948165893555 2.306849718093872 255 255 255
-5.9539079666137695 1.3963121175765991 9.549887657165527 255 255 255
-67.2815170288086 -21.03476905822754 115.30966186523438 255 255 255
-7.235889434814453 -1.7624726295471191 13.738389015197754 255 255 255
7.8573174476623535 -3.8563027381896973 19.21698570251465 255 255 255
4.31467342376709 -0.5179221034049988 69.63721466064453 255 255 255
-10.960907936096191 -1.8492432832717896 32.55160140991211 255 255 255
-2.547506809234619 1.7426217794418335 27.521059036254883 255 255 255
9.212467193603516 -7.858341693878174 22.05915641784668 255 255 255
4.922691345214844 2.617511749267578 15.197149276733398 255 255 255
-7.459166049957275 0.7173107266426086 12.760808944702148 255 255 255
-2.016270399093628 3.04766845703125 8.355359077453613 255 255 255
-10.519445419311523 -0.7391873598098755 35.578834533691406 255 255 255
7.885917663574219 -3.6163785457611084 8.018694877624512 255 255 255
8.36511516571045 -6.274257659912109 9.701093673706055 255 255 255
-9.203059196472168 -4.552344799041748 8.464062690734863 255 255 255
-6.996758460998535 0.7335229516029358 5.342637538909912 255 255 255
8.94064712524414 0.011975384317338467 19.178565979003906 255 255 255
9.578797340393066 0.34969425201416016 23.404970169067383 255 255 255
7.625712871551514 -3.4926321506500244 3.7226345539093018 255 255 255
5.311269760131836 -2.3635756969451904 -2.179551124572754 255 255 255
5.445263385772705 0.3455853760242462 0.8579350709915161 255 255 255
-9.48946475982666 -4.400664806365967 6.118448257446289 255 255 255
8.620075225830078 -8.431865692138672 15.6732816696167 255 255 255
-7.785277843475342 -3.5450785160064697 16.322946548461914 255 255 255
-3.5722830295562744 -4.222630977630615 14.05307674407959 255 255 255
-3.8577892780303955 -4.055846214294434 15.955419540405273 255 255 255
6.840603828430176 1.002168893814087 4.157705783843994 255 255 255
-9.865477561950684 -4.665245056152344 39.64780044555664 255 255 255
1.8072572946548462 -2.1236205101013184 -10.291854858398438 255 255 255
4.047421932220459 1.6190338134765625 8.84286880493164 255 255 255
-8.225886344909668 -2.836803674697876 20.640769958496094 255 255 255
-8.623095512390137 -0.27748480439186096 -1.579527497291565 255 255 255
7.968544006347656 -5.913522243499756 9.635188102722168 255 255 255
-4.4795241355896 0.5154327750205994 -5.79831600189209 255 255 255
1.878213882446289 -0.11245536804199219 142.04150390625 255 255 255
-11.438989639282227 -7.500294208526611 -2.372013807296753 255 255 255
7.865034580230713 -3.13226580619812 11.039006233215332 255 255 255
-10.63500690460205 -3.8902087211608887 20.072690963745117 255 255 255
-4.460132598876953 -4.803304672241211 14.322434425354004 255 255 255
-4.078718185424805 -4.354839324951172 18.302825927734375 255 255 255
7.385243892669678 -5.317258358001709 9.50102424621582 255 255 255
-9.175187110900879 -5.140716552734375 7.89322566986084 255 255 255
-12.404335021972656 -6.447251319885254 5.034174919128418 255 255 255
-10.116883277893066 -5.677139759063721 10.599104881286621 255 255 255
-7.914911270141602 -3.1177825927734375 15.112297058105469 255 255 255
-27.49563980102539 -8.611860275268555 61.818450927734375 255 255 255
7.458446502685547 -3.0588290691375732 9.751517295837402 255 255 255
-9.487236022949219 -4.884932518005371 5.532199382781982 255 255 255
8.172210693359375 -1.7855420112609863 12.98335075378418 255 255 255
-8.286860466003418 -0.9526400566101074 44.37802505493164 255 255 255
7.435791969299316 -3.3333065509796143 3.6845955848693848 255 255 255
7.726754188537598 -3.7122902870178223 6.95919942855835 255 255 255
8.292598724365234 -5.61848783493042 13.93999195098877 255 255 255
9.082379341125488 -8.255027770996094 18.268394470214844 255 255 255
-3.5424365997314453 -4.209891319274902 15.926459312438965 255 255 255
-8.540611267089844 -5.07811975479126 8.183120727539062 255 255 255
8.49210262298584 -3.2985925674438477 12.349535942077637 255 255 255
-8.304545402526855 6.07019567489624 133.87908935546875 255 255 255
8.190153121948242 -3.7695910930633545 8.200268745422363 255 255 255
-7.5646772384643555 -2.067396879196167 10.896822929382324 255 255 255
4.698381423950195 0.65696781873703 4.369235515594482 255 255 255
24.247331619262695 -6.8608574867248535 52.233375549316406 255 255 255
8.098772048950195 -0.8147878050804138 10.298534393310547 255 255 255
-60.0390510559082 -22.460142135620117 91.48060607910156 255 255 255
-3.6947433948516846 -4.640750408172607 14.721146583557129 255 255 255
14.132377624511719 -7.399231910705566 54.71987533569336 255 255 255
-12.92947769165039 -1.7496591806411743 52.75324630737305 255 255 255
-3.723874092102051 -3.1367428302764893 20.311010360717773 255 255 255
-3.490583658218384 -4.36718225479126 13.05614948272705 255 255 255
-4.6267194747924805 1.7064448595046997 10.514814376831055 255 255 255
-6.622050762176514 -4.040134429931641 15.622002601623535 255 255 255
8.499917984008789 -2.4291226863861084 12.316108703613281 255 255 255
-7.361367225646973 0.7064442038536072 12.51955509185791 255 255 255
-5.86353874206543 -3.5985023975372314 50.69865417480469 255 255 255
-6.429544448852539 -3.8843727111816406 16.13994598388672 255 255 255
-7.775903701782227 -3.3697900772094727 17.364267349243164 255 255 255
8.858684539794922 -0.776627779006958 22.60386085510254 255 255 255
-4.474210262298584 -3.6921639442443848 16.80719566345215 255 255 255
-1.4735532999038696 2.0014283657073975 23.383195877075195 255 255 255
11.293205261230469 -13.141504287719727 36.43061828613281 255 255 255
8.390724182128906 -4.744898319244385 19.21647071838379 255 255 255
4.4121809005737305 0.46408674120903015 4.591577529907227 255 255 255
-4.3179931640625 -4.263234615325928 14.53363037109375 255 255 255
-10.796903610229492 -2.4033191204071045 34.668556213378906 255 255 255
-4.16562032699585 -4.67819881439209 21.113237380981445 255 255 255
-4.164707660675049 -4.021692276000977 14.833525657653809 255 255 255
-5.444617748260498 -2.6117892265319824 11.919617652893066 255 255 255
9.910117149353027 2.255105972290039 24.632761001586914 255 255 255
8.551185607910156 1.6291756629943848 17.973634719848633 255 255 255
-12.644532203674316 -6.982182025909424 4.036872863769531 255 255 255
-13.209864616394043 0.27871420979499817 23.059123992919922 255 255 255
-41.19855880737305 -7.294579982757568 125.00028228759766 255 255 255
-9.285748481750488 -5.59816837310791 6.827891826629639 255 255 255
-9.324945449829102 -5.625274658203125 6.845097541809082 255 255 255
7.866835117340088 -9.060108184814453 8.204853057861328 255 255 255
-11.096134185791016 -7.679963111877441 -2.3922665119171143 255 255 255
23.35028648376465 15.32349681854248 150.11822509765625 255 255 255
-9.752178192138672 -3.0463664531707764 -7.681674957275391 255 255 255
2.2674918174743652 -0.23256133496761322 -14.865939140319824 255 255 255
-12.74474048614502 -8.505744934082031 -3.588529109954834 255 255 255
-12.022398948669434 -8.335095405578613 -4.169549942016602 255 255 255
7.855545520782471 -6.837662220001221 9.365772247314453 255 255 255
-9.05099105834961 -5.422459602355957 -22.677165985107422 255 255 255
-10.613165855407715 -6.523199081420898 -2.79988169670105 255 255 255
1.120337724685669 0.18118439614772797 -14.821078300476074 255 255 255
9.532087326049805 -4.149434566497803 11.550601959228516 255 255 255
-4.38111686706543 0.7439600825309753 -3.123952865600586 255 255 255
-7.360743045806885 -3.386972665786743 19.479875564575195 255 255 255
-12.477059364318848 -6.877841472625732 3.7864198684692383 255 255 255
-13.15088939666748 -6.777217388153076 14.836462020874023 255 255 255
-9.51602554321289 -5.143767833709717 6.477618217468262 255 255 255
-9.460550308227539 -5.1090521812438965 6.324490070343018 255 255 255
7.965362071990967 -7.083508014678955 8.893407821655273 255 255 255
-8.319250106811523 -3.719923257827759 18.45035743713379 255 255 255
-11.692533493041992 -7.975727081298828 -3.9599132537841797 255 255 255
-9.791935920715332 -6.464502334594727 -2.8637826442718506 255 255 255
14.589133262634277 1.5975844860076904 18.16617202758789 255 255 255
7.532054901123047 -6.076388835906982 6.992761611938477 255 255 255
11.01889705657959 -12.106175422668457 28.95566177368164 255 255 255
-8.624906539916992 -5.61514949798584 7.50404691696167 255 255 255
-10.89079475402832 -2.7609267234802246 13.574193000793457 255 255 255
-11.792951583862305 -6.6799421310424805 -1.7010942697525024 255 255 255
0.7949833869934082 0.8810478448867798 -5.820957660675049 255 255 255
-2.2265145778656006 0.5056549310684204 -7.684192657470703 255 255 255
4.769998073577881 -7.70163106918335 -1.801527976989746 255 255 255
-8.493546485900879 -4.001948356628418 8.2388277053833 255 255 255
-13.61314582824707 -6.725000858306885 -4.598116397857666 255 255 255
-11.416797637939453 -7.2640252113342285 -5.237430572509766 255 255 255
-9.257913589477539 -3.4996960163116455 14.883391380310059 255 255 255
7.155005931854248 -1.1478605270385742 5.927400588989258 255 255 255
-9.8181791305542 -4.703919887542725 7.471370697021484 255 255 255
8.369804382324219 -5.729098320007324 12.543756484985352 255 255 255
-29.01349449157715 10.506930351257324 151.8936004638672 255 255 255
-27.61540412902832 7.5930047035217285 154.23526000976562 255 255 255
-29.358247756958008 9.79827880859375 153.25294494628906 255 255 255
-27.8648738861084 8.045209884643555 159.23623657226562 255 255 255
-27.683862686157227 8.329575538635254 153.9103240966797 255 255 255
-31.148433685302734 8.831100463867188 153.7620391845703 255 255 255
-26.575523376464844 8.520214080810547 151.27845764160156 255 255 255
-29.346317291259766 10.279163360595703 153.5667266845703 255 255 255
-27.917827606201172 5.712268829345703 162.70193481445312 255 255 255
-48.07347106933594 -5.674422264099121 174.1289825439453 255 255 255
-29.09503746032715 10.532655715942383 153.42108154296875 255 255 255
-29.68851089477539 10.16399097442627 154.6912078857422 255 255 255
-26.987167358398438 7.238358497619629 154.8502655029297 255 255 255
-30.55259895324707 5.055651664733887 154.42556762695312 255 255 255
-26.188671112060547 6.3674235343933105 159.7902374267578 255 255 255
-29.066314697265625 9.807130813598633 153.09664916992188 255 255 255
2.000540018081665 1.4669394493103027 61.196739196777344 255 255 255
-6.08444881439209 -0.7511491775512695 62.94831848144531 255 255 255
-2.6829705238342285 -0.08166694641113281 63.64856719970703 255 255 255
-14.007102012634277 -2.5610122680664062 65.33456420898438 255 255 255
2.2738122940063477 3.8913726806640625 59.53727340698242 255 255 255
-6.601409912109375 3.0966033935546875 64.85546112060547 255 255 255
-4.024837970733643 -1.5485248565673828 58.606483459472656 255 255 255
-0.11881279945373535 3.725348711013794 62.904869079589844 255 255 255
3.8700807094573975 -0.42302370071411133 62.74098205566406 255 255 255
-27.2744140625 8.749302864074707 163.38290405273438 255 255 255
-30.02600860595703 10.781824111938477 164.4152374267578 255 255 255
-14.323813438415527 3.0998573303222656 216.23207092285156 255 255 255
-9.006518363952637 3.760737180709839 56.02448654174805 255 255 255
-8.717292785644531 4.345443248748779 54.30763626098633 255 255 255
-4.927818298339844 2.9734883308410645 64.79505157470703 255 255 255
0.6191956996917725 1.2488269805908203 67.45942687988281 255 255 255
-6.33774471282959 4.699253559112549 55.23236846923828 255 255 255
1.9756602048873901 1.85953688621521 75.06500244140625 255 255 255
-25.332809448242188 2.690643310546875 123.93926239013672 255 255 255
0.49297666549682617 -0.9010252952575684 61.23992919921875 255 255 255
-2.239682674407959 5.238404750823975 54.97480773925781 255 255 255
-54.20417404174805 -17.16356658935547 81.45587921142578 255 255 255
-9.933993339538574 3.7564306259155273 55.04972839355469 255 255 255
-15.296460151672363 -1.5086870193481445 67.78357696533203 255 255 255
-25.389556884765625 -0.8138594627380371 65.98615264892578 255 255 255
-8.288782119750977 4.541280746459961 58.72319793701172 255 255 255
-1.5798702239990234 5.261178016662598 58.192588806152344 255 255 255
0.2987644672393799 3.7734479904174805 62.02008819580078 255 255 255
0.9120631217956543 3.7426297664642334 63.99470520019531 255 255 255
-1.4591331481933594 4.508852005004883 54.96580505371094 255 255 255
-3.280406951904297 -0.8699102401733398 61.89765167236328 255 255 255
-3.2324843406677246 0.6976931095123291 57.74494934082031 255 255 255
2.8403403759002686 3.8494906425476074 60.312042236328125 255 255 255
1.823145866394043 3.7234063148498535 63.468875885009766 255 255 255
16.129592895507812 -13.128849983215332 109.24590301513672 255 255 255
-10.981512069702148 6.354515552520752 134.3623046875 255 255 255
2.8881194591522217 2.6212897300720215 30.042226791381836 255 255 255
10.267084121704102 -2.4775967597961426 35.16741180419922 255 255 255
-6.731607437133789 -1.0157102346420288 61.584129333496094 255 255 255
-6.983456611633301 -2.3355000019073486 24.9069766998291 255 255 255
-9.988822937011719 -0.9285270571708679 45.79282760620117 255 255 255
-6.3658976554870605 -8.150849342346191 54.34967803955078 255 255 255
4.04945707321167 1.9184472560882568 59.78271484375 255 255 255
-2.89591121673584 2.7835655212402344 59.870384216308594 255 255 255
-11.764357566833496 2.588860511779785 57.9945068359375 255 255 255
-27.45245361328125 5.697005271911621 161.37667846679688 255 255 255
-30.72473907470703 6.6143341064453125 172.4451141357422 255 255 255
-19.907869338989258 9.001951217651367 153.99765014648438 255 255 255
-19.9317626953125 8.243581771850586 153.91677856445312 255 255 255
-19.982213973999023 9.124242782592773 156.75631713867188 255 255 255
-26.571109771728516 7.45547342300415 156.70635986328125 255 255 255
-19.816282272338867 9.08692741394043 153.53904724121094 255 255 255
-9.191165924072266 -0.4688444137573242 63.4124870300293 255 255 255
-3.1066834926605225 -4.825682640075684 34.69591522216797 255 255 255
-3.8405940532684326 -4.260815143585205 40.86996078491211 255 255 255
-3.5374398231506348 -4.245680809020996 36.987430572509766 255 255 255
-19.96245002746582 8.620832443237305 156.1536407470703 255 255 255
-23.503965377807617 9.780426025390625 181.19314575195312 255 255 255
-27.99557876586914 7.2047295570373535 154.01661682128906 255 255 255
-27.6958065032959 4.983053207397461 158.08554077148438 255 255 255
-32.445892333984375 7.841127395629883 157.64596557617188 255 255 255
10.866799354553223 -2.629570722579956 25.264572143554688 255 255 255
-4.5841240882873535 -3.6852195262908936 19.686744689941406 255 255 255
-7.645226001739502 -3.961660146713257 8.530489921569824 255 255 255
8.558850288391113 -5.337145805358887 15.431648254394531 255 255 255
-6.5902862548828125 1.1566952466964722 9.085747718811035 255 255 255
-10.62881088256836 -1.9598442316055298 27.842721939086914 255 255 255
-8.938512802124023 -1.7744636535644531 21.592287063598633 255 255 255
8.956513404846191 -8.082260131835938 18.71864128112793 255 255 255
-4.237058162689209 -4.6209917068481445 14.820331573486328 255 255 255
0.8542826175689697 -1.9096462726593018 63.86247634887695 255 255 255
-1.5432978868484497 2.057311773300171 10.436870574951172 255 255 255
15.174785614013672 -6.841383934020996 55.02904510498047 255 255 255
8.973584175109863 -3.4084486961364746 13.490764617919922 255 255 255
8.611056327819824 -5.8233489990234375 13.161088943481445 255 255 255
8.610854148864746 -5.362009525299072 15.54759693145752 255 255 255
-6.076774597167969 1.0257587432861328 7.282472610473633 255 255 255
-9.842063903808594 -2.2153074741363525 22.34813690185547 255 255 255
4.453461170196533 2.2164554595947266 7.870518684387207 255 255 255
8.61285400390625 -2.5666704177856445 15.556660652160645 255 255 255
-3.3761401176452637 -2.169610023498535 18.8636417388916 255 255 255
9.45660400390625 -4.0506510734558105 11.713214874267578 255 255 255
-3.3953325748443604 -2.1499524116516113 18.86339569091797 255 255 255
7.912359237670898 -3.8373117446899414 6.8755717277526855 255 255 255
7.748194694519043 -3.1199021339416504 10.564839363098145 255 255 255
-9.420130729675293 -5.671299934387207 7.165032863616943 255 255 255
8.770633697509766 -0.24584630131721497 16.73752212524414 255 255 255
-7.508792877197266 -3.9927423000335693 2.192277669906616 255 255 255
-0.12355655431747437 2.3841605186462402 12.670952796936035 255 255 255
7.0532636642456055 3.8875346183776855 24.630603790283203 255 255 255
-4.064746379852295 -5.982794761657715 37.501380920410156 255 255 255
-4.191652297973633 -2.624335289001465 30.022184371948242 255 255 255
-3.5667061805725098 -5.307091236114502 35.10084915161133 255 255 255
-2.7887606620788574 -5.018530368804932 36.28993225097656 255 255 255
11.221075057983398 4.0959062576293945 34.14103317260742 255 255 255
-7.372838020324707 -1.5773940086364746 19.747278213500977 255 255 255
10.061676979064941 -5.644840240478516 23.165035247802734 255 255 255
9.349815368652344 -6.954718112945557 62.088661193847656 255 255 255
-27.620670318603516 5.627948760986328 153.9196319580078 255 255 255
-8.715925216674805 6.4105544090271 138.1103973388672 255 255 255
-24.647052764892578 10.698264122009277 148.33047485351562 255 255 255
-9.176671028137207 6.443514347076416 138.74981689453125 255 255 255
-9.245165824890137 6.401727676391602 137.62876892089844 255 255 255
-19.385602951049805 8.425324440002441 155.74851989746094 255 255 255
-3.1891467571258545 -3.3506081104278564 18.528844833374023 255 255 255
-42.927589416503906 -15.67782974243164 -68.61143493652344 255 255 255
-69.6707992553711 -22.842052459716797 65.7481460571289 255 255 255
-71.41272735595703 -8.535097122192383 75.84671783447266 255 255 255
-6.263967990875244 -8.359906196594238 -79.009033203125 255 255 255
-72.57762145996094 -8.335806846618652 71.23243713378906 255 255 255
-72.85346984863281 -8.424180030822754 71.51675415039062 255 255 255
-80.8575210571289 -18.25366973876953 48.87300491333008 255 255 255
-61.704124450683594 -15.066973686218262 82.6722183227539 255 255 255
-73.56886291503906 -31.290203094482422 47.283687591552734 255 255 255
-81.53047943115234 -19.054956436157227 47.695770263671875 255 255 255
-78.62896728515625 -23.940519332885742 43.21211242675781 255 255 255
-72.68279266357422 -20.308822631835938 86.07177734375 255 255 255
-80.10890197753906 -9.2217378616333 71.36589050292969 255 255 255
-82.18975830078125 -16.754907608032227 79.29159545898438 255 255 255
-30.677513122558594 -20.774709701538086 -68.58344268798828 255 255 255
-79.8463134765625 -20.383464813232422 61.99227523803711 255 255 255
-82.66070556640625 -14.928932189941406 63.38154602050781 255 255 255
-47.033634185791016 -24.770923614501953 86.90520477294922 255 255 255
-80.89666748046875 -21.271656036376953 57.99686813354492 255 255 255
-76.23058319091797 -22.245548248291016 58.19499206542969 255 255 255
-63.89045715332031 -18.24751091003418 44.21226119995117 255 255 255
-70.5428237915039 -22.968313217163086 59.30059814453125 255 255 255
-12.948744773864746 -29.392810821533203 -66.3996353149414 255 255 255
-43.375186920166016 -15.344664573669434 -66.94915771484375 255 255 255
-15.576043128967285 -22.77639389038086 -79.26082611083984 255 255 255
-3.7563188076019287 -9.568593978881836 -81.01026916503906 255 255 255
-34.56871795654297 -17.786169052124023 -76.2750015258789 255 255 255
-38.946571350097656 -14.736604690551758 -58.83009338378906 255 255 255
14.930171012878418 -9.535304069519043 -81.77921295166016 255 255 255
-80.93252563476562 -21.069284439086914 58.012821197509766 255 255 255
-35.2138671875 -15.040167808532715 -78.74434661865234 255 255 255
-38.18002700805664 -14.946639060974121 -76.87650299072266 255 255 255
-19.172842025756836 -40.698150634765625 46.63369369506836 255 255 255
0.9061432480812073 -14.056947708129883 -83.0936050415039 255 255 255
-27.43182945251465 -15.981386184692383 -76.6530532836914 255 255 255
-68.56857299804688 -14.206199645996094 82.390380859375 255 255 255
-33.37084197998047 -18.18311882019043 -76.88433837890625 255 255 255
-41.31332778930664 -10.866462707519531 -68.13623809814453 255 255 255
-11.795469284057617 -8.690467834472656 -83.77123260498047 255 255 255
-26.344274520874023 -16.570764541625977 -68.13455963134766 255 255 255
-68.99116516113281 -12.874980926513672 54.18864059448242 255 255 255
-75.46678161621094 -29.57706642150879 40.66757583618164 255 255 255
-28.224145889282227 -14.85323715209961 -69.07418823242188 255 255 255
-29.090200424194336 -18.628564834594727 -77.40191650390625 255 255 255
-39.500667572021484 -15.74974536895752 -75.24598693847656 255 255 255
-28.49393081665039 -13.45833969116211 -78.74617767333984 255 255 255
-14.320709228515625 -7.391984462738037 -69.91239166259766 255 255 255
-13.159122467041016 -7.545843124389648 -68.02275085449219 255 255 255
-7.8005805015563965 -7.469477653503418 -84.6440658569336 255 255 255
-21.958322525024414 -9.707307815551758 -78.89569091796875 255 255 255
-72.09231567382812 -19.850448608398438 55.99134826660156 255 255 255
-26.81536102294922 -13.389749526977539 -78.60688018798828 255 255 255
6.859676361083984 -21.075576782226562 -81.71409606933594 255 255 255
-26.24483871459961 -8.950374603271484 -67.5522232055664 255 255 255
-24.52055549621582 -13.792654037475586 -79.00924682617188 255 255 255
-25.716205596923828 -8.767271041870117 -67.76929473876953 255 255 255
-20.208505630493164 -10.12942886352539 -82.50900268554688 255 255 255
-25.185239791870117 -12.216200828552246 -81.14766693115234 255 255 255
-34.26948165893555 -18.440078735351562 -78.06378936767578 255 255 255
-35.75321960449219 -13.047301292419434 -65.80192565917969 255 255 255
3.408837080001831 -10.874341011047363 -57.616943359375 255 255 255
-5.797082901000977 -3.5949718952178955 -56.238460540771484 255 255 255
-5.446821212768555 -9.068155288696289 -59.42934799194336 255 255 255
5.103391647338867 -5.705525875091553 -54.866065979003906 255 255 255
-1.7783375978469849 -6.55269718170166 -55.419776916503906 255 255 255
5.782608509063721 -6.12914514541626 -57.1131477355957 255 255 255
4.312580108642578 0.8383685350418091 3.3757834434509277 255 255 255
-4.090397357940674 -9.632353782653809 -58.62640380859375 255 255 255
2.628497838973999 -4.924034595489502 -57.49093246459961 255 255 255
9.04825496673584 -9.871343612670898 -50.94411849975586 255 255 255
7.674371242523193 -6.480565547943115 -52.43703842163086 255 255 255
9.784393310546875 -7.506227016448975 -54.70465850830078 255 255 255
-2.1326050758361816 -21.980533599853516 -82.31106567382812 255 255 255
3.1483795642852783 -19.68796157836914 -65.29154205322266 255 255 255
-10.647760391235352 -14.477279663085938 -81.52775573730469 255 255 255
9.902621269226074 -13.470780372619629 -83.39075469970703 255 255 255
-39.8948860168457 -13.958233833312988 -77.21002960205078 255 255 255
-43.38527297973633 -12.082850456237793 -63.150184631347656 255 255 255
-4.15034818649292 -22.83673858642578 -83.15776062011719 255 255 255
-26.767494201660156 -10.752900123596191 -78.8236312866211 255 255 255
-28.8626651763916 -11.73255443572998 -79.32006072998047 255 255 255
-22.81001091003418 -14.65042781829834 -80.07563781738281 255 255 255
-30.063817977905273 -9.393357276916504 -67.52681732177734 255 255 255
26.75335693359375 -8.031941413879395 -61.3593864440918 255 255 255
-2.2314956188201904 -2.6642379760742188 -51.920928955078125 255 255 255
3.3475701808929443 -5.560370922088623 -59.91886901855469 255 255 255
5.323184967041016 -6.379670143127441 -57.1405143737793 255 255 255
36.85265350341797 -2.2637953758239746 -59.60960006713867 255 255 255
-0.785028874874115 -5.985589027404785 -59.59895706176758 255 255 255
-6.684282302856445 -0.5382020473480225 -22.909305572509766 255 255 255
-10.813386917114258 -3.3870179653167725 7.221226215362549 255 255 255
3.4266414642333984 -1.508795142173767 -41.14228439331055 255 255 255
9.00465202331543 -3.3030662536621094 -27.4242000579834 255 255 255
-10.959126472473145 -8.056058883666992 -42.87613296508789 255 255 255
0.6149858236312866 -3.1688196659088135 -47.418678283691406 255 255 255
2.9140868186950684 -2.147364377975464 -41.78561019897461 255 255 255
1.7041369676589966 -2.633991003036499 -44.49773406982422 255 255 255
-10.096237182617188 -7.387520790100098 -35.169429779052734 255 255 255
-8.561494827270508 -3.051710367202759 -29.657020568847656 255 255 255
-9.592392921447754 -5.300635814666748 -32.35959243774414 255 255 255
-1.6631289720535278 -2.0060465335845947 -52.790977478027344 255 255 255
-2.439286231994629 -2.9118459224700928 -54.521446228027344 255 255 255
15.161568641662598 -13.2451753616333 -10.843557357788086 255 255 255
-10.45600700378418 -1.0656604766845703 -37.41524124145508 255 255 255
-10.871111869812012 -8.84935474395752 -35.480857849121094 255 255 255
-3.95207142829895 -1.750038504600525 -36.244327545166016 255 255 255
8.289093971252441 -0.853640615940094 -17.696735382080078 255 255 255
-10.811532974243164 -4.7894511222839355 -52.020870208740234 255 255 255
-13.911623001098633 -6.6642746925354 -40.66646957397461 255 255 255
-9.109234809875488 -7.270910739898682 -47.66151428222656 255 255 255
-8.992046356201172 -8.698870658874512 -26.970022201538086 255 255 255
-12.627795219421387 -10.06078052520752 -6.592977046966553 255 255 255
-9.772985458374023 -5.467046737670898 -33.12213897705078 255 255 255
-12.406318664550781 -8.64694881439209 -38.09587097167969 255 255 255
0.1803838461637497 -5.738018035888672 -54.244632720947266 255 255 255
-0.09529244154691696 -1.525289535522461 -36.97244644165039 255 255 255
-11.406797409057617 -5.095977783203125 -45.51597213745117 255 255 255
-1.3425984382629395 -6.420288562774658 -55.83391189575195 255 255 255
1.1569112539291382 -8.088991165161133 -84.06993103027344 255 255 255
-32.388999938964844 -11.5774507522583 -78.74671173095703 255 255 255
-9.138602256774902 -7.864919662475586 -23.93501853942871 255 255 255
-40.976402282714844 -11.131832122802734 -73.26016235351562 255 255 255
-36.19657897949219 -10.139172554016113 -69.19583892822266 255 255 255
17.966962814331055 -14.317145347595215 -70.91828918457031 255 255 255
-20.50709342956543 -12.701881408691406 -79.90306854248047 255 255 255
-10.981285095214844 -6.447203636169434 -44.795204162597656 255 255 255
-11.050993919372559 -5.04656982421875 -44.96493148803711 255 255 255
-9.765467643737793 -4.917130470275879 -25.709505081176758 255 255 255
11.332749366760254 -1.3172019720077515 -42.241634368896484 255 255 255
-9.958600044250488 -7.7760539054870605 -44.22917175292969 255 255 255
-13.801470756530762 -12.46591567993164 -27.05906867980957 255 255 255
-10.937745094299316 -6.465199947357178 -44.83026123046875 255 255 255
0.5035311579704285 -3.30683970451355 -54.75920486450195 255 255 255
-4.745034217834473 -14.299665451049805 -82.92144012451172 255 255 255
-8.22804069519043 -10.951872825622559 -82.05958557128906 255 255 255
-11.266647338867188 -8.303210258483887 -42.98332977294922 255 255 255
9.288081169128418 -2.6891424655914307 -43.83042907714844 255 255 255
-9.677988052368164 -7.072952747344971 -32.40769958496094 255 255 255
2.155888080596924 -2.3815062046051025 -41.074859619140625 255 255 255
2.948890209197998 -7.874107837677002 -58.50185012817383 255 255 255
7.347668170928955 -4.956051349639893 -53.61859130859375 255 255 255
10.392528533935547 -3.127814292907715 -50.67976379394531 255 255 255
9.191291809082031 -5.646971702575684 -59.85105514526367 255 255 255
-1.699355959892273 -10.925129890441895 -53.44448471069336 255 255 255
-7.216399192810059 -1.8036072254180908 -8.72507381439209 255 255 255
-1.3023308515548706 -2.9004878997802734 -52.59959030151367 255 255 255
-9.943995475769043 -8.847838401794434 -39.25056457519531 255 255 255
-9.312539100646973 -6.726752758026123 -29.02778434753418 255 255 255
-10.744630813598633 -7.93471097946167 -39.97402572631836 255 255 255
-1.574145793914795 -2.666085958480835 -51.40647506713867 255 255 255
1.7832603454589844 -5.334881782531738 -60.92084884643555 255 255 255
25.251066207885742 -11.133134841918945 -60.15865707397461 255 255 255
-9.469836235046387 6.54482364654541 139.56329345703125 255 255 255
-11.996950149536133 7.268659591674805 145.8277587890625 255 255 255
4.394783973693848 -14.658442497253418 -64.20956420898438 255 255 255
-20.94632339477539 -14.109272956848145 -79.17948913574219 255 255 255
-6.413725852966309 -20.17070198059082 -86.148193359375 255 255 255
-5.819797992706299 -1.4976062774658203 -29.124849319458008 255 255 255
10.757807731628418 -4.801872730255127 -29.217424392700195 255 255 255
-4.846573829650879 -2.5261106491088867 -45.513484954833984 255 255 255
-2.9114632606506348 -2.766630172729492 -34.8962516784668 255 255 255
-8.895787239074707 -6.694271087646484 -35.2568244934082 255 255 255
-9.637992858886719 -6.118185043334961 -28.25145149230957 255 255 255
9.388957023620605 -9.411108016967773 -57.38085174560547 255 255 255
26.250959396362305 -9.653998374938965 -68.6241683959961 255 255 255
29.050582885742188 -11.095126152038574 -68.57154083251953 255 255 255
6.032941818237305 -9.922980308532715 -63.171634674072266 255 255 255
6.988274097442627 -10.413697242736816 -60.25424575805664 255 255 255
14.020247459411621 -12.030243873596191 -60.59933090209961 255 255 255
18.942838668823242 -11.37263298034668 -59.3481330871582 255 255 255
1.538957118988037 -7.200626850128174 -83.69993591308594 255 255 255
-41.22147750854492 -13.660404205322266 -73.72828674316406 255 255 255
6.991788864135742 -12.235630989074707 -64.58979797363281 255 255 255
-21.763742446899414 -8.48834228515625 -67.39995574951172 255 255 255
1.017895221710205 -16.792081832885742 -65.9496841430664 255 255 255
24.599519729614258 -5.104365825653076 -73.67713928222656 255 255 255
8.769076347351074 -9.96915340423584 -64.37458038330078 255 255 255
-10.83324146270752 -4.6273674964904785 -40.52411651611328 255 255 255
-4.865316390991211 -0.724869966506958 -6.8781867027282715 255 255 255
4.479527473449707 -6.505073547363281 -56.167457580566406 255 255 255
-10.36731243133545 -7.834592819213867 -41.87997055053711 255 255 255
-9.203304290771484 -8.981202125549316 -29.43243980407715 255 255 255
0.8350962400436401 -1.9227102994918823 -39.11628723144531 255 255 255
-2.6106810569763184 1.1070510149002075 16.813011169433594 255 255 255
9.049827575683594 -10.306245803833008 14.48042106628418 255 255 255
14.676447868347168 -19.31905746459961 8.44355583190918 255 255 255
-36.51419448852539 -13.314350128173828 -76.05492401123047 255 255 255
-38.708152770996094 -14.146585464477539 -78.26475524902344 255 255 255
-13.667326927185059 -8.45020866394043 -68.6299819946289 255 255 255
-9.617318153381348 -3.3321011066436768 -25.21710968017578 255 255 255
-10.253397941589355 -4.261621952056885 -36.50472640991211 255 255 255
-10.151336669921875 -4.473560333251953 -39.99982452392578 255 255 255
-0.054368749260902405 -24.112499237060547 -84.75821685791016 255 255 255
-29.446523666381836 -17.26084327697754 -65.88713073730469 255 255 255
-31.82614517211914 -14.302165985107422 -66.06610107421875 255 255 255
24.43543815612793 -2.8431875705718994 -69.7002182006836 255 255 255
22.301725387573242 -10.619097709655762 -69.22219848632812 255 255 255
12.879012107849121 -6.872996807098389 51.31607437133789 255 255 255
12.511190414428711 -5.427945137023926 39.107147216796875 255 255 255
-65.1155776977539 -22.795127868652344 110.79425811767578 255 255 255
-9.018874168395996 -10.325801849365234 -25.377866744995117 255 255 255
-8.528274536132812 -10.394390106201172 -27.116012573242188 255 255 255
0.78765869140625 -2.4911043643951416 -39.16172409057617 255 255 255
-9.203252792358398 -6.6586384773254395 -29.711313247680664 255 255 255
-9.398266792297363 -9.226381301879883 -29.463937759399414 255 255 255
3.6801371574401855 -16.17988395690918 -64.21919250488281 255 255 255
-12.780970573425293 -8.083767890930176 -82.72754669189453 255 255 255
-23.54164695739746 -9.119585037231445 -76.26962280273438 255 255 255
-25.456924438476562 -12.77136516571045 -79.817138671875 255 255 255
-9.521240234375 -3.4353280067443848 -53.07975387573242 255 255 255
-0.0004853073332924396 -0.5945202112197876 -20.34315299987793 255 255 255
-1.8242034912109375 -1.2167271375656128 -30.168344497680664 255 255 255
-26.37628936767578 -47.01328659057617 -73.8299789428711 255 255 255
-61.705570220947266 -22.46410369873047 58.84700012207031 255 255 255
1.1583759784698486 -5.220576763153076 -22.259780883789062 255 255 255
-11.8488130569458 -4.116974353790283 22.926244735717773 255 255 255
6.9787116050720215 -11.029091835021973 5.564931392669678 255 255 255
-64.62895202636719 -14.386951446533203 80.03565216064453 255 255 255
-7.891193389892578 -3.128383159637451 -49.03299331665039 255 255 255
-68.45497131347656 -26.581857681274414 22.86850929260254 255 255 255
-63.61962890625 -17.2604923248291 72.42316436767578 255 255 255
-78.8830795288086 -13.229351997375488 67.39958190917969 255 255 255
-78.947509765625 -18.847309112548828 55.59284210205078 255 255 255
-13.830367088317871 -6.673181056976318 -37.898372650146484 255 255 255
-10.55705738067627 -7.885783672332764 -37.6199951171875 255 255 255
-9.850374221801758 -5.227672100067139 -30.426183700561523 255 255 255
3.3727035522460938 -4.892542362213135 -6.05783224105835 255 255 255
-10.947157859802246 -4.707108497619629 -52.71969985961914 255 255 255
-11.312384605407715 -6.587656021118164 -45.41204071044922 255 255 255
-11.741918563842773 -5.530295372009277 -49.8719482421875 255 255 255
-10.534022331237793 -4.449306964874268 -49.53302764892578 255 255 255
-9.278902053833008 -8.14693832397461 -33.947689056396484 255 255 255
0.45643624663352966 -3.3097119331359863 -54.784732818603516 255 255 255
2.1395323276519775 -3.34761381149292 -36.219478607177734 255 255 255
-10.264608383178711 -4.517999649047852 -39.49116897583008 255 255 255
-10.632721900939941 -10.446892738342285 -36.94053649902344 255 255 255
-10.029742240905762 -11.215063095092773 -23.58772087097168 255 255 255
-74.35823059082031 -13.43855094909668 66.14735412597656 255 255 255
-9.521767616271973 -7.487934112548828 -75.78135681152344 255 255 255
-34.08090591430664 -11.485718727111816 -78.73684692382812 255 255 255
-34.307960510253906 -12.577072143554688 -78.17133331298828 255 255 255
-30.385059356689453 -9.986550331115723 -75.64862823486328 255 255 255
-26.83755874633789 -8.973361015319824 -70.69054412841797 255 255 255
-31.172725677490234 -9.579967498779297 -66.97710418701172 255 255 255
-81.49225616455078 -24.64851188659668 62.487361907958984 255 255 255
-10.155287742614746 -7.476510524749756 -35.7891731262207 255 255 255
-11.031893730163574 -5.051155090332031 -44.999534606933594 255 255 255
0.2497798055410385 -3.8555352687835693 -53.826751708984375 255 255 255
-10.953235626220703 -6.465971946716309 -44.73162078857422 255 255 255
0.07325947284698486 -3.9891183376312256 -54.17285919189453 255 255 255
19.97313690185547 -7.889322280883789 -46.12971878051758 255 255 255
1.313746690750122 -5.4594340324401855 -69.04791259765625 255 255 255
0.7155439257621765 -4.399354934692383 -53.302223205566406 255 255 255
-17.494903564453125 -12.642322540283203 -78.37311553955078 255 255 255
-1.2127071619033813 -14.133064270019531 -82.99596405029297 255 255 255
2.8702187538146973 -9.889012336730957 -83.69681549072266 255 255 255
-40.448787689208984 -10.624045372009277 -68.0868911743164 255 255 255
-30.60741424560547 -10.972497940063477 -78.49638366699219 255 255 255
-9.798943519592285 -6.450321674346924 -29.408327102661133 255 255 255
7.006801605224609 -1.0577057600021362 -31.526355743408203 255 255 255
-10.205497741699219 -3.7249085903167725 -42.10027313232422 255 255 255
-10.451299667358398 -7.601675033569336 -34.64495086669922 255 255 255
-9.429910659790039 -7.2939534187316895 -34.58552932739258 255 255 255
-10.905753135681152 -8.220025062561035 -44.52968978881836 255 255 255
-9.669921875 -4.041845798492432 -34.75575256347656 255 255 255
-9.900650978088379 -3.7407655715942383 -30.527080535888672 255 255 255
-0.23720583319664001 -3.0097885131835938 -54.20761489868164 255 255 255
-11.203452110290527 -6.6411356925964355 2.9435224533081055 255 255 255
-11.663331985473633 -8.580694198608398 -34.75069046020508 255 255 255
-10.566740989685059 -8.66076374053955 -36.39295196533203 255 255 255
-9.370599746704102 -8.492830276489258 -37.119224548339844 255 255 255
-9.863985061645508 -4.487349033355713 9.687064170837402 255 255 255
-8.73515510559082 -4.839508533477783 8.376622200012207 255 255 255
-5.621604919433594 0.3750225007534027 1.5632575750350952 255 255 255
-38.30870056152344 -18.351299285888672 -76.3349838256836 255 255 255
0.4326832592487335 -7.3483734130859375 -56.126708984375 255 255 255
4.627310752868652 -6.457376003265381 -56.99130630493164 255 255 255
1.0216515064239502 -2.3866705894470215 -48.697330474853516 255 255 255
-8.765719413757324 -10.137589454650879 -24.55324363708496 255 255 255
-11.052708625793457 -8.109790802001953 -39.1600456237793 255 255 255
3.854799270629883 -4.119770526885986 -62.960418701171875 255 255 255
-3.4265244007110596 -6.2354960441589355 -73.8799819946289 255 255 255
-6.0473551750183105 -0.7498642206192017 -24.376792907714844 255 255 255
-8.089558601379395 -2.3594954013824463 -25.950275421142578 255 255 255
-9.372636795043945 -0.42619696259498596 -13.061482429504395 255 255 255
35.51504135131836 -11.321914672851562 -66.50627136230469 255 255 255
-4.2596821784973145 -11.339183807373047 -85.4736328125 255 255 255
-21.316164016723633 -4.687547206878662 5.209651947021484 255 255 255
-1.72918701171875 2.020172119140625 10.061732292175293 255 255 255
-13.943497657775879 -5.03532075881958 0.4980798363685608 255 255 255
-11.008500099182129 -4.134808540344238 9.030706405639648 255 255 255
9.990370750427246 -2.9293723106384277 -26.89743423461914 255 255 255
-7.563675880432129 -1.452255129814148 -21.556821823120117 255 255 255
-4.735773086547852 -2.249332904815674 -43.85655975341797 255 255 255
-9.041672706604004 -11.630254745483398 -22.555145263671875 255 255 255
5.854781627655029 -12.859893798828125 -65.04634857177734 255 255 255
-1.2343242168426514 -12.736928939819336 -83.91474151611328 255 255 255
-9.94873332977295 -6.3517327308654785 -66.56212615966797 255 255 255
-4.406548500061035 -11.262989044189453 -85.46255493164062 255 255 255
-9.549787521362305 -9.623608589172363 -34.650394439697266 255 255 255
-9.130415916442871 -2.408714771270752 -38.22523498535156 255 255 255
-9.636192321777344 -9.631196975708008 -32.67412185668945 255 255 255
-10.278191566467285 -5.9215407371521 -38.903594970703125 255 255 255
6.51007604598999 -12.575675010681152 -66.24392700195312 255 255 255
5.101307392120361 -12.653458595275879 -67.28744506835938 255 255 255
11.308249473571777 16.99486541748047 220.19688415527344 255 255 255
-11.694160461425781 5.374607563018799 169.6603546142578 255 255 255
-14.777141571044922 6.086154460906982 156.87692260742188 255 255 255
-14.287352561950684 6.478299617767334 152.13345336914062 255 255 255
-36.582149505615234 -10.49636173248291 -70.99742126464844 255 255 255
-40.45261001586914 -10.644697189331055 -68.12792205810547 255 255 255
-20.017658233642578 -9.395313262939453 -64.77780151367188 255 255 255
-40.31401062011719 -10.541898727416992 -64.48466491699219 255 255 255
-24.682401657104492 -14.420958518981934 -79.15337371826172 255 255 255
-9.279402732849121 -6.149811744689941 -24.506772994995117 255 255 255
-25.886754989624023 -17.402254104614258 -77.00544738769531 255 255 255
-34.000587463378906 -12.768162727355957 -78.52680969238281 255 255 255
-31.587257385253906 -15.071009635925293 -77.54930877685547 255 255 255
-10.03986644744873 -7.713377952575684 -39.3070182800293 255 255 255
0.3267139792442322 -3.3948779106140137 -52.52080535888672 255 255 255
1.9283539056777954 -2.309699535369873 -41.56464385986328 255 255 255
-10.747464179992676 -6.17587423324585 -41.1080322265625 255 255 255
-10.911754608154297 -5.31486177444458 -45.1893310546875 255 255 255
-11.295212745666504 -8.383670806884766 -42.23868942260742 255 255 255
-9.666300773620605 -3.5111711025238037 -44.56635284423828 255 255 255
-7.4327569007873535 -1.4261560440063477 -24.404796600341797 255 255 255
-11.360624313354492 -6.441625595092773 -41.85598373413086 255 255 255
0.9595664143562317 -1.1488642692565918 -26.48410987854004 255 255 255
-11.638240814208984 -5.103691577911377 -45.33919906616211 255 255 255
-33.270530700683594 -11.626996040344238 -77.60820007324219 255 255 255
10.444991111755371 -8.968820571899414 -77.43942260742188 255 255 255
-4.396080493927002 -7.782896995544434 -74.99848175048828 255 255 255
-39.67953872680664 -12.852807998657227 -77.3821029663086 255 255 255
-39.57350158691406 -10.505187034606934 -65.40206146240234 255 255 255
-10.649173736572266 -7.831171989440918 -40.0955696105957 255 255 255
-3.317960023880005 -0.9878374934196472 -28.822622299194336 255 255 255
-9.301295280456543 -4.719840049743652 -25.2419376373291 255 255 255
-7.687107563018799 -2.0266880989074707 11.519726753234863 255 255 255
-9.439857482910156 -7.586880207061768 -34.503875732421875 255 255 255
-41.32210922241211 -14.324806213378906 -76.49720001220703 255 255 255
-45.043663024902344 -11.026479721069336 -62.68790817260742 255 255 255
-44.770870208740234 -15.601866722106934 -61.323116302490234 255 255 255
-29.49921417236328 -21.093271255493164 -77.68657684326172 255 255 255
-23.874683380126953 -9.61043930053711 -79.45516204833984 255 255 255
-36.61332702636719 -10.725911140441895 -73.80736541748047 255 255 255
-36.2979850769043 -10.34408187866211 -70.17529296875 255 255 255
-22.64398765563965 -13.180150032043457 -68.37932586669922 255 255 255
-15.632811546325684 -16.73735809326172 -61.31669998168945 255 255 255
14.531176567077637 -9.158899307250977 -79.68943786621094 255 255 255
-26.107694625854492 -15.233402252197266 -68.41492462158203 255 255 255
-3.7541468143463135 -7.9364705085754395 -76.3130111694336 255 255 255
-44.90403747558594 -16.488054275512695 -64.30486297607422 255 255 255
0.9475898742675781 -1.1676262617111206 -26.58428192138672 255 255 255
-13.030315399169922 -4.2187819480896 4.231197834014893 255 255 255
-16.522815704345703 -7.348514080047607 -70.38480377197266 255 255 255
-35.271446228027344 -10.39785385131836 -74.01641082763672 255 255 255
-21.304576873779297 -15.656786918640137 -85.40111541748047 255 255 255
