-688.5073824201164 -1.7891405339244901 143.86090649042472 74 205 254
-688.7713811378509 -2.2206568172825456 142.96282172573498 75 205 254
-688.1866382301754 -1.4412480275021906 144.40842294371134 75 205 254
-687.821855602913 -1.1473165524670002 144.79755003654697 75 205 254
-689.0731194316442 -1.8857116102058562 144.3234945508498 75 205 254
-688.0756846484246 -1.843621097733255 143.1326933986544 75 204 254
-688.8504108521271 -2.1364212963095177 143.31627181233358 74 204 254
-684.3250394242319 -0.7873573503385298 142.03892681046457 75 205 254
-687.8908350121494 -3.02903397057106 139.89602942433095 75 205 254
-686.5943124481549 -2.3054404852987087 140.2833025505249 74 205 254
-686.4663868346995 -2.4727330778468097 139.7755675784354 75 205 254
-684.8352172282451 -1.7497761285810238 140.11717272922579 75 204 254
-685.1659715461558 -0.34935837552479576 144.19529723361384 74 205 254
-687.5927084930336 -2.5933313189454594 140.6555417218044 74 204 254
-688.2749364237287 -1.3524966149602253 144.78477082227627 74 205 254
-684.5998092038494 -1.0864135544190514 141.5504252349202 75 205 254
-687.5316667598862 -1.46456170050687 143.5191776618492 74 204 254
-685.6848179867329 -1.8214381886323459 140.45493774962895 74 204 253
-685.8956322957653 -1.1469325131869965 142.75724211036243 74 205 254
-688.9761481347101 -2.014351420141068 143.8291151910143 74 205 254
-687.2643116849144 -1.0190536557739094 144.48060288792766 75 205 254
-687.6037273907694 -1.3398021185148892 143.98778082822173 74 205 254
-687.9832949923309 -1.6738507441585924 143.4733680813219 74 205 254
-685.102716430603 -0.3954331298204572 143.87232045633638 75 205 254
-687.5608623866706 -1.5791996499715388 143.2445152112585 75 205 254
-687.2626963136152 -1.5219928879343598 143.23037148271428 74 205 254
-688.2692036044692 -2.5864764216397376 141.50698830382035 75 205 254
-687.453078857395 -1.3728602672420038 143.91453830367186 74 205 254
-687.2024669210563 -1.1470340065328752 144.01589948228926 74 205 254
-685.3730781562359 -0.525642518797607 144.22183713668522 75 205 254
-687.9334495516512 -2.236203413575563 142.0559305378406 75 205 254
-687.7193034294224 -2.4829927811665886 141.11665801780532 74 205 254
-688.7376619778719 -1.6047850345827435 144.6917160409793 75 205 254
-687.5807738597273 -3.5863453727768917 139.8227948060694 74 204 254
-687.9089688988859 -3.1434498694478776 141.30961395722036 74 205 254
-688.7023561625226 -2.994611932561032 142.67697744249836 75 205 254
-688.6064855912424 -2.430297347283563 144.12424668444646 75 205 254
-688.8219561820991 -2.860489034481409 143.18876563296269 75 205 254
-689.2819289245925 -2.43551168484011 145.0143915859154 75 205 254
-687.6101232356815 -2.8098696030902737 141.82078323617574 74 205 254
-687.8496326138011 -2.496832741263102 142.9234152267799 74 205 254
-688.2641067389957 -2.074592867909532 144.67412466310705 75 205 254
-688.2365820412333 -3.5018823453246064 140.77337182067885 75 204 254
-688.3522356394932 -2.6336525210291786 143.21994112428294 75 205 254
-688.3868145007028 -2.7386232312758096 142.99812883036682 75 205 254
-688.3482910949607 -3.3723309854283663 141.23961002934016 74 205 254
-688.5008160233318 -3.2488814322333965 141.74456415704458 74 205 254
-688.3931829560363 -1.9638258885104847 145.1627855954341 75 205 254
-688.1630369000796 -2.908437180714893 142.23021917035712 75 205 254
-687.7149084871588 -2.6650775646531795 142.31800289259218 75 205 254
-689.4452964106445 -2.2322853260084017 145.8337149974039 74 205 254
-687.8047591374681 -1.8361171282305548 144.7388491297084 75 205 254
-688.595337618508 -3.0993154560739438 142.25288848202774 75 205 254
-687.9376797920469 -2.414463852597894 143.27189701766326 74 205 254
-687.8144696649032 -2.565519283611062 142.69781884395957 75 205 254
-688.6693975433462 -2.8764983435351503 142.9533117216114 75 205 254
-688.5109736995468 -2.5426464504106256 143.67402872243358 75 205 254
-688.16861971329 -2.1893226787236166 144.20699765780526 75 205 254
-687.4473609662073 -3.6975268084048984 139.40795271419492 75 204 254
-688.9394026504277 -2.751905589594161 143.64326170356998 75 205 254
-688.0212908796057 -3.0219112094903053 141.7646773872735 75 205 254
-687.5603408065443 -3.4736672166128653 140.66242659822916 75 205 254
-689.3085675433231 -2.27289045995008 146.02694695637675 75 205 254
-688.025865486062 -1.3091680674903667 147.0573844668273 75 205 254
-688.6435152674532 -2.9794821174027213 143.1805055431932 75 205 254
-687.5815669562809 -3.388988283110166 140.89216157024654 74 205 254
-688.12156547522 -1.3859437768195662 147.00176733986382 75 204 254
-688.4186805418909 -2.500741456091383 144.196891040203 75 205 254
-687.4334718143482 -2.1902689569062375 144.06487015184786 75 205 254
-688.4945235130463 -3.099557296799027 142.68933263002157 74 205 254
-689.2086783578906 -2.385162037913368 145.57153516541374 75 205 254
-687.7102295328806 -3.270134880356288 141.331842439293 75 204 254
-689.0359989939908 -1.8449076674287355 146.90139606618735 74 205 254
-688.5129956849667 -2.3857058257380075 144.65027663125898 75 205 254
-688.1722462454301 -2.758685880804933 143.19316283969422 75 205 254
-687.9166320384022 -3.7892708127172092 140.28902742965468 75 204 254
-688.7861118066245 -2.173367832466351 145.60970035890747 75 205 254
-688.2725256865524 -1.9245399837828323 145.64576132340312 75 205 254
-688.1808852664005 -2.046568348929945 145.1891350735447 75 205 254
-688.6271282667442 -1.6271391354160674 146.96003633818822 74 205 254
-687.8265491989756 -3.147297408853184 141.78152460789758 74 204 254
-687.4458680014219 -3.5511605616361983 140.35892534093975 75 204 254
-688.8347002583238 -2.042860922721877 146.04654299803065 75 205 254
-687.7746548429028 -3.9159977914040347 139.83464799887344 75 204 254
-688.9536974447747 -1.938109306940195 146.5164072578729 75 205 254
-689.0632738480923 -2.493550163816021 145.0735404820424 75 205 254
-689.389981590665 -2.159359574552056 146.4763191412972 75 205 254
-688.527702935071 -1.6994271157647312 146.60861258402127 75 205 254
-687.9328501463316 -3.011718602049722 142.25472752637364 74 205 254
-688.9895576319535 -2.6145441647611385 144.6342861509649 75 205 254
-688.6148331887563 -2.27391221079162 145.0974814502391 75 205 254
-688.7339936912134 -2.8904888839277003 143.54008012300588 75 205 254
-688.4447452948922 -1.820135489767992 146.14857781070054 75 205 254
-688.313629564162 -2.6056654244057498 143.77095667038 75 205 254
-688.6953163325335 -1.7972787630157008 147.05117188902625 75 205 254
-688.0111028035633 -2.497026840987612 144.21142369754966 75 205 254
-686.8790235177885 -3.3098187073067518 140.9986085414025 75 205 254
-688.0716358366626 -3.8877189285276543 140.79782880886708 75 204 254
-685.8477690671506 -1.5656948893641829 144.5310490262912 74 204 254
-688.4802739067848 -2.7409124693188183 144.16683238649574 75 205 254
-687.2665994085618 -3.3364132731888336 141.34681642683626 75 204 254
-688.3579727072391 -1.2736590986997616 148.0047808920107 75 204 254
-686.9651090658789 -3.014849277256154 141.88883837950453 75 204 254
-688.7808470252112 -3.0943919436568983 143.59883361532422 74 205 254
-688.888964541814 -2.2568846774044182 146.05599117099686 75 205 254
-685.230848934461 -0.042479409171797045 148.380662820987 74 205 254
-685.1774518941963 -0.15881112269746822 148.02303375032344 75 205 254
-687.1234087939567 -3.810442048420896 140.04053720806883 75 205 254
-687.1171362180089 -3.651538704206457 140.43045158722327 75 205 254
-688.3757839545801 -1.4392089429056085 147.59780233820422 74 205 254
-685.436904274629 -0.9735939308103401 145.58817897157732 74 205 254
-688.7040946559576 -2.4999289183690365 145.11612802141656 75 205 254
-685.5012445591957 -1.138117468081795 145.4483398227754 75 205 254
-688.178134493864 -3.7598682826264564 141.22501362528388 75 204 254
-688.5896864313308 -1.9084121329174248 146.5852630491049 74 205 254
-685.217192887322 -0.8084240426629226 146.1797893535108 74 205 254
-685.7847642735923 -0.9845099051202268 146.00576125219135 74 205 254
-686.0501816165795 -1.8409785977859663 143.95840168416564 75 204 254
-687.6029663384886 -3.6740459651738746 140.8207065038136 75 205 254
-687.8457412208951 -3.422766471416674 141.67547869071512 74 205 254
-687.3752732587482 -3.986746599035845 139.8715458651748 74 205 254
-688.912323243244 -2.9407010630654806 144.16569367588718 74 205 254
-689.0248913280604 -2.856402790453693 144.53684260274298 75 205 254
-684.7160263993261 0.08796307556282201 148.38974091632707 66 213 249
-685.4153088507761 -0.5712905549608536 147.0043007278265 75 205 254
-686.6746390310275 -2.6674119988196985 142.45878174262697 74 204 254
-687.9934929353466 -3.2548992109560864 142.25754849735327 74 204 254
-686.8861529524111 -3.153157396360072 141.42619164252366 75 204 254
-686.0948673160699 -1.9877326713943386 143.49050676310443 74 205 254
-685.5833507587267 -1.0619321650853006 145.91415611226466 74 205 254
-686.1104324051157 -2.120895679575712 143.19779082194393 75 205 254
-689.3321184702622 -2.4732077609602 145.973133781471 75 205 254
-685.5512669889791 -1.2876870503645321 145.09663780112987 75 205 254
-687.1759346749499 -3.4880136064042517 140.8906551814086 75 205 254
-687.1833678928673 -3.0103717185200676 142.09084243182576 75 205 254
-684.9609717893302 -0.2684318319134391 147.5494416813558 74 205 253
-688.5113259040834 -2.5123721361218774 144.80636569115532 74 205 254
-688.5583049783727 -1.4025795706475535 147.957560873072 74 205 254
-684.9856862417265 -0.51017300449546 146.76826073455769 75 205 254
-688.7908408237324 -1.6804672714749564 147.5130026725464 74 205 254
-688.8694139399652 -1.565411955444521 147.92806542137308 74 205 254
-689.1788582909546 -2.104330834106806 147.48504500512095 75 205 254
-689.4244897967312 -2.6488148948384787 146.29086069465365 74 205 254
-686.640061293004 -2.3706797719142294 144.09232767550952 75 204 254
-685.3035809085002 -0.3157899570767029 148.58214261733767 74 205 254
-689.0188269122261 -1.6700639569166214 148.44379565790632 74 205 254
-688.8290990371777 -2.3693758506431912 146.23544046931303 74 205 254
-688.9539651755866 -3.0606860819825012 144.58875630110975 74 204 254
-689.7770269232115 -2.202471362270572 147.97656974539268 74 205 254
-689.636108391182 -2.3275357472993736 147.4542493141578 75 205 254
-685.5708009373625 -0.7564268177268598 147.54961679969762 74 205 254
-688.5372618636153 -2.1155922527694777 146.61191111050155 74 204 254
-689.072944799173 -2.477058836002824 146.3332493356478 75 205 254
-688.1723715259144 -3.1845173086892213 143.36616320998377 75 205 254
-688.8420737584077 -1.7410422014826814 148.04145398972145 74 205 254
-688.969571256042 -2.3327582522571753 146.55209654012077 75 205 254
-688.8968508543733 -2.491527643405462 146.01875732662796 75 205 254
-688.8277132935343 -3.2023379058992436 144.0814124934591 74 204 254
-689.193907551788 -2.8199155497859145 145.51105603420038 75 205 254
-688.5916720916996 -3.4808095279788063 143.12128015864488 74 204 254
-688.3973010605469 -2.164474847394281 146.2671652736725 74 205 254
-688.581892597563 -2.005492262410531 147.02592178792145 75 205 254
-688.4731294704114 -3.6031193530136925 142.69124844233247 75 204 254
-686.8991943272221 -2.848632163037756 143.0662803734538 75 205 254
-689.065119985921 -2.930719705333761 145.06417901053425 74 205 254
-689.3771201258717 -2.5456383866972736 146.51795340206897 75 205 254
-688.6111762503965 -2.703403463539736 145.10257313848933 75 205 254
-688.7976056575619 -1.8974603826216239 147.55142751555343 74 205 254
-688.7478330357277 -2.583892835718082 145.57562728280914 75 205 254
-688.2070325412718 -3.9011220151404054 141.7057229226276 75 205 254
-688.5144329728865 -2.833279053557675 144.65258160226972 74 205 254
-686.6339730155152 -2.404547136061053 143.98782045795778 74 205 254
-689.522610367967 -2.4452140136087674 146.9833836982118 75 205 254
-689.4103972109011 -2.993229323383215 146.1167274422453 74 205 254
-688.717205229782 -2.29147197054316 147.1141224030935 75 205 254
-689.4953512973916 -2.85927926342481 146.55374321293135 74 205 254
-688.5878976309384 -2.4178039444524195 146.67673950886098 74 204 254
-688.9690118232253 -2.0402789076909933 148.08719549497565 74 205 254
-689.2716349959567 -2.3390715255660304 147.6501733612489 75 205 254
-689.1500702441036 -1.0989549759115569 150.98743200401967 75 205 254
-688.9206083056908 -2.7560479465606917 146.14261960831973 74 205 254
-689.274889677821 -3.1281777154499366 145.62351018497537 74 204 254
-689.0763784445512 -2.646965627810097 146.60542651159034 74 205 254
-688.9012974982971 -2.156401541608771 147.6719484937375 75 205 254
-688.7062340605205 -3.0333741352405035 145.2087813087061 74 204 254
-689.4464563850643 -2.2714978197693796 148.0592252582002 75 205 254
-689.5561847724096 -1.4492163658007904 150.52625669727672 75 205 254
-689.8741425554651 -1.7942342159311888 149.9666195006475 75 205 254
-690.2080657273044 -2.1389031181525375 149.4121480899569 75 205 254
-689.9373945092483 -2.359087215514215 148.45621572149486 75 205 254
-690.1112327326449 -2.2565816346898906 148.9637161231729 75 205 254
-689.0178393869509 -3.4341326038970994 144.58443102968184 74 204 254
-689.6276868280652 -2.7271149842312887 147.05492441388512 74 204 254
-689.324920333701 -1.686190951899519 149.5487574372085 75 205 254
-689.1866759379925 -2.5089743468876406 147.09598172854143 75 205 254
-689.2982058188063 -2.4407631836742727 147.4216678057786 75 205 254
-688.9107368702299 -3.54253253053556 144.2079613602541 75 204 254
-688.5497065006322 -2.0001784402627685 147.74105562179574 74 205 254
-689.1991253108682 -1.8090618623247998 149.03544712201668 75 205 254
-689.8918229276723 -2.4856366832697496 148.03188262871072 74 205 254
-689.1448056095946 -1.1392722544387865 150.87719124867746 74 205 254
-689.0899846642723 -1.9173650758651615 148.5813225792788 75 205 254
-688.7124432077686 -3.8561636603677325 143.26993093932626 75 205 254
-688.4797769835355 -2.552145080575631 146.21814818075183 75 204 254
-689.1155139042677 -2.1970138655306553 148.37500445279187 75 205 254
-690.0853345479629 -2.487243056831831 148.79316581506097 75 205 254
-689.8110851537248 -1.4511155809563618 151.3578706750276 74 205 254
-689.4704359166892 -1.7978696391659756 149.90805826372267 75 205 254
-689.2826117050411 -2.0556230719419766 148.94910512192297 75 205 254
-689.1430453892082 -2.130094268254048 148.57565832551612 74 205 254
-689.6014777410246 -2.3436105040988533 148.56323516280867 74 205 254
-689.012620943622 -2.294193531319081 147.99349743871048 75 205 254
-689.8961577568647 -2.734136019433148 147.88715512879037 74 205 254
-689.9292589151135 -2.0286552738488197 149.87155294820764 75 205 254
-689.1766574778284 -3.533699341495499 145.0464951221273 75 204 254
-690.7947513998407 -1.8399737285841393 151.57210386459207 74 205 254
-689.6537614165281 -2.995114854563102 146.91659668260266 74 204 254
-688.9573446076621 -3.031364436947424 146.0317608849694 74 204 254
-689.2913761248708 -3.421180586155117 145.44025951529312 74 205 254
-689.3412786935286 -1.9275898361720927 149.38099418373767 75 205 254
-689.3429453840133 -2.63950898141929 147.46758057315654 74 205 254
-688.8445697936274 -1.9820561164818997 148.63021317068495 74 205 254
-689.4676085171413 -2.4988725067257516 147.98202029748305 75 205 254
-689.7068535191731 -2.269807441424467 148.89888912648775 75 205 254
-690.239992988961 -2.37479367812079 149.30499265802322 75 205 254
-689.5623612071836 -1.6882578090663323 150.3446263850734 75 205 254
-689.7810937684076 -2.8631003958747776 147.40943443554124 74 205 254
-688.910737793339 -4.0035033856734366 143.66820765048308 75 205 254
-690.0141596577298 -1.9050234484120807 150.34332148774666 75 205 254
-689.573623353734 -2.420030359758009 148.32817280156345 75 205 254
-690.3476116021625 -2.248625626869771 149.80580967418666 75 205 254
-689.5528606804147 -3.133169908142481 146.44347866328587 74 204 254
-689.8028997788005 -2.2828926016419544 149.42165610854417 75 205 254
-689.3377635260749 -2.039551758441135 149.5090525615269 74 205 254
-690.0957200327066 -1.2462122544246252 152.6686775926173 74 205 254
-689.6432614973318 -1.0138182764619543 152.7324755933262 74 205 254
-690.4103893868958 -1.468290671190804 152.48585883415097 75 204 254
-689.5961921754624 -1.0729238713187996 152.50415297154072 74 205 254
-689.4853096321534 -1.2408890530027747 151.89652447584848 75 205 254
-689.8735100820181 -2.1464183702688153 149.87369185105564 75 205 254
-690.9566347707254 -1.6867573955929025 152.57852943337548 74 205 254
-689.081190111693 -2.3140462989097337 148.52503467879632 74 204 254
-690.0203314711962 -2.777174365174506 148.41291025776687 74 205 254
-690.2500705323843 -1.793517216445494 151.3446915825118 75 205 254
-690.0472428165042 -1.3762669484710948 152.2405537540336 74 205 254
-689.4000928010619 -3.462257242350624 146.04040916621437 75 204 254
-690.0292092128927 -1.2928145746333435 152.44174356907757 74 205 254
-689.697778293927 -1.687800813926886 150.892545473883 75 205 254
-689.6888644361876 -2.4536431051980294 148.84811520324416 75 205 254
-691.1215363442145 -1.7970208730043815 152.47890241208307 75 205 254
-689.3096497713648 -0.9603037517213195 152.48161706748422 75 204 254
-689.7909747439331 -1.583833146046981 151.31215902000565 74 205 254
-690.4793368956373 -1.569539241724037 152.2893677794435 74 205 254
-688.9857196290894 -3.156157605176757 146.31464199940598 75 205 254
-689.6152500363426 -1.1732236225139658 152.2444544819018 75 204 254
-689.4574087295837 -1.942649380067646 149.92109200824473 75 205 254
-690.2411824982138 -2.506583448774842 149.37833678256428 74 205 254
-689.8932665934592 -1.4452363726983144 151.83687300022572 74 205 254
-690.3392763879997 -2.369923233100348 149.8673293646497 75 205 254
-690.5942696309202 -1.4851904317608344 152.6895189179119 74 205 254
-690.946994549882 -1.804091129987544 152.2275584138353 75 205 254
-690.0920005923809 -2.639041579257716 148.84981095131963 75 205 254
-690.2228141904752 -2.735562039322293 149.2272760114057 74 204 254
-690.7820453584709 -2.0956143845319115 151.6287754932423 75 205 254
-690.1268572429144 -2.1400222199722236 150.6640217649467 75 205 254
-690.2957715193852 -1.2546062355216172 153.3166526402618 75 204 254
-689.2902836692645 -3.039068479988778 147.42098210480776 75 204 254
-689.8199753583868 -1.1150365876301755 153.08040477680728 74 205 254
-690.6943869268466 -1.4443800214132363 153.28923085214805 75 205 254
-689.35074386396 -3.175546759770107 147.1749720859681 75 205 254
-691.210471728463 -1.6379756139029489 153.47445024105008 75 204 254
-690.7137828653514 -2.2316315746227247 151.16763450839218 75 205 254
-689.4335350090114 -2.9141964474791653 147.8798313201732 75 204 254
-690.4287205375854 -1.2324967578243218 153.55813828709603 74 205 254
-690.0063771094453 -2.2382616627306238 150.25739663392838 75 205 254
-689.9077666774036 -1.002405328229667 153.51422701528176 74 205 254
-690.6257729994072 -1.645241398850354 152.65197063257528 75 205 254
-690.35393204664 -2.609218406197197 149.70667109076206 74 205 254
-689.7778803164285 -1.0225593404015605 153.26370072514788 74 205 254
-689.9969605257647 -1.5361178215930789 152.16362288621792 75 205 254
-689.6839480596359 -2.646389727248925 148.83311374657032 74 205 254
-690.7154394369934 -1.5410025818446762 153.0582018090364 74 205 254
-689.5515079875127 -3.5886917823172357 146.42604140436129 75 204 254
-689.530211742833 -2.7781992523491006 148.3272294943988 74 204 254
-686.0701409974116 -1.159565804960451 153.00944291808628 74 209 250
-690.290281615711 -1.324987539706866 153.1237281330511 74 205 254
-690.7092912623734 -1.4024069627178033 153.43539253537813 74 205 254
-691.3086346369014 -1.721824684831608 153.3839493613019 74 205 254
-690.1212878452986 -1.4047786494496268 152.678883109641 75 205 254
-690.453358277822 -1.7365858204712925 152.17984403429563 75 205 254
-689.472492421133 -2.1917015007809333 149.7071835906259 74 205 254
-690.6139617608562 -2.6324458886848596 149.97244577492518 75 205 254
-689.6803183187595 -1.1715513783476865 152.70154816382617 75 205 254
-689.6007364790642 -3.4227865845678895 146.861041002482 75 204 254
-689.8593366202817 -2.3744145619651995 149.7292611291361 75 205 254
-690.912087935589 -1.9877877098558052 152.0998140454452 75 205 254
-689.3190672429575 -2.276548930410776 149.33363887050257 74 205 254
-691.0310149375624 -1.8650184318874707 152.59619670592033 75 205 254
-690.268515410916 -2.41479081399342 150.69012894302702 74 205 254
-690.3770155749121 -2.2155585288787467 151.33402448123732 75 205 254
-689.6862713033508 -2.236592807228659 150.44473760618212 74 205 254
-689.6753719855769 -3.0311573521023227 148.48982535799956 75 204 254
-690.8374352900803 -1.7250996404226715 153.2259846722309 75 205 254
-690.1085120341583 -1.1822570339679288 153.744509022877 74 205 254
-690.476981999701 -2.0777740726955862 151.8106445185278 75 205 254
-691.4994644350779 -1.7636624887366992 154.02261437347914 74 205 254
-691.0984243166511 -1.379023793830747 154.57353624174257 75 204 254
-690.503078666198 -1.2916061365551226 153.98973292082414 75 205 254
-690.7739645740098 -1.2242690002114323 154.5549278384371 74 205 254
-691.1858829330017 -2.100764447823387 152.67619708068227 75 205 254
-690.6588728333711 -2.603948939387031 150.6911462586528 75 205 254
-690.7022699951526 -1.8286387350839544 152.7549189488286 75 205 254
-690.4263952335552 -1.510930090562617 153.26740443319065 75 205 254
-689.76963338948 -2.8745776614809735 148.9593675570628 75 204 254
-690.6374504198141 -1.2625203397209113 154.26245892849522 75 205 254
-691.0246465125849 -2.194717276665317 152.20448376273183 75 205 254
-690.060523237172 -1.0915056794187095 153.92668858565557 74 205 254
-691.0397703008565 -1.5427438082144036 154.02204713125408 74 205 254
-691.4465361999511 -1.642408303751301 154.2659442579787 74 205 254
-690.1499176191182 -1.0200413584738062 154.29298362766812 75 205 254
-689.9600200696998 -3.571618772242603 147.55122877888124 74 204 254
-690.5883222256298 -2.696390276832634 150.36521954627293 74 204 254
-689.931178132452 -1.9890323685193856 151.37017227002934 75 205 254
-690.2479801292895 -0.9540428804297143 154.65585654991355 74 205 254
-691.0414792582148 -1.4652627947771286 154.24342555957006 75 205 254
-691.6264243621953 -1.6555517544405802 154.49476753120499 74 205 254
-690.9337822928879 -1.6049374677707426 153.70227354042495 75 205 254
-690.6327149091494 -1.96735580634137 152.29773728239644 75 205 254
-689.8970971053235 -2.2356858618173163 150.6914015998268 75 205 254
-690.4972785551457 -1.3907255283228857 153.70534138506463 75 205 254
-690.6364774118924 -2.04804572479253 152.72452006159025 75 205 254
-691.6655885459558 -1.700289561654884 155.01830386576978 74 205 254
-690.7611404353529 -2.656864714992019 151.27642822497825 74 205 254
-690.218969292556 -1.0409662131830224 154.816603359759 75 204 254
-691.2152805428105 -1.4874554906414446 155.02971908807203 74 205 254
-690.0278539328577 -3.4905134654792773 148.45215701754273 75 204 254
-690.0992358651513 -0.8455686952119148 155.2497378156819 74 205 254
-691.2464723841529 -2.1661385732493814 153.17116274740374 75 205 254
-689.8917446133607 -2.102448514320681 151.69263034526278 75 204 254
-691.0769414696243 -2.27845846853031 152.6552354985557 75 205 254
-691.6974082007631 -1.6360494244201718 155.24101751464954 75 204 254
-690.3333505767349 -1.6907166035223504 153.2633808591427 75 205 254
-691.3354310838456 -2.0457998801973343 153.62172490987479 75 205 254
-690.9852806266358 -1.7004411550274732 154.14247843809224 75 205 254
-690.6099212065777 -1.3114729555244562 154.70764648291492 74 205 254
-690.885370109828 -1.8099866396676365 153.70137115973762 75 205 254
-690.7851084400352 -1.9408460004272694 153.20351741699275 75 205 254
-690.1078121549695 -1.9404603575276997 152.3000815156729 75 205 254
-690.7829762313643 -1.206028292839708 155.22792804755503 74 205 254
-691.7471173279841 -1.5921487862938442 155.42793238255211 74 205 254
-690.544367106666 -1.457701860322441 154.21318159327933 75 205 254
-690.3059363772967 -0.9594736943902316 155.21031024714813 75 205 254
-691.3562191801182 -1.4039349612406742 155.4496824595834 75 204 254
-691.5742788472411 -1.798697443161224 154.6230283671883 75 205 254
-689.7438716099563 -3.069600636791157 149.10147328650638 75 205 254
-690.8836461451846 -2.572046708263527 151.64436952035652 75 205 254
-691.2427593143408 -1.412501558075192 155.29068935340868 74 205 254
-690.8908037104717 -1.3126402561401669 155.11024117127653 75 205 254
-690.4234365621952 -0.8910813783326503 155.60861664944622 74 205 254
-690.8843954998052 -1.150237462099728 155.53304799872913 74 205 254
-689.6432577885076 -3.141227870535368 148.89839321622867 74 204 253
-689.9615820205457 -2.831883157500699 149.9128261388965 75 204 254
-690.559899051501 -2.180483061931188 152.27244937209883 74 205 254
-690.2021572323844 -2.581216397796563 150.8235397808533 74 205 254
-690.2413634940268 -1.8082288240716835 152.82293046717498 75 205 254
-690.9851582954473 -2.4086598934644563 152.19855889153934 75 205 254
-690.4583993773105 -2.3799823773339064 151.6277057897871 74 205 254
-689.8215703408762 -2.969111975998496 149.41827378419654 75 204 254
-690.7542140353072 -1.424104251971034 154.85640179351745 75 205 254
-690.1526752667032 -2.8314393614409523 150.4911453048317 74 204 254
-690.3142700605864 -1.9052232852800532 152.92807395208888 74 205 254
-690.2940744850167 -3.6919141756595693 148.66288391817866 75 205 254
-690.8510193058019 -2.781145020007913 151.41812427764435 75 205 254
-691.6596487200017 -1.8927193930686297 154.74540977209904 75 205 254
-690.4232752855752 -1.0567637046504217 155.37473922654982 75 205 254
-690.7171058498154 -2.9203460000353667 150.92772229929534 74 204 254
-690.4898227958786 -2.110533491430715 152.67087493208703 75 205 254
-690.8378655404741 -2.268195979301357 152.71806942522122 75 205 254
-690.4308077996584 -3.238786055513251 149.85363836549075 74 205 254
-690.6761861380896 -1.5661563144066548 154.36655190863223 75 205 254
-690.8659851179615 -2.0235954670835596 153.39042840574618 75 205 254
-690.4125365857183 -1.767846509390747 153.43256024136716 75 205 254
-691.4320912903617 -2.1292466153110876 153.79521681202212 75 205 254
-690.8867316312453 -1.077958288069853 155.9498099682225 75 205 254
-691.4641931913415 -1.4478484981887725 155.71605984787027 75 205 254
-690.3485596403624 -3.336560709382103 149.53075496213046 75 205 254
-690.6321527808643 -0.8935687549047984 156.21281745084048 74 205 254
-690.4138166817406 -0.8545878892930112 155.94306208436856 75 204 254
-690.512527437985 -1.6511428049645964 153.899171101305 75 205 254
-690.6780112777728 -0.9594243469055712 156.1225564778312 75 205 254
-690.6585523273003 -2.291339791779829 152.4323440461476 74 205 254
-691.3289578799862 -2.2647464783794016 153.31037624415205 75 205 254
-690.9467964240713 -2.6511780513335923 151.84690009761798 74 205 254
-691.2036476703796 -1.6552117851744246 154.80982560969304 75 205 254
-691.0878369276193 -2.514603756581402 152.3603617887827 74 204 254
-691.3345261861633 -1.5443140758807328 155.28222912821377 74 205 254
-691.5587684394645 -2.0074611372011484 154.29281735182198 75 205 254
-690.0994904161588 -2.9680792902902855 150.11370043778865 74 204 254
-690.7627579743464 -2.1507361543964736 152.93294358008157 74 205 254
-690.8840069047676 -1.3222297147621873 155.3212203229073 75 205 254
-690.3531699933372 -1.992145509662647 153.40446672078372 75 205 254
-690.802960932542 -0.8064328586657208 157.1780347614091 74 205 254
-691.9115415790018 -1.6928681429283072 156.17613203101533 75 205 254
-690.9192286061514 -1.3250156035121243 155.87448043058922 75 205 254
-690.905160077314 -2.1051018312762144 153.78193712708864 75 205 254
-690.8628111975578 -1.385399025181341 155.63741254854236 75 204 254
-691.8240711313689 -1.850411396498246 155.63052866136195 75 205 254
-690.8214485768817 -1.4774747092689768 155.3218247714368 75 205 254
-690.6920316682309 -1.598494646910563 154.83958885353982 75 205 254
-691.2416958611063 -2.4478688656326124 153.2905370217433 75 205 254
-690.4639701619438 -2.3338590907600594 152.63878756520543 75 205 254
-690.5506704590499 -1.7328252231574197 154.3214560152894 75 205 254
-690.4873714250779 -1.8674683982890805 153.88467190402005 75 205 254
-691.5677429735532 -2.0648794757250473 154.69546631280645 75 205 254
-691.0753864678757 -1.2483033377916328 156.2796322260986 75 205 254
-691.5072828726896 -2.2036669545512755 154.2508330679828 75 205 254
-691.7101870225355 -1.9502372452299328 155.19716344957803 75 205 254
-691.373473509783 -1.6262590076675218 155.6389847961083 75 205 254
-691.3026273386922 -1.0388241772518398 157.1517774805506 74 205 254
-690.523079804845 -3.2813267880444377 150.44418935668415 75 204 254
-691.3453430712076 -2.3181964782643636 153.7553726851696 75 205 254
-690.5774446978598 -2.491111560708613 152.40751516043093 74 205 254
-691.1419783943796 -2.5657580171848835 152.87382720630566 75 205 254
-690.431558286485 -2.6225902984119838 151.9147885096073 74 204 254
-691.172346340357 -1.1134969405396475 156.77565134390287 74 205 254
-690.8358278960708 -1.7174638355063374 155.09905105616025 75 205 254
-691.6257527381987 -2.3212059402822742 154.5150706992903 75 205 254
-691.307793413556 -1.226006919056136 156.9877203037589 75 205 254
-691.8504321590133 -1.347813287900217 157.44106115538153 75 205 254
-691.0180394884724 -1.5540176687281644 155.72844628112773 74 205 254
-690.9760639256652 -0.7395011214798064 157.92601401738432 74 205 254
-690.6025912606176 -1.986052721543432 154.14259362649454 75 205 254
-690.3433590728883 -2.3884638154499145 152.8425200178927 75 205 254
-691.2918182497048 -1.9503440585628402 155.0494259757408 75 205 254
-692.1924014210782 -1.699883457168653 156.90345818914182 75 205 254
-690.9591406927065 -0.8395566595186885 157.60745813305127 75 205 254
-691.7107220428103 -2.1760852815247516 154.99346633056481 75 205 254
-692.0193597768701 -2.0413498220147064 155.76405603329928 75 205 254
-690.4348394708541 -2.898825571044659 151.70287883757354 75 204 254
-691.435243925591 -1.8584737616897185 155.4758365145337 74 205 254
-691.5370283442628 -1.7084538629326698 156.0094401683559 75 205 254
-691.4762093131255 -2.4461955761401155 154.0141933339186 74 205 254
-690.6730569579036 -3.6928858697854885 150.13416015874452 75 205 254
-691.3794532062428 -2.568418805127859 153.57711641987459 74 204 254
-691.2236852944084 -1.345669487957517 156.54130242042447 75 205 254
-691.415279977092 -1.1036371773948161 157.48235294954236 74 205 254
-690.7669150633711 -3.264340037889059 151.20258917243802 75 205 254
-690.9822214444615 -1.6519395241988688 155.43691713347667 74 205 254
-691.0703313491429 -1.45636010510637 156.05202760656724 75 205 254
-690.8007613078202 -2.470658807020736 153.14243532665685 74 205 254
-691.8796789503108 -2.0736468959204277 155.477397015832 75 205 254
-691.1772530627326 -2.091708146660017 154.54655290393592 75 205 254
-690.6651599381045 -3.5659422892038215 150.40571555894076 75 205 254
-691.5170502960045 -1.0394372467790092 157.81803833345288 74 205 254
-690.7111096324325 -2.652110605926797 152.59467833273848 75 205 254
-691.058973648957 -3.2712771559024993 152.1405908609704 75 204 254
-692.2344094695837 -1.9771832159946063 156.87332035162902 75 205 254
-690.742271402863 -2.8874638065316125 152.6783823386495 75 204 254
-691.108273532561 -1.021085236364648 157.93123300386299 75 205 254
-691.3224228961999 -2.130570084703992 155.24981750988186 75 205 254
-691.2491489770836 -0.8487215746239567 158.614766527576 74 205 254
-691.3213118851928 -2.2231608193235015 155.0129296452691 75 205 254
-691.5990998541786 -1.2519892149423697 157.98160943955403 74 205 254
-691.0248014655339 -1.8810426170472612 155.51400585639973 75 205 254
-690.7334244360565 -2.980585969458523 152.4561985797368 74 205 254
-691.4345602738913 -2.0858097836750273 155.5091760989271 75 205 254
-691.4522187478947 -1.35304200901487 157.49244414239595 74 205 254
-691.8774351496033 -2.4036150520217667 155.24357926841674 75 204 254
-691.8956412003206 -2.3071496415987136 155.5147463366613 75 205 254
-691.6697236744864 -2.586392755403705 154.5218555011003 75 205 254
-692.6849081602294 -1.552519055998454 158.6662042332527 74 205 254
-691.7014900298873 -1.1691854252388998 158.37072598993842 75 205 254
-691.0109429453154 -1.122845421878539 157.5093770592017 75 205 254
-691.5871888861949 -2.252579824633111 155.274151992661 75 205 254
-691.7674497056503 -2.4483140543365227 154.99259009069266 75 205 254
-691.1049671066908 -1.7265345676212922 156.01447216861288 75 205 254
-692.039715323484 -2.2177772674746823 155.93963845418182 75 205 254
-691.2452040000547 -1.6054827644042913 156.51651130833065 75 205 254
-692.0950462332689 -2.0613493960174196 156.43802005189798 75 205 254
-692.5038047300526 -1.4225467002243501 158.7556731880109 75 205 254
-691.7616812572212 -1.7295952252246822 156.9022847779927 75 205 254
-691.8905058388618 -1.6063454969162398 157.4096164904909 75 205 254
-690.847995770793 -2.754488218811539 153.12424526659842 75 204 254
-690.8936021246471 -2.0093972820463275 155.01695880951604 75 205 254
-691.7252221764973 -1.064550075266335 158.79813981038217 75 205 254
-691.2018582040203 -0.9244721328105161 158.33019955704637 74 205 254
-690.4939623374552 -2.8624754931855376 152.4456035180497 75 205 254
-691.4417578229226 -2.2148745498842644 155.68881893663422 74 205 254
-691.1583617506002 -2.3837953122870914 154.92182830572966 75 205 254
-692.4092086863484 -1.7332382247646958 158.2324159212084 75 205 254
-691.0136003225886 -3.308165003784782 152.54822635187128 75 205 254
-692.3438408951405 -1.4193105590830033 159.01111575494775 75 205 254
-692.30207551529 -1.1976826443216861 159.55852645221933 74 205 254
-691.2898357753477 -1.4846533567464508 157.37159575042566 75 205 254
-691.9852392976568 -1.532321666169861 158.21777907328595 75 205 254
-691.7377283444538 -2.4934492608738568 155.3508447578818 74 205 254
-693.1006143871036 -1.6898278503895394 159.30643615891415 74 205 254
-691.3867630876723 -0.706998369528562 159.66749609658763 74 205 254
-691.0395431485581 -3.5347277605419603 152.07016228358785 74 205 254
-691.8220697344958 -2.396877215721318 155.69856957074302 74 205 254
-692.1727001482834 -1.2484340249138794 159.2327101024705 75 205 254
-692.532825593627 -1.616079495008214 158.7136174152196 75 205 254
-691.6438437311416 -1.1705448000668515 158.7355299191699 74 205 254
-692.6361498862442 -1.4651330774451372 159.2782349284359 74 205 254
-691.6343645543271 -1.0794080913529314 158.95999794358087 75 204 254
-691.8330558765961 -0.9374080311646686 159.66315256253597 74 205 254
-693.1001783423969 -1.6364551237919152 159.47093988387607 74 205 254
-692.661137386063 -1.5686118811545686 159.02862671611587 74 205 254
-691.8829535179062 -1.6412575429859748 157.77039283020972 75 205 254
-691.5191616990046 -1.2523113819766882 158.31565653335707 75 205 254
-691.7437746188831 -1.04062475101213 159.24595753965548 75 205 254
-692.776963122772 -1.4446745346820196 159.5298805581179 74 205 254
-691.7509291157329 -1.4175960127202742 158.58995750793298 75 205 254
-691.8498135994355 -2.0021248228504174 157.17212537817113 75 205 254
-692.1180137846341 -0.9989423148013215 160.2586802011979 75 205 254
-692.1136183817059 -0.953599331681545 160.39343931295096 74 205 254
-691.1699686901 -2.7969354151229355 154.3939512372373 74 204 254
-692.1568953097855 -2.3534360487544443 156.6547939624219 75 205 254
-692.0690844077482 -1.0537660655535754 160.04459546067403 75 205 254
-692.5064210974531 -1.998976593368205 158.03354058116133 75 205 254
-692.3812900882104 -1.3825339361855526 159.54175225622916 75 205 254
-691.6852308879802 -0.7160224051653472 160.42102509554402 74 205 254
-689.8496994815571 -2.3847011328071694 154.16553233103932 75 204 254
-692.7534993919244 -1.3011484588836355 160.25970886833588 75 205 254
-689.6132809123665 -1.9151703139592797 155.070451789476 74 205 254
-691.8471656472053 -1.2822700316179327 159.09300739220768 75 205 254
-691.4822851781216 -2.4106725892857117 155.6999767423859 75 205 254
-692.5119491554666 -1.278846729951395 160.0030710662373 75 205 254
-692.3051693623689 -2.317282320518938 156.94142690885263 74 205 254
-692.3946223423349 -2.1211389410729256 157.56274227899925 75 205 254
-692.9426276191184 -1.509214504464114 159.95451889210042 75 205 254
-692.1637119815455 -1.6363356568468905 158.550044091179 75 205 254
-691.4530756242992 -3.200211559904658 153.77173319614573 75 204 254
-691.0776540053486 -2.856610947548768 154.16313641901849 75 205 254
-692.8710121149526 -1.6429732344816905 159.48922313042516 75 205 254
-692.645841788513 -1.887471098456781 158.52245251556158 75 205 254
-692.5735647307717 -1.1647802692495377 160.40381353651247 74 205 254
-693.1344010181914 -1.472203596676236 160.33126574183078 75 204 254
-692.2986434656003 -1.522781817295626 159.04207515916656 75 205 254
-692.868753751025 -1.3012249471112467 160.41173186582836 75 205 254
-691.2804711157239 -1.9140753889192768 156.72281689621093 75 205 254
-691.731634553767 -2.140301803687813 156.6691862493917 75 205 254
-692.0595433050735 -2.5059421812744214 156.1506953191419 74 205 254
-688.9800336343812 -0.6198315401092778 157.67584621390853 75 205 254
-691.4090083726393 -1.768817498194398 157.2382445423996 75 205 254
-691.6160025550066 -0.7611903667331976 160.19681811160908 74 205 254
-691.3605549635247 -3.349983880912684 153.3193933611236 75 204 254
-691.9635621230781 -1.1699628208614596 159.55883348260878 75 205 254
-691.143307849545 -2.0511919426995604 156.23145272203243 75 205 254
-691.9322284524982 -1.8741711229057945 157.61648729872158 75 205 254
-691.2511458684507 -2.684935951443923 154.76505871308197 75 204 254
-691.6623322755495 -0.9498262147132079 160.4299692058756 75 205 254
-691.1807681266657 -2.8735669535032873 154.7942244819834 75 205 254
-692.0848864058721 -1.8733060080938264 158.37477594023568 75 205 254
-691.8383156471147 -2.158644183197805 157.33054432851225 75 205 254
-691.7312573255978 -0.8815455681278968 160.7493511921111 75 205 254
-691.9826298063156 -1.3100644415271807 159.85143265574632 75 205 254
-692.315858420886 -2.384580585922711 157.31843310949586 75 205 254
-691.4860362367587 -1.9933398123491584 157.35585815985743 74 205 254
-691.1186742959884 -2.9518513811107097 154.58700628506065 75 204 254
-691.5417087588258 -1.7816532518815258 157.9835423909901 75 205 254
-691.5584009551318 -0.803027772386181 160.64270116672643 75 205 254
-692.420778289048 -1.4959381821994144 159.85782882101574 75 205 254
-691.0618625752284 -2.3336395701706616 156.08799822081875 75 204 254
-692.4205409473356 -2.217700499903037 157.89386843668143 75 205 254
-691.2749624067055 -2.034995021225945 157.00950399794905 74 205 254
-693.535877352689 -1.6537720206347295 161.01578560851195 74 205 254
-691.8536357423274 -0.7718362962192735 161.24407588823436 74 205 254
-693.2174493737881 -1.4390453665547467 161.1355959393072 74 205 254
-691.2507313245653 -2.7993789124091046 155.0531127276723 75 204 254
-691.758866089666 -0.8305568199110862 160.9175535494225 74 205 254
-692.6703371870115 -1.9804737851021095 158.84757571725424 74 205 254
-691.6374359269435 -1.655372465655156 158.44454282126114 75 205 254
-692.2886484690791 -0.9757941016963692 161.1949468512468 74 205 254
-692.2089654176302 -1.1216923166518162 160.6623459833431 75 204 254
-692.6859016357749 -1.3437798924013258 160.66245362112736 74 205 254
-692.2040327882734 -2.466266279333169 156.96819096155406 75 205 254
-692.5677675950668 -2.1011464354133755 158.38220676721613 75 205 254
-691.9651799832308 -1.9953884292081412 157.91238707294352 75 205 254
-692.6611289418862 -1.2372345125016366 160.92114710290264 74 205 254
-692.8700224756565 -1.9288198458784995 159.68086757544924 75 205 254
-692.2166342988154 -1.2217306930560907 160.7768565355764 75 205 254
-692.3152076061049 -1.8265721140178393 159.24173690075742 75 205 254
-692.0732406716833 -1.3411309430587846 160.2491757780344 75 205 254
-692.290726495279 -1.0867846217117387 161.24824994992525 75 205 254
-692.5729140221255 -0.9773093025506778 162.0021473367283 75 204 254
-691.4864422987927 -2.7136517438764693 156.0161978819563 74 204 254
-691.7393242607171 -1.7049080431932033 158.82400127327946 75 205 254
-691.8018330432503 -3.119469669034708 155.39617570572764 75 204 254
-691.8756756555914 -1.587135772849435 159.31943658773153 75 205 254
-691.9063648058632 -1.8755919310489997 158.63811517922684 75 205 254
-692.5377469925995 -1.5825750831179244 160.21847495593315 75 205 254
-692.5978717086215 -1.4429907446127572 160.69653576197496 75 205 254
-692.0720254681846 -2.055597512887216 158.3356957387698 74 204 254
-692.6678398580727 -2.1568472813122597 158.81052922362164 75 205 254
-691.9216379114533 -0.7555879964547572 161.70574746199574 75 205 254
-692.3978944490719 -2.4305109910170293 157.77058224653848 75 205 254
-691.9809944163832 -0.6567299390809556 162.08006403301002 74 205 254
-692.630060639693 -2.2273765226657485 158.57973757079242 74 205 254
-691.4497205032567 -2.793165646474999 155.78895188476824 75 205 254
-692.5031657343218 -2.3103346662925164 158.20605914472665 74 205 254
-692.430415880078 -1.0072576109371614 161.68722108779727 75 205 254
-691.9733527566402 -1.4688600380775902 159.76513508927252 75 205 254
-692.7373665469507 -2.0324409749431736 159.23072510344534 75 205 254
-692.0269062436953 -0.7195524827741844 161.94682395775243 75 205 254
-693.7417686344688 -1.7592321549702836 161.87872789536954 75 205 254
-692.220382302472 -2.0175646121901005 159.12638283334883 75 205 254
-691.9298036968954 -3.0425910744403675 156.23752227224838 75 204 254
-692.5311403946265 -2.3723220189037084 158.60857512927186 74 205 254
-693.531318564128 -1.9855892878791597 160.93995968450898 75 205 254
-692.7805001728775 -1.4028598652122861 161.5287556441308 75 205 254
-692.182762881994 -1.2630351597571998 161.10063006396626 75 205 254
-691.9852579514502 -1.5257277542846888 160.11621878862593 75 205 254
-692.3975301111893 -1.0543653444720933 162.03501197285908 75 205 254
-692.1701365872217 -1.893739063150063 159.3606555046274 75 205 254
-692.6503418957301 -2.25766919323386 159.05832596063883 74 205 254
-692.1096163753144 -2.1506764111334125 158.64436437977082 75 205 254
-692.8914778575439 -2.0071212277560893 160.03374790095435 75 205 254
-692.4143370369078 -2.5039146749553813 158.12835591449726 74 204 254
-693.0038231109796 -1.8757418798120833 160.5410802250781 75 205 254
-692.9173182813735 -1.01352660186196 162.85089496352316 75 204 254
-692.8460492517979 -1.2785854799757104 161.98106765898584 75 205 254
-692.2998113088966 -1.869986319690982 159.61342157170006 75 205 254
-692.0185574788384 -2.956388307517493 156.546918376963 74 205 254
-692.3288011801169 -1.180012113857691 161.56438904589984 75 205 254
-692.3712156003048 -1.994343483919783 159.3897740283294 75 205 254
-692.5744294628465 -0.9698021990908279 162.51485907603836 75 205 254
-693.866382850345 -1.6326981053553018 162.4069586549946 75 205 254
-693.0491581563032 -1.7497470563837254 160.96098101791844 75 205 254
-692.2887734419542 -0.7468909956739402 162.8266212112103 75 204 254
-691.8280779725358 -1.7408989911834079 159.3485570426187 74 205 254
-692.1100656807723 -1.3918906516097014 160.6425797786518 75 205 254
-693.9103844127667 -1.5494195675307028 162.7383841335322 74 205 254
-692.4061391809115 -1.7555399923543948 160.05340134662836 75 205 254
-691.9677190777034 -1.9038152381552367 159.65928067986923 74 204 254
-691.8728524225605 -1.604095850343131 160.3236279437922 74 205 254
-692.9457074193658 -0.9162719303989793 163.64416607970523 75 204 254
-692.971778419563 -2.230022932345456 160.0447356896144 74 205 254
-693.3256674077545 -1.867171267383343 161.47299990346846 75 205 254
-692.6441940109277 -2.6366213623026544 158.603017060674 75 204 254
-693.1811826983954 -1.2783399518892349 162.95216873502127 75 205 254
-692.3026286013039 -1.5098150248233289 161.1261355744136 75 205 254
-692.7309492955144 -2.4889378958442387 159.07951172840228 74 204 254
-692.300880908638 -0.8035164211979726 163.07302061795806 75 205 254
-692.763323206686 -2.030335974870378 160.3433024303599 75 205 254
-693.4553132286703 -1.7507005305239014 161.97172334536705 75 205 254
-692.5426949622928 -2.02369619216409 160.05026253655805 75 205 254
-692.1977283352862 -1.6751577684543486 160.5671649133215 74 205 254
-692.8597783786407 -2.3710200263704193 159.540712019151 74 204 254
-692.191741663524 -0.9314259822238693 162.56917232792148 75 205 254
-692.586210934756 -1.2773351048698949 162.09704314678004 75 205 254
-692.059809171577 -1.793162811354403 160.06802691667914 75 205 254
-692.4856278674376 -1.903994059063403 160.28381923241346 74 205 254
-693.2049883821255 -1.9833307954055162 161.00086826289092 75 205 254
-692.4009529512726 -0.5605720339574445 163.9010189948116 75 204 254
-692.2715488316726 -3.042962009118627 157.18841682350404 75 204 254
-692.8730727078135 -0.9724255271258695 163.37646669112638 74 205 254
-692.747460171198 -1.7545805838456445 161.0263140424822 75 205 254
-693.0897703064192 -1.397601999371723 162.4759090035337 75 205 254
-693.287404655896 -1.1721331724150499 163.4036938787745 75 205 254
-692.4215782720144 -1.408862964399285 161.5394825214472 75 205 254
-692.1146367148685 -1.7261135407386643 160.31392637753947 74 205 254
-692.6304921345903 -1.139167869630227 162.54918703895302 75 205 254
-692.3678171498237 -0.7417364123561221 163.34631527139672 75 204 254
-692.6381141259493 -1.8814056524217708 160.54799452496826 74 205 254
-692.3821136041415 -2.9711867505570453 157.48211033051302 75 205 254
-692.4027369396401 -2.140141281197785 159.57904956130437 74 204 254
-692.392629317321 -1.3795411296299367 162.02499830218633 75 205 254
-694.1623783839783 -1.6040962641762313 163.80051139161043 75 205 254
-693.1988935301694 -1.3194350492977733 163.28018547564747 74 205 254
-691.7795465392494 -2.7825917691257347 157.8929380675723 75 204 254
-693.7516969958301 -1.5744568725970982 163.21653866099138 75 205 254
-693.390010369166 -1.6919116652949802 162.45155890695293 75 205 254
-693.3606460878822 -2.5119323368628423 160.2816242564241 74 205 254
-693.1417444101211 -1.9550775702679406 161.44490735551844 75 205 254
-693.0275802990142 -2.090416444044177 160.96000051436175 75 205 254
-693.7246294795659 -2.0816330105547696 161.8596508926215 75 205 254
-693.491772141831 -2.320056676903304 160.92902286299676 75 205 254
-692.647609761669 -1.1622176922084302 162.94077047801707 75 205 254
-692.7423492294927 -1.7556127500522969 161.48477069788788 75 205 254
-692.939741607948 -2.2205433157786896 160.52147661328783 74 205 254
-694.2578859458989 -1.4846597192450632 164.26452340537844 75 205 254
-692.3513553679122 -2.038399111564008 160.2720828784616 75 204 254
-692.8494836795244 -1.6256712321534126 161.96008355415668 75 205 254
-692.5906348024134 -1.8682837811807218 161.00958385861094 75 205 254
-693.5102105477168 -1.5733790840884012 162.92035332308612 75 205 254
-693.4088343061977 -2.454460766601091 160.48174383370642 75 205 254
-694.3291903228279 -1.408054602562392 164.5832271087541 74 205 254
-693.2756085351797 -1.8348152440174577 161.92322799402334 74 205 254
-692.9312994189188 -0.7858382320786417 164.44619972545357 74 205 254
-693.7208028513917 -1.362521238486318 163.80287235657505 75 205 254
-692.5171034332401 -0.997820835164732 163.1502145700598 75 204 254
-692.9543491437557 -0.6885464645242907 164.74052517668724 74 205 254
-692.336934141458 -0.9025189154283781 163.21039015105285 75 204 254
-692.6044638540609 -0.4869266909730463 164.77084803208828 74 205 254
-693.0207184833115 -2.358847775884662 160.27121785538236 75 205 254
-692.7639454213843 -1.11492194613536 163.27231514023862 75 205 254
-692.2483474227389 -1.4952901362382223 161.55569074078286 75 205 254
-692.7190526065431 -0.9976998344289445 163.50249296975136 75 205 254
-692.5237926952819 -1.2626308791624732 162.502276052097 75 205 254
-692.3870526906625 -2.156635232600183 160.03807990087859 74 205 254
-693.820211883905 -1.9497617723255818 162.34135754726907 75 205 254
-692.268135869947 -2.283831215946339 159.5797932628333 74 204 254
-693.9569024156104 -1.8499087321174414 162.81491264133592 75 205 254
