-652.444625607014 2.924992612171991 64.78418146481107 74 205 254
-650.4684042261017 2.7811932395924135 63.28821338929504 74 204 254
-649.5966145837733 2.8173926774601625 65.05333502258833 75 204 254
-648.3602472702821 2.459715602032065 61.831712463071646 74 205 254
-648.9184902757769 2.6254973879480605 62.779479221000805 75 204 254
-650.6396046208168 2.8768590152052607 64.14901029452678 74 205 254
-648.8279063450516 2.6352968085743926 63.74837481562933 75 205 254
-650.658214980424 2.088733980259329 58.74743015348215 74 205 254
-649.8601041752935 2.504526250227311 61.83526323910158 75 205 254
-650.4342360686024 2.7372250684096393 62.92050001449246 74 204 254
-649.7266311444926 2.5451873598680113 61.46202826458494 75 204 254
-648.7395687156023 2.5892027447923347 63.31971272727389 75 205 254
-648.2742068861102 2.362559982291465 61.4804327478971 74 205 254
-650.2046041296053 2.2752375774158473 59.19731973621548 75 205 254
-649.6908835677593 2.946123603019612 65.57314788829424 74 204 254
-650.5216348053843 2.3484687004855704 59.57860238376999 75 205 254
-650.8975274681031 2.9063868986367094 64.89765395659747 74 205 254
-649.7947108424094 2.7661538339033607 64.03413895249152 75 204 254
-648.516835946413 2.392755406070518 60.44008591898209 74 205 254
-648.511842893527 2.516993481463464 62.313496993083064 75 205 254
-648.590893457263 2.4392148030763705 61.746303202039584 74 205 254
-649.9597482956444 2.8114211236762534 64.47052054088456 75 204 254
-648.4861199088592 2.5330325859703784 61.321581006283026 74 204 254
-650.0780350836255 2.8727711194683234 65.01356657271421 75 204 254
-650.2147591083357 2.069093847897955 58.97238418771543 75 204 254
-648.67285864476 2.554173490341208 63.42089438723832 75 205 254
-649.5793044616029 2.5311074432872402 61.05115569993714 75 204 254
-650.0107077704064 2.719687216425574 62.9123409109924 75 205 254
-650.6159586057064 2.8222587042942777 63.78343389893373 74 204 254
-649.9461888481196 2.4642089422747357 60.44469994410951 74 204 254
-649.2102570326177 2.537541982862531 61.589674448714234 74 204 254
-650.4696243370909 2.925302170307826 64.84198564605369 75 204 254
-649.5587381221441 2.4024186589255763 60.13747581215796 75 205 254
-649.9689105779261 2.4942858645266828 61.625161651749565 75 205 254
-648.4914357722942 2.33900555380265 61.20249546531403 74 204 254
-650.147507387984 2.430116881069691 59.798921753915444 74 205 254
-650.0728162365232 2.5397383008127097 60.9033020111211 75 205 254
-651.2920865004643 1.9413053641563511 58.14004612586563 75 205 254
-650.1483270436734 2.6257859006810165 61.74832348507364 75 204 254
-649.7083935444133 2.744637224589935 62.370262018891154 74 204 254
-650.1656309400622 2.3871569557291723 59.35620150013285 75 205 254
-648.0847086251622 2.162791081159023 59.356937344833085 74 205 254
-649.197697875829 2.273881696924872 59.53434616117976 75 204 254
-650.8106276791976 2.1052086046382614 58.565455523990366 75 204 254
-649.6146644088094 2.402816354968998 59.529991469700335 74 205 254
-649.4480506297293 2.7668680000852977 64.6348976972109 74 205 254
-649.0775557410465 2.7626679606402105 64.80285702852015 75 205 254
-649.0238132967147 2.520170690505542 60.71321229722888 74 205 254
-647.8980220801296 2.1214813553249003 59.05425370807608 75 205 254
-648.3766726785692 2.4261741683740183 60.76398987845335 74 204 254
-650.4165397466771 2.274574914285977 59.01337529192543 75 205 254
-648.5644037914894 2.1714442870617336 59.243092295249504 74 204 254
-649.3774832968836 2.9584894981434715 65.78577843167018 74 205 254
-648.764033326194 2.497586030354805 61.72268026668662 74 204 254
-650.2952022149578 2.5189403419802163 60.63178199780633 74 205 254
-648.4834928497453 2.4983848172172323 62.77195781654219 75 205 254
-650.2309403003161 2.4115410562216715 60.10579330262746 74 205 254
-651.3456361476848 1.8257664404599812 58.0962382757595 75 204 254
-648.6154907904659 2.5786125152079276 62.759890099411216 74 204 254
-650.9192076800888 2.925707172971019 65.11470068843225 74 205 254
-647.7142370049501 2.1259718778283956 59.02817108538947 75 205 254
-649.6162001158666 2.32884158788739 59.634622887001015 75 205 254
-648.7126661201364 2.248209466567948 59.64572108206758 75 204 254
-650.2485987317141 2.367144676135532 59.796363514708254 74 204 254
-648.1251599119385 2.3146316379366 60.853705766514686 74 205 254
-650.0510622982564 2.401501374150362 60.16988682893085 74 205 254
-649.8300843344591 2.3628665360834784 59.87105540694336 75 205 254
-648.4707905455311 2.462740249384666 62.23712448768416 74 205 254
-648.2364040712176 2.4678952213176357 60.983768385592775 75 204 254
-650.2888049417197 2.7935521137256156 63.89091944486174 75 205 254
-651.1069835815728 1.8518065582440046 58.46902034984018 75 205 254
-647.885095742686 2.210640781677129 59.88427902475514 75 205 254
-649.3131691527716 2.7277659933766083 64.1444853299489 75 204 254
-650.3015482201798 2.4589524609010267 60.266017491292935 74 204 254
-648.3051894380816 2.3427557889660067 60.757907802446056 74 204 254
-648.0075139042184 2.2106638833358776 60.324467089192 75 205 254
-649.1751081860436 2.772022024280677 65.11594662924914 75 205 254
-647.7470993110107 2.1543587647665756 59.39214235843772 75 205 254
-648.7194054453486 2.4048357470351585 60.34805770553544 75 204 254
-649.5964393867471 2.658349345353286 63.00228213237018 75 204 254
-648.9819640375388 2.6808010193040035 64.20869965861567 74 205 254
-649.8112941291428 2.6180165625629535 62.04085846861012 75 204 254
-649.3064057169872 2.326816164197342 59.89380845990365 75 205 254
-650.3931626439004 2.872347401023747 64.3809383365861 75 205 254
-650.9769556809598 2.04140442982953 58.27027637311138 75 205 254
-649.1726366194314 2.541788588249136 61.113044232332186 75 205 254
-649.5174349821234 2.4829983411679786 60.601680852533164 75 205 254
-648.3716036105515 2.2655241506361534 60.29820337293187 75 205 254
-649.7812256148736 2.618280506154626 63.182655065891794 75 205 254
-648.2842760998411 2.5003609705909504 61.17319719639614 74 205 254
-648.7496579484302 2.2999455224327736 60.08134978859919 74 204 254
-649.2087569040156 2.3828642121233514 59.477161140019376 74 204 254
-648.7943501954483 2.5386135093608537 62.20284541253312 74 204 254
-649.2000656976805 2.55528604823646 62.10195704248339 74 205 254
-648.3730340170542 2.4308715605899893 61.74683943906398 75 204 254
-650.2018359331339 2.738990987829477 63.40906768455153 75 205 254
-648.2217184266365 2.2332448567407335 59.8211310501218 75 204 254
-649.5673173557582 2.726607981537284 62.59602788135892 75 205 254
-650.8699669507264 2.4446628157996253 60.63612713014535 75 205 254
-651.8954912465335 3.101538733849276 65.87445953061552 74 205 254
-653.5823380341564 3.011969088703088 64.30033609730758 75 204 254
-652.1995056768769 2.9225562502828506 64.88125749068277 75 204 254
-650.1732446440085 2.5749544455072213 61.359479296314504 75 205 254
-650.5686383155339 2.4802002765575244 62.4265407695818 75 205 254
-650.1047788272191 2.4315641407183994 61.432135171498 75 204 254
-649.137730881431 2.214395471372666 59.23626762922973 75 205 254
-651.4000367774362 2.542183574741027 62.771865376491014 75 205 254
-648.8128544738761 2.479030617544887 62.076734475527516 75 205 254
-649.6903777116642 2.703688166660485 63.511360249972455 75 204 254
-653.7993589144706 1.757121419109298 60.05555616984862 75 205 254
-649.0162722548016 2.6237527005801518 63.19219609501718 75 204 254
-651.6757811122947 2.56849222843734 61.36824205687847 75 205 254
-651.7943067704616 2.7563657155040646 62.96459200705865 75 205 254
-652.5733642754675 3.015029720895484 64.82812616365919 74 204 254
-652.5580379860837 2.921398794493328 64.46240172583302 75 205 254
-650.5552206751536 2.478027457760434 61.261548052475135 75 205 254
-651.3537809263876 2.138971452821078 61.653460607900364 74 205 254
-650.9566944193211 2.49983728471852 62.24342940764785 74 204 254
-649.7286351914256 2.3624370799318823 61.6779708105327 74 205 254
-652.9819537317092 2.815885465381845 63.61592720109995 75 204 254
-654.1188166934861 1.6013467657009155 59.80969064500273 75 205 254
-651.7965738775351 2.538504443742294 62.4764346965354 75 205 254
-651.5895225775329 2.6936580308557456 63.058916928325665 75 205 254
-650.5528519355311 2.2018580322689143 62.062672637489214 74 205 254
-649.9495834227758 1.6871040974799403 60.95481808873812 75 204 254
-652.8998206536601 2.736468894170213 62.66184596620729 75 205 254
-650.9294623323764 2.7807737957274474 64.3245770154304 75 205 254
-652.1761470285197 2.7465668866832154 62.678041213174865 74 205 254
-650.6038765099406 2.5066636008016143 60.73466156625335 75 205 254
-649.3987809336309 2.4776462154609966 62.146917626901164 74 205 254
-653.6546095019337 2.5257644076422823 63.481610139176176 75 205 254
-651.9465576411963 2.4501914931348123 61.80196795214046 75 204 254
-652.768570424509 2.8276874158624157 62.6919116262128 75 205 254
-652.444625607014 2.924992612171991 64.78418146481107 74 205 254
-649.1544928104903 2.675374159942641 63.67381742608819 75 204 254
-648.9802219425653 2.3551866076319667 60.948861278011606 75 205 254
-649.4372920633452 2.415522963558554 60.998431440202474 74 205 254
-649.4108337462251 2.4382978416528793 61.26555949427855 75 205 254
-649.0785212856804 2.2284014328487505 59.185959452462825 74 205 254
-650.4097166264297 1.790429076229083 58.427108853542094 75 205 254
-648.4979736108864 2.4123974798178773 61.589600709227504 74 205 254
-649.8458570566332 2.723273185398037 63.404678934947455 75 204 254
-647.7695050829738 2.129269330811548 59.81200356126547 74 204 254
-649.4444242503387 2.4651312173361477 60.587552242465634 74 205 254
-650.8922332448569 1.9578959256546433 58.243307076047536 75 205 254
-648.5718032584632 2.4513088284719418 62.094380761660545 74 205 254
-647.7908336331468 2.396778722138693 61.789750405952226 75 205 254
-648.7532647665894 2.2915148661522124 60.07066456139867 75 205 254
-648.3710333936818 2.4876941140124913 62.83745176060196 75 205 254
-647.86053273488 2.45409048330282 62.39670194492386 75 205 254
-650.3215813663214 2.1240026921462842 58.56039389374089 74 205 254
-649.7394714934433 2.6355239301522175 62.57611494034758 75 204 254
-649.0954790428932 2.3892481712248523 59.469056713726495 75 204 254
-647.8627934380208 2.4978953274057787 62.72045287703442 74 205 254
-648.5026493984053 2.6032060873892444 63.725816933827176 74 204 254
-650.165932468064 1.9231793018527465 58.54413478757823 75 204 254
-648.9314429315946 2.435177025283398 61.61470947598666 75 204 254
-648.1465754377283 2.5848132847879066 63.90873844866341 75 205 254
-648.4511277412531 2.5103860673036786 62.78278479769658 74 205 254
-649.8987966732298 2.392161341876747 60.19046126117249 75 204 254
-649.1552250053076 2.531197406474517 62.039970405723565 75 204 254
-649.6215437525029 2.332964226078861 59.20415823175526 75 205 254
-648.058987509485 2.5482311847628925 64.15309246808289 75 205 254
-648.2295224323445 2.154397732646899 59.71353940264767 75 204 254
-649.725524630083 2.437483258675554 60.3886751397243 75 205 254
-648.5909309905146 2.1651521073504343 59.171818616093184 75 204 254
-649.3258977796953 2.403571985215499 59.89563121030853 74 205 254
-649.5641828943786 2.4699921661858895 60.930578161468354 75 204 254
-648.2639440729336 2.512847782323629 63.25366271708166 75 205 254
-648.4197950466354 2.0847167500435777 58.89789386565459 75 205 254
-647.2526424327081 2.0631898207520694 59.386710320023575 75 205 254
-649.6337771104552 2.1616523050200476 58.92694609870097 75 205 254
-648.5555979495576 2.448126438549245 61.638807729376225 74 204 254
-649.1818296488734 2.3246171998160667 59.90219897301924 75 205 254
-648.0715961398374 2.4281484081789593 61.792277597052994 74 205 254
-649.8711851494269 2.7891450283208554 63.95115809412467 74 204 254
-650.1222660655907 1.8039087485486727 58.610596128984696 75 205 254
-648.0802188264554 2.528851773415159 63.72111237549206 74 205 254
-647.2121606119829 2.02418468857576 59.036252766245745 74 205 254
-648.4067167301664 2.3040432371475825 60.68520800658618 75 205 254
-648.2805378402043 2.6989192831621 64.77808091149419 75 205 254
-648.6553336837667 2.496522495900826 62.151252287326386 75 204 254
-651.0906449439161 1.8376932567907671 58.244532613567976 75 205 254
-647.8164801932468 2.211198131773794 60.275253010231545 75 204 254
-649.7935678568491 2.5250418432944013 61.244954319700255 74 205 254
-648.6709013427408 2.3564367810526603 60.3964599451989 75 205 254
-649.2696547057769 2.6449316806545298 62.546860216303934 75 204 254
-648.1888045400182 2.6152501116276587 64.20380657857253 75 205 254
-648.5178319842962 2.302147001974312 61.12384148883613 75 204 254
-649.0618917341195 2.6923023220190885 64.06227025139803 75 204 254
-648.1814183223231 2.4373440859488262 62.18699061175884 74 205 254
-650.205898054456 1.800011241897697 58.544465724245015 74 205 254
-647.6521084309048 2.073166531168863 59.2751858686128 75 204 254
-649.7785790602597 2.4885283493058648 60.974114534726354 75 205 254
-649.5552454452779 2.531274696272943 61.45264664104229 75 205 254
-648.6513780072472 2.7398429347191273 64.68362063262057 75 204 254
-649.1257904160835 2.3220398033245946 59.23905437052269 75 204 254
-647.9252095689069 2.2441168833471234 60.73116116847091 74 204 254
-650.4490748396944 1.9866320549769174 58.40735970267282 75 205 254
-648.9131540701148 2.3163231723060447 59.57296032193962 75 205 254
-651.6497809966237 1.84439461345338 58.141904247078116 75 205 254
-649.9970186300392 2.8787602467020665 64.79880214852699 74 205 254
-647.7885137108727 2.415597416269364 62.20403467533473 74 205 254
-649.1311816762516 2.80531733387875 64.65630905131688 75 204 254
-648.1639224585938 2.1094112003150816 59.18759215482642 75 204 254
-648.3696402898153 2.539204869863161 63.5760064095109 75 205 254
-648.6116947196389 2.428399230553813 61.33355553799022 74 205 254
-647.3667877155265 2.105983763685508 59.868137819756264 75 205 254
-649.817895313656 2.6606373019309695 62.91854731396201 75 205 254
-648.7745994476883 2.5631824672412886 62.63213622102098 75 205 254
-649.9461671379253 2.8317138437884477 64.37881153800087 75 205 254
-649.5428851835951 2.748982776901517 63.9918737852802 75 205 254
-649.3815150924698 2.702145442067656 63.552545582716405 75 204 254
-650.0559766575524 2.3610531404822632 60.09788400016068 75 205 254
-649.318130788805 2.631893271971528 63.012268785426635 75 204 254
-648.5236922371523 2.645963029490739 64.17654173928021 75 204 254
-647.4591186136217 2.1904406040587014 60.31989503542915 75 205 254
-649.1458218540087 2.3356527484871634 60.44874125867509 74 205 254
-648.9627697493837 2.642463728696682 63.608119087337656 75 204 254
-649.1544928104903 2.675374159942641 63.67381742608819 75 204 254
-647.4297145705937 2.0096057276335246 59.04693752721741 74 205 254
-648.4425116479779 2.550887490307809 63.20368237823048 75 204 254
-649.6412776971346 2.583487319363708 61.931059972412456 75 204 254
-648.6735763281866 2.3498620722444485 60.3372425079439 75 205 254
-649.0599361049367 2.4980431359534414 61.608160961775134 75 204 254
-648.7076234720404 2.2017671140378656 59.63877573260385 75 204 254
-648.8881759463392 2.6008058403392713 63.17923298257959 75 204 254
-648.3296720910608 2.245400580982122 60.204719869534586 75 204 254
-648.1021126327386 2.448049985747507 62.18609351483643 75 205 254
-649.999496615521 2.0526491717364026 58.68090303866059 75 205 254
-647.9648293762995 2.5138756806033538 63.30749444588155 75 204 254
-648.0129127506158 2.3896155219158475 61.76082510320701 75 205 254
-651.4219431737542 1.9106256929754881 58.16888205710297 75 205 254
-649.0958213257071 2.252785688688128 59.47754628026186 75 204 254
-647.5247309582315 2.1826258869164405 60.76787950584284 75 205 254
-649.6229933395315 2.3061577795217936 59.193211929336115 75 204 254
-649.6087990393083 2.8264544114240246 64.44687621087598 74 204 254
-647.7221541415241 2.3799806391105287 61.88885803522736 75 205 254
-648.0272944509687 2.051600155135615 58.9067434911806 75 205 254
-648.5993473633877 2.4954810611625566 62.693814477568154 74 205 254
-648.9890204230372 2.4582255687544166 61.17293307223662 74 205 254
-649.7286351914256 2.3624370799318823 61.6779708105327 74 205 254
-652.9819537317092 2.815885465381845 63.61592720109995 75 204 254
-654.1188166934861 1.6013467657009155 59.80969064500273 75 205 254
-651.7965738775351 2.538504443742294 62.4764346965354 75 205 254
-651.5895225775329 2.6936580308557456 63.058916928325665 75 205 254
-650.5528519355311 2.2018580322689143 62.062672637489214 74 205 254
-649.9495834227758 1.6871040974799403 60.95481808873812 75 204 254
-652.8998206536601 2.736468894170213 62.66184596620729 75 205 254
-650.9294623323764 2.7807737957274474 64.3245770154304 75 205 254
-652.1761470285197 2.7465668866832154 62.678041213174865 74 205 254
-650.6038765099406 2.5066636008016143 60.73466156625335 75 205 254
-649.3987809336309 2.4776462154609966 62.146917626901164 74 205 254
-648.1903201491582 2.311342477187729 61.38387619819673 74 205 254
-653.6546095019337 2.5257644076422823 63.481610139176176 75 205 254
-651.9465576411963 2.4501914931348123 61.80196795214046 75 204 254
-649.5842932779694 2.4038370788395564 60.054561377322784 75 205 254
-652.768570424509 2.8276874158624157 62.6919116262128 75 205 254
-648.7966738729893 2.3413755344181926 60.60246634207699 75 205 254
-648.0487052864405 2.5014755126587005 63.29884046113945 74 205 254
-652.444625607014 2.924992612171991 64.78418146481107 74 205 254
-648.4241037804189 2.20348321548441 61.12393433226661 75 205 254
-647.7940813959258 2.459597172689641 63.009718583492436 75 204 254
-649.2033749059287 2.394706443815643 60.59123396747116 75 205 254
-648.9981548022689 2.606017303392278 62.51995800165541 75 204 254
-649.0790249953169 2.7757520111863663 63.98264658511944 75 205 254
-647.1225333158083 1.8791082765854457 59.43615601965229 75 205 254
-648.5047446621599 2.437708950701257 61.8326900996929 75 205 254
-648.2000685892449 2.077888293512963 59.71839879782349 75 205 254
-647.9420215125241 2.1808688708380526 61.700026744221546 75 205 254
-648.3295344454206 2.867238088877575 64.99629426509327 74 205 254
-647.656797059146 1.9094948360295385 59.48036238493029 75 205 254
-647.9553980689686 2.4820831107322645 63.09263888252851 75 205 254
-649.251240792378 2.4012120153685537 61.18600473337498 75 205 254
-647.7332450412686 1.9503474933325426 59.792189029168696 75 204 254
-648.3165786623059 2.7265286807443507 64.14692017208526 75 204 254
-648.7058787150233 2.2650858383751755 59.345373721690144 75 205 254
-647.1856565423682 1.877878215618578 59.82530345612219 74 204 254
-647.8847835990346 2.7819656494318936 64.73413538142246 75 204 254
-648.1494632143982 2.543071667702761 63.154672221461716 75 204 254
-647.1696881791246 2.2849910035341647 62.286240850401754 74 204 254
-649.1132887206627 2.345333719822354 59.87166540265399 75 204 254
-648.7883175313926 2.8507398002809037 64.55345000534558 74 204 254
-648.7609870923945 2.2693711946627833 60.07495333685434 75 205 254
-647.4086244488036 2.148161314919512 61.10383429414493 74 204 254
-648.2459643516872 2.6163880676523528 63.65754119330822 75 204 254
-649.449343657262 2.5863961742324344 62.64324943982163 75 205 254
-648.6632884223459 2.051051030491636 58.237188289702104 75 204 254
-647.315058558981 2.4919841465248354 63.35185452294466 75 205 254
-649.166258509541 2.3127007996590505 60.025178834703595 75 204 254
-647.0207457782672 2.0058588904655075 61.185790734496436 75 204 254
-649.0138287719202 2.385184196266602 60.759397473789306 75 204 254
-647.650109487987 2.401100302546543 62.10732615009317 74 205 254
-649.2181341882633 2.436223352382017 61.000487480877084 74 204 254
-646.8318993092357 1.8472722119937446 59.82695924240767 74 205 254
-647.4306025530927 2.626053980845338 64.37051796839725 75 205 254
-648.0101956674953 2.448103133051351 62.202772243179375 75 204 254
-649.0197077422135 2.2312016110052397 59.03352523760523 74 205 254
-647.7809300153511 2.5606438025425806 63.64666650758249 74 204 254
-648.5560674732142 2.5195936826445298 62.15900913370422 75 204 254
-648.7007338426689 2.9067020429283366 64.85271674632163 75 205 254
-646.9287882643732 2.0192723156005012 60.448590726579496 74 205 254
-648.1359913683818 2.4947742094573906 62.67710082051435 75 204 254
-647.892455741832 2.399348761128354 61.91083962098782 75 204 254
-647.7577467695494 2.123129568701297 60.19192222226054 75 205 254
-648.6536879398317 2.6542422732377817 63.53036700625994 75 204 254
-648.9170867947267 2.54063857493514 62.00370295092345 75 204 254
-648.8236731128414 2.335935424293611 60.5604706069076 75 205 254
-647.802363782077 2.890965782954516 65.52240655171364 74 205 254
-648.9331767329943 2.403862104433136 60.977070297941346 75 204 254
-648.1074165082227 2.089836967618317 59.28449555618616 75 205 254
-649.3014818057894 2.038669354275666 57.91461245523985 74 205 254
-647.5892507069161 2.640844799907282 65.69039277455205 75 205 254
-647.63135278248 2.421329938321241 62.70341666551406 74 204 254
-647.6371889029758 2.020144132156645 58.6609596429975 74 205 254
-647.957509362949 2.8438443432422575 65.15332621080509 74 205 254
-647.7496680756985 2.689109874608457 64.27718020667731 74 205 254
-647.3564167663588 2.5494581664337304 63.75781514786937 75 205 254
-648.0984591177486 1.9855136926150934 58.599820718058616 74 205 254
-648.3699378396461 2.8237306931375654 64.66205461294986 74 204 254
-649.2801801521045 2.476760908830232 61.46682528425547 75 205 254
-647.1896994127541 2.421982204209759 62.8769959579389 74 205 254
-649.2448001281825 2.4182981324938257 61.343629659018035 75 205 254
-648.6058453285382 2.3840334874936424 61.1134931466087 75 205 254
-648.8794171223714 2.168838252605176 58.4138434311407 74 204 254
-647.957139078643 2.445295665380371 62.701434664081084 75 205 254
-648.5081594352483 2.2025654325590027 61.61231021555201 75 205 254
-648.9118967226356 2.2251677750191954 58.55130565664645 75 205 254
-647.620724123948 2.8072385197156215 65.66344945804343 74 204 254
-647.2845522842132 2.427954724003298 63.097080860119355 74 205 254
-649.1783606399614 2.672300070432862 63.453873803155375 75 204 254
-648.7709108615691 2.2233339754370203 58.72708339766391 74 205 254
-647.8419237323329 2.408257328927675 62.28657361155408 74 205 254
-648.7052721811992 2.206211292394066 59.70642768193149 75 205 254
-647.7060931128452 2.520393628782233 63.311197311587975 74 205 254
-647.5835018678613 2.3545673260956583 62.22952581661201 75 204 254
-646.9896768942469 2.0430888194590606 60.83980553858501 75 205 254
-649.0493550333431 2.4796163224513776 61.63970472719485 75 204 254
-648.9547949941518 2.2492027918052386 58.854533744635155 75 205 254
-646.7588694641167 1.859156020705334 59.44359797345368 74 205 254
-648.8125003844913 2.2419001414376325 61.14003793027615 75 205 254
-648.5985779001115 2.561361090848849 62.58576796986654 75 205 254
-648.8645835907956 2.088804598629797 58.097959295748296 75 205 254
-649.0751695468937 2.3278159217410606 59.71665131026998 74 205 254
-647.8731727386806 2.19505769161852 61.09406942176416 75 204 254
-647.2369346913658 2.3971251612005524 62.78357538604689 75 205 254
-649.1028896015545 2.264457491754273 59.68514200733121 75 205 254
-648.3222066451306 2.3002347058187738 60.62640579890942 75 204 254
-648.9122277587244 2.363818885366144 61.47182911174671 75 204 254
-648.6460603091685 2.602668445648402 63.08865268749187 75 205 254
-647.5303041628039 2.57905735142125 65.28490977843086 75 205 254
-647.3022028372147 2.0343506055407428 60.32369732054185 75 204 254
-647.542547459969 2.2455018217324927 61.91991333871825 75 205 254
-648.570669052837 2.0796671098322905 58.51181966700223 75 205 254
-648.8509381349847 2.200229303152465 58.150293022328576 75 205 254
-648.5900334281611 2.4239630984587626 61.88408787999635 75 204 254
-647.1967637423135 2.254901053291123 61.99435315718224 75 205 254
-647.5010863815096 2.739721511682979 64.78736076714313 75 205 254
-648.8447983941652 2.7646295603234066 64.1028926852534 75 204 254
-647.6014647024593 2.7904562050960635 65.17256565443206 74 205 254
-648.2528159449764 2.2244100323515292 60.13957884661247 75 205 254
-647.8373143366503 2.2515201286057156 60.69985060425501 75 204 254
-647.3653465342711 2.135004555652656 60.79668390023371 75 205 254
-647.213574292022 1.7396822189543402 58.75139814730503 75 204 254
-648.6468250071208 1.8707091063122467 61.22352487607715 74 205 254
-648.5998249163032 2.1768507013616034 59.00293191788687 74 205 254
-647.6694416520294 2.4276257050053447 62.5758210463742 75 205 254
-648.9053882442842 1.8661143959206594 61.12258454575593 75 205 254
-649.1623142299981 2.3562691501684023 60.41319642083311 74 204 254
-648.7945158130462 2.2354076360941733 58.82593692677772 75 204 254
-652.9819537317092 2.815885465381845 63.61592720109995 75 204 254
-649.7286351914256 2.3624370799318823 61.6779708105327 74 205 254
-654.1188166934861 1.6013467657009155 59.80969064500273 75 205 254
-651.7965738775351 2.538504443742294 62.4764346965354 75 205 254
-651.5895225775329 2.6936580308557456 63.058916928325665 75 205 254
-650.5528519355311 2.2018580322689143 62.062672637489214 74 205 254
-649.9495834227758 1.6871040974799403 60.95481808873812 75 204 254
-652.8998206536601 2.736468894170213 62.66184596620729 75 205 254
-650.9294623323764 2.7807737957274474 64.3245770154304 75 205 254
-652.1761470285197 2.7465668866832154 62.678041213174865 74 205 254
-650.6038765099406 2.5066636008016143 60.73466156625335 75 205 254
-649.3987809336309 2.4776462154609966 62.146917626901164 74 205 254
-648.1903201491582 2.311342477187729 61.38387619819673 74 205 254
-653.6546095019337 2.5257644076422823 63.481610139176176 75 205 254
-649.1454701841932 2.641319100316047 63.04749512868143 75 204 254
-651.9465576411963 2.4501914931348123 61.80196795214046 75 204 254
-649.5842932779694 2.4038370788395564 60.054561377322784 75 205 254
-652.768570424509 2.8276874158624157 62.6919116262128 75 205 254
-648.7966738729893 2.3413755344181926 60.60246634207699 75 205 254
-648.0487052864405 2.5014755126587005 63.29884046113945 74 205 254
-652.444625607014 2.924992612171991 64.78418146481107 74 205 254
-647.0259630267444 2.075323492082748 59.436901383168475 74 205 254
-648.5889655918611 2.4083491138135953 61.29875482959336 74 205 254
-648.4998459955408 2.1062325109474234 59.30177538803227 75 204 254
-645.9336274934203 2.3519836163426495 62.01371406330988 75 204 254
-645.7859200454654 2.0369062383939083 59.591798448012874 75 204 254
-647.7034887097211 2.65104793018454 62.52328225988306 75 204 254
-647.2318141863201 2.4686823387253334 61.73225460424416 74 205 254
-647.7726855931968 2.3700742502348175 60.166510737852995 74 205 254
-648.1722256848428 2.1867076789277844 59.03117033702998 74 204 254
-647.7924151485377 2.281927541325019 59.93467681479349 74 205 254
-646.8547257643692 1.610871909463068 57.86070375765968 74 205 254
-645.9104363424194 2.2884923926608307 61.644242221011176 74 205 254
-647.7651387726784 2.3488466553482352 61.396450716145495 74 205 254
-645.9454331001263 2.4197808158469893 62.21310234697202 74 205 254
-647.7048466878107 2.453532075303995 60.99973035712464 75 205 254
-646.1107837645981 1.9503624325277915 59.203953825002394 74 204 254
-646.1348881693752 2.547931397149898 64.84198701764232 75 205 254
-646.157401425485 2.3605404750369896 62.0209374913226 75 205 254
-647.7488844284161 2.3358151894923056 61.1985206641795 75 205 254
-645.8559191291178 1.5431880676536274 57.81696648464933 75 205 254
-648.0558231826044 2.3254987001927647 59.57610443716428 74 205 254
-648.449035839278 1.9331758947727877 58.19365065653877 74 205 254
-646.1083833248736 2.7561598702259174 65.05378390465418 74 205 254
-648.1287108621476 1.8636829632446856 58.215700484337226 74 205 254
-646.2223025466194 2.469937694660434 62.1812384326093 75 204 254
-647.6779374375626 2.701454111135056 62.9194308062086 74 204 254
-648.0297521131926 2.4832660309829917 61.09973954191713 75 205 254
-646.0319529381626 2.653849888490047 63.73293037208024 74 205 254
-647.4849846799974 2.3021361322388145 59.691407052651854 75 205 254
-647.9243965879905 2.456311146675019 60.55982895181916 75 205 254
-645.9686144065595 2.6485778769633432 63.03858634333163 75 204 254
-647.9404150916287 2.28590021038144 59.87305141176899 74 205 254
-647.328719407782 2.391173441116794 60.45329779963102 75 205 254
-646.6396694385537 1.5952406858922599 57.8748578554207 75 204 254
-646.5621030291919 1.9924620765690157 59.2220987054379 74 205 254
-648.0355959848476 1.555900618585465 57.862194716610894 75 205 254
-648.6327870315263 2.389192427429543 61.1720910572163 75 205 254
-646.0713258703468 2.7483881154153442 64.25138196357528 75 204 254
-646.9093755198147 2.5732901129264407 62.662795188308046 75 205 254
-648.0803804021774 2.2343239080766404 59.49035833891483 75 205 254
-647.7349874093941 2.5877591766542025 62.07523329404651 75 204 254
-646.9429212289202 2.514088639069845 62.101250541163246 75 205 254
-647.9878862976703 2.278460840564194 58.945229501121666 75 205 254
-647.110927443466 2.0197015999066465 59.05496463495416 75 205 254
-646.5454781403663 1.7237052281872458 58.01900072254341 75 204 254
-646.1618360301586 2.2231552449696235 61.360116550070565 75 205 254
-648.1565758580767 2.285869689110088 61.11915338563024 75 204 254
-648.9118967226356 2.2251677750191954 58.55130565664645 75 205 254
-646.1262215024747 2.321797037064335 61.71934879788941 74 205 254
-648.0401761753039 2.236084444531631 58.58801124850163 75 205 254
-646.4982323551699 2.236017962160413 61.27006129359333 75 205 254
-648.3974772476524 1.9495958201379686 58.35018262007969 74 205 254
-647.2845522842132 2.427954724003298 63.097080860119355 74 205 254
-647.3176617845564 2.4225045091336064 60.99913069061339 74 205 254
-647.6935676894517 2.4984338134629906 61.70001171812714 74 205 254
-646.1029592022763 2.613278482703711 65.09785404055546 75 205 254
-649.1783606399614 2.672300070432862 63.453873803155375 75 204 254
-647.2980751565864 2.595388519777657 62.55672026082994 75 205 254
-647.1463999843577 2.840383526277723 64.32298382626202 75 205 254
-647.3562806743653 2.317547676985072 60.69939538985691 75 205 254
-646.4154127937475 2.748146278890885 64.06682480551393 74 205 254
-647.2694312379259 2.5279812541306113 62.104483161003074 75 204 254
-648.7709108615691 2.2233339754370203 58.72708339766391 74 205 254
-647.8419237323329 2.408257328927675 62.28657361155408 74 205 254
-648.7052721811992 2.206211292394066 59.70642768193149 75 205 254
-647.7060931128452 2.520393628782233 63.311197311587975 74 205 254
-647.9772375716444 2.366722049148372 59.97455273502983 75 204 254
-647.1415458099906 1.9191633163061566 58.77538064758794 74 205 254
-647.5835018678613 2.3545673260956583 62.22952581661201 75 204 254
-646.9896768942469 2.0430888194590606 60.83980553858501 75 205 254
-647.445620801969 2.402855426395771 61.619717217606556 75 205 254
-648.1231303082519 2.14991724857762 58.63219859081246 75 205 254
-646.4105850079386 2.6462266533511505 63.751364313726754 75 205 254
-647.6656523018426 2.2081770112388996 59.62269017505238 75 205 254
-649.0493550333431 2.4796163224513776 61.63970472719485 75 204 254
-648.9547949941518 2.2492027918052386 58.854533744635155 75 205 254
-646.7588694641167 1.859156020705334 59.44359797345368 74 205 254
-646.8681512843281 1.555889536682022 57.93576357419299 75 205 254
-646.0504068942777 2.0285896366626854 59.52827612841649 75 205 254
-648.8125003844913 2.2419001414376325 61.14003793027615 75 205 254
-648.5985779001115 2.561361090848849 62.58576796986654 75 205 254
-648.8645835907956 2.088804598629797 58.097959295748296 75 205 254
-649.0751695468937 2.3278159217410606 59.71665131026998 74 205 254
-647.8731727386806 2.19505769161852 61.09406942176416 75 204 254
-647.2369346913658 2.3971251612005524 62.78357538604689 75 205 254
-647.6838869373689 2.819015512662318 63.92884816637918 74 205 254
-645.9700597851667 2.473896738295604 62.4964277905598 74 205 254
-646.2187861599631 2.5380805190985907 62.51864519049653 74 204 254
-647.4790415097524 1.9741838484575132 58.77956770132539 75 205 254
-648.3222066451306 2.3002347058187738 60.62640579890942 75 204 254
-646.1756823312686 1.8110435616295506 58.74391170277137 75 205 254
-645.8791816207331 2.3658303359854838 61.80675211732098 75 204 254
-647.4548189748785 2.030686362239539 58.95541880416655 74 205 254
-646.8981231939438 2.6722529830560644 63.56957673625544 75 204 254
-647.5303041628039 2.57905735142125 65.28490977843086 75 205 254
-646.8255730572383 2.868306007957697 64.47164498087426 74 205 254
-646.9694780720878 1.6615104632056763 57.91865183643458 75 205 254
-647.3022028372147 2.0343506055407428 60.32369732054185 75 204 254
-647.542547459969 2.2455018217324927 61.91991333871825 75 205 254
-648.108259316531 2.5369321899869153 61.60880598731943 75 205 254
-646.0993953733881 2.8806760936842144 64.62735980586666 75 205 254
-646.5603181137312 2.043994110026069 59.43873143832201 74 205 254
-647.6936326132202 2.413561488840613 60.539427343139316 75 205 254
-646.0698231326292 2.6337625924525128 62.94683530051087 75 205 254
-646.0957905071785 2.3694461466198957 61.8243309916504 75 205 254
-647.5794383310191 2.3205940621151155 60.67001294786509 75 205 254
-648.570669052837 2.0796671098322905 58.51181966700223 75 205 254
-648.8509381349847 2.200229303152465 58.150293022328576 75 205 254
-648.5900334281611 2.4239630984587626 61.88408787999635 75 204 254
-647.5010863815096 2.739721511682979 64.78736076714313 75 205 254
-648.8447983941652 2.7646295603234066 64.1028926852534 75 204 254
-647.6014647024593 2.7904562050960635 65.17256565443206 74 205 254
-645.7586124395262 1.9385990779679734 59.23319392794362 74 205 254
-646.9375775267391 2.6281157427328417 63.130677461500234 75 204 254
-647.2854737540819 2.675926982278014 63.062191209876474 75 204 254
-645.8712784251842 1.490495505168611 57.80866428857351 75 205 254
-647.8373143366503 2.2515201286057156 60.69985060425501 75 204 254
-647.3653465342711 2.135004555652656 60.79668390023371 75 205 254
-647.3453061287271 2.7568501860789105 63.50510577623622 75 205 254
-648.8123381833941 1.8889710873166354 58.02396299482768 75 205 254
-646.2022794026491 2.511642988839058 64.72431388736972 75 205 254
-648.2815172398208 2.3923451184139797 61.34112092069165 75 205 254
-648.5356556846448 2.0699846133867297 59.04034528478679 75 204 254
-646.1979916059512 2.951638695084715 65.02314634825115 75 205 254
-647.213574292022 1.7396822189543402 58.75139814730503 75 204 254
-648.6468250071208 1.8707091063122467 61.22352487607715 74 205 254
-648.5998249163032 2.1768507013616034 59.00293191788687 74 205 254
-647.6694416520294 2.4276257050053447 62.5758210463742 75 205 254
-648.9053882442842 1.8661143959206594 61.12258454575593 75 205 254
-649.1623142299981 2.3562691501684023 60.41319642083311 74 204 254
-646.5396361270099 1.8452302011653847 58.77792325562077 74 205 254
-646.4868268839315 2.869870570556164 64.51053196608476 74 205 254
-647.3526007871584 2.8369689337858173 63.99939643943492 74 204 254
-646.9255172488895 2.8235606756456058 64.11194095817285 74 205 254
-647.6161537628196 2.7965953278559637 63.542072165683656 75 205 254
-649.7286351914256 2.3624370799318823 61.6779708105327 74 205 254
-648.7945158130462 2.2354076360941733 58.82593692677772 75 204 254
-651.7965738775351 2.538504443742294 62.4764346965354 75 205 254
-652.9819537317092 2.815885465381845 63.61592720109995 75 204 254
-654.1188166934861 1.6013467657009155 59.80969064500273 75 205 254
-650.5528519355311 2.2018580322689143 62.062672637489214 74 205 254
-647.620724123948 2.8072385197156215 65.66344945804343 74 204 254
-649.1028896015545 2.264457491754273 59.68514200733121 75 205 254
-652.8998206536601 2.736468894170213 62.66184596620729 75 205 254
-648.9122277587244 2.363818885366144 61.47182911174671 75 204 254
-651.5895225775329 2.6936580308557456 63.058916928325665 75 205 254
-649.9495834227758 1.6871040974799403 60.95481808873812 75 204 254
-650.9294623323764 2.7807737957274474 64.3245770154304 75 205 254
-652.1761470285197 2.7465668866832154 62.678041213174865 74 205 254
-650.6038765099406 2.5066636008016143 60.73466156625335 75 205 254
-649.3987809336309 2.4776462154609966 62.146917626901164 74 205 254
-648.1903201491582 2.311342477187729 61.38387619819673 74 205 254
-653.6546095019337 2.5257644076422823 63.481610139176176 75 205 254
-648.6460603091685 2.602668445648402 63.08865268749187 75 205 254
-649.1454701841932 2.641319100316047 63.04749512868143 75 204 254
-651.9465576411963 2.4501914931348123 61.80196795214046 75 204 254
-649.5842932779694 2.4038370788395564 60.054561377322784 75 205 254
-647.1967637423135 2.254901053291123 61.99435315718224 75 205 254
-652.768570424509 2.8276874158624157 62.6919116262128 75 205 254
-648.7966738729893 2.3413755344181926 60.60246634207699 75 205 254
-648.0487052864405 2.5014755126587005 63.29884046113945 74 205 254
-648.2528159449764 2.2244100323515292 60.13957884661247 75 205 254
-652.444625607014 2.924992612171991 64.78418146481107 74 205 254
-645.1718539599748 2.2707138657435744 60.16872205038431 75 205 254
-647.0628015323555 1.5715080251156834 57.752476921990166 74 204 254
-649.0139898390875 1.959722661376353 58.32330550504434 75 205 254
-646.6664266555929 1.5986404329556239 57.95616942499834 74 205 254
-647.4862372508685 2.6974615723412763 62.723800023772725 74 205 254
-646.8534473224458 1.6535062479803457 57.600413359530755 75 205 254
-647.1800716298128 2.3761005290048907 59.311191534519494 75 204 254
-645.7453021449268 1.993151340507488 58.23594743013171 74 205 254
-646.6106708650364 2.0451318318343175 58.33985645932723 74 204 254
-646.0978197868915 2.6726983350541014 62.143805340008655 75 205 254
-648.814418499572 2.00377170691557 57.9723441094987 75 205 254
-646.7264147957231 2.469213054504241 59.711918850764924 75 205 254
-645.7127348258076 2.837616739837099 63.310099619554634 75 205 254
-646.7536736521874 2.797068534034918 63.28249865384405 74 204 254
-645.2889245328951 2.842722493150762 63.71668799229975 74 205 254
-645.2811099932364 2.356904727998926 59.83605548853412 74 205 254
-646.5083608069083 2.4192202242859215 61.386990359071824 74 205 254
-645.3577651725701 1.9688909986598127 58.456096018256005 75 205 254
-646.5547653370492 2.0240407396257982 57.91423716891878 75 204 254
-645.2923283610027 2.4884442067198176 62.0007620929317 74 205 254
-645.7137048240432 2.1535492089647557 59.383512351572925 74 205 254
-646.0071428608488 2.543336733499885 60.512307889807104 75 205 254
-647.6513148371481 1.4128630443003782 57.754138292084285 75 205 254
-645.5765516427556 2.5829227553592258 60.41944601092103 74 205 254
-645.3115794085185 2.0246230475015903 57.86515025813502 74 205 254
-645.700129392436 2.5325711332696725 60.74716434372142 74 205 254
-645.9097890173824 2.1587386596340172 57.97285356892779 75 205 254
-647.2012571297639 2.72153654982944 62.79347809812808 74 204 254
-646.6904580289296 2.7744174600793894 62.79132439878037 75 204 254
-646.7948082325157 2.4087614547458154 60.74121256401666 74 205 254
-646.0048462737434 2.1052228198202236 58.04245730151218 74 205 254
-646.1583385062642 2.586151309990166 61.84345491235975 74 204 254
-647.448898439369 2.4079984082093535 60.442578280296125 75 204 254
-645.9988087525114 2.1398814026235122 59.32294073475325 74 205 254
-646.0946965553904 2.825518559380181 64.09692922803629 75 205 254
-647.3140396230126 2.417889559230577 60.50384986331397 74 205 254
-646.1322037896001 2.04632524036799 58.86238460349049 75 205 254
-647.0555424713008 2.2500242019159646 59.21397205634319 74 204 254
-648.8110278551458 2.0609571422769326 58.315349674343274 75 205 254
-646.2361678026558 2.5343563501836615 61.37273999999808 74 204 254
-646.9302572414302 2.120900903286704 58.02303759536164 75 205 254
-646.9970224385871 2.853593483252581 63.52819020755513 75 205 254
-646.4476710978156 2.800345473523742 62.04608675168869 75 205 254
-646.7324665631538 2.5301340865146456 60.930487268064574 75 205 254
-646.1847107994113 2.80472607442766 63.20083016090944 75 205 254
-647.1295487437178 2.521314023946581 60.76779836834356 75 204 254
-647.1561652947378 2.085597045895078 58.43108119304727 75 204 254
-645.458831419425 2.544190113926404 62.89641373716989 75 205 254
-645.6808118471859 2.7483619800929278 62.36237721904587 75 205 254
-646.1701462485927 2.836939413449202 62.72521702245257 75 204 254
-646.3768643465436 2.41609388580658 61.517618018324924 74 205 254
-645.3742772322003 2.955193266149454 64.1820502665647 75 205 254
-647.1025866875383 2.5907331260350626 61.38149324783958 74 204 254
-648.0474644876936 1.384363193358018 57.701588519607554 75 205 254
-647.0891937337205 1.5771364055021522 57.591808083641915 74 205 254
-646.6607002460559 2.5876179515830833 61.27001463899801 75 205 254
-646.6487598639458 2.6777691972062545 61.768459057225236 74 205 254
-648.6325394795207 1.2070751992609594 57.74844083598826 75 205 254
-646.1053871612951 2.032823258237361 58.23158997732312 75 205 254
-646.7420554534153 2.3452806082577107 59.48835538934642 74 205 254
-647.1564859806755 2.178481471004056 58.75102330054676 75 205 254
-646.2512225937118 2.451828678568255 60.81663219518707 74 205 254
-646.1577051143615 2.490551123342449 59.76837043479982 74 205 254
-645.4221289853854 2.5125247029986806 61.1530785787937 75 205 254
-647.4919653298906 2.2960612915969962 58.7962344897253 75 205 254
-648.1110537341463 2.0514744711215442 58.21668881667866 75 205 254
-647.0281322923869 2.6325861450802046 61.5962685681954 74 205 254
-647.708679898047 1.9818688072160615 57.74966840484643 74 205 254
-648.6890447111946 1.2970405270474874 57.575453029235156 75 205 254
-645.6901836357191 2.7881363833350683 62.70400498008945 75 205 254
-646.7335158765886 2.159443431870205 59.190129473459756 75 205 254
-645.840454757317 2.4989060751121794 62.11643597869665 75 205 254
-645.308679896112 2.5208664849882236 62.28045723585573 75 205 254
-647.987685904209 1.83660272064657 57.64447104560063 74 205 254
-645.5496917340629 2.1463451812801573 57.89326901140003 75 205 254
-646.9165415456764 2.436140101350154 59.615894952732106 75 205 254
-645.6738576106118 2.6371063777759547 61.96632026034456 74 205 254
-647.1592748143402 2.3309923071217007 58.84394625816567 74 204 254
-645.6177251398935 2.0527584655778295 57.99157143903821 74 205 254
-645.5119747173059 2.325853430359973 59.74943117792696 74 205 254
-648.9109071015953 1.1873827397360976 57.72999385360702 75 205 254
-645.3055812532951 2.8143194954757167 63.29419545653436 74 204 254
-645.7411628258654 2.465309115375769 61.92613057235636 75 205 254
-645.2558391087575 2.587571847404064 60.30060982617328 75 205 254
-646.0552202232689 2.4992304448507108 62.11469494305914 75 204 254
-647.1510154202242 2.418767309087296 60.69259113779462 74 204 254
-646.308911825994 1.8232904291136176 57.506799331637204 75 205 254
-645.3175056596893 2.531557335465827 62.9087392972325 75 204 254
-646.6861778088545 2.866868937995398 63.63389345873526 75 205 254
-646.2370702464465 2.875051005081385 63.94816732638537 75 205 254
-647.2010719538663 2.4576292926138548 60.52354904214567 75 205 254
-645.2955178511965 2.5723204559927737 60.69843750345747 75 204 254
-645.1749520045064 2.209127471811768 59.82029029050672 74 205 254
-645.2604384832497 2.1469596972141485 59.41606641937643 74 205 254
-645.7570685408898 2.029022514159834 58.794778860537185 74 205 254
-647.5105961995836 2.1312654722838884 58.403315232637674 75 204 254
-645.743703881192 2.8893774642144416 64.13312198525068 75 205 254
-645.3406122686733 2.7141372799696866 62.90807858974903 74 204 254
-646.6009091615621 2.0929511560329175 59.00377098216173 75 205 254
-645.7323487582541 2.899847693050707 63.82313078184901 74 205 254
-645.1907711525683 2.526349820913733 61.194972622409495 75 205 254
-648.5883875676323 1.3534357062377023 57.6113316511537 75 205 254
-646.1974696163489 2.4624280005967005 61.758366341431135 75 205 254
-647.380109150542 2.318257624598414 58.717860040805434 74 205 254
-647.4894660101398 2.473988694856681 60.548107240216524 75 205 254
-647.0862819305431 2.7831420488594025 63.191299848601346 75 205 254
-647.3526007871584 2.8369689337858173 63.99939643943492 74 204 254
-645.2423384701292 2.1225511192085635 57.791306691620434 74 205 254
-646.9255172488895 2.8235606756456058 64.11194095817285 74 205 254
-647.6161537628196 2.7965953278559637 63.542072165683656 75 205 254
-645.539045974269 2.236004893742474 59.65106487832426 75 204 254
-649.7286351914256 2.3624370799318823 61.6779708105327 74 205 254
-648.7945158130462 2.2354076360941733 58.82593692677772 75 204 254
-651.7965738775351 2.538504443742294 62.4764346965354 75 205 254
-652.9819537317092 2.815885465381845 63.61592720109995 75 204 254
-654.1188166934861 1.6013467657009155 59.80969064500273 75 205 254
-650.5528519355311 2.2018580322689143 62.062672637489214 74 205 254
-647.620724123948 2.8072385197156215 65.66344945804343 74 204 254
-649.1028896015545 2.264457491754273 59.68514200733121 75 205 254
-652.8998206536601 2.736468894170213 62.66184596620729 75 205 254
-648.9122277587244 2.363818885366144 61.47182911174671 75 204 254
-651.5895225775329 2.6936580308557456 63.058916928325665 75 205 254
-649.9495834227758 1.6871040974799403 60.95481808873812 75 204 254
-650.9294623323764 2.7807737957274474 64.3245770154304 75 205 254
-652.1761470285197 2.7465668866832154 62.678041213174865 74 205 254
-650.6038765099406 2.5066636008016143 60.73466156625335 75 205 254
-649.3987809336309 2.4776462154609966 62.146917626901164 74 205 254
-648.1903201491582 2.311342477187729 61.38387619819673 74 205 254
-653.6546095019337 2.5257644076422823 63.481610139176176 75 205 254
-648.6460603091685 2.602668445648402 63.08865268749187 75 205 254
-649.1454701841932 2.641319100316047 63.04749512868143 75 204 254
-651.9465576411963 2.4501914931348123 61.80196795214046 75 204 254
-649.5842932779694 2.4038370788395564 60.054561377322784 75 205 254
-647.1967637423135 2.254901053291123 61.99435315718224 75 205 254
-652.768570424509 2.8276874158624157 62.6919116262128 75 205 254
-648.7966738729893 2.3413755344181926 60.60246634207699 75 205 254
-648.0487052864405 2.5014755126587005 63.29884046113945 74 205 254
-648.2528159449764 2.2244100323515292 60.13957884661247 75 205 254
-652.444625607014 2.924992612171991 64.78418146481107 74 205 254
-646.8210311803891 1.8673600639602164 58.11842935305971 75 205 254
-644.048764045435 2.536631550779198 62.074936598835265 75 205 254
-644.4280421539285 1.7785532961076118 56.69271645241695 75 204 254
-645.3904788469373 2.4933092251517177 61.0711939618336 74 204 254
-647.0628015323555 1.5715080251156834 57.752476921990166 74 204 254
-649.0139898390875 1.959722661376353 58.32330550504434 75 205 254
-646.6664266555929 1.5986404329556239 57.95616942499834 74 205 254
-645.1344921511846 2.204624076627395 58.835553088491906 75 205 254
-647.9397685114627 1.9473450690514644 58.40092596462127 74 205 254
-644.5630908398125 2.2511378950252965 59.59767937899091 74 204 254
-647.4862372508685 2.6974615723412763 62.723800023772725 74 205 254
-646.8534473224458 1.6535062479803457 57.600413359530755 75 205 254
-647.1800716298128 2.3761005290048907 59.311191534519494 75 204 254
-645.7453021449268 1.993151340507488 58.23594743013171 74 205 254
-645.4962765097135 2.22341319244022 58.810329332466736 74 205 254
-646.6106708650364 2.0451318318343175 58.33985645932723 74 204 254
-646.0978197868915 2.6726983350541014 62.143805340008655 75 205 254
-644.46948107008 2.4162561499881035 61.07527513656685 75 204 254
-648.814418499572 2.00377170691557 57.9723441094987 75 205 254
-644.1864907664801 2.110068255382119 58.541048148207835 74 205 254
-646.7264147957231 2.469213054504241 59.711918850764924 75 205 254
-645.7127348258076 2.837616739837099 63.310099619554634 75 205 254
-647.1928771608924 2.0419441658474424 58.651229761771184 75 205 254
-647.7318381487463 1.9312609722536518 58.400896218035214 75 205 254
-646.7536736521874 2.797068534034918 63.28249865384405 74 204 254
-645.2811099932364 2.356904727998926 59.83605548853412 74 205 254
-645.8201430283112 2.363647316122157 59.63853203061866 75 204 254
