-615.8725246064474 2.9733698176730745 59.24423388836376 255 255 255
-622.0116003829461 2.596860070307983 56.43049358228332 255 255 255
-616.7877462456511 2.6800222300558465 55.960794411275785 255 255 255
-615.4460336903095 2.4189797402806628 52.640154607461724 255 255 255
-615.1661813645513 2.5770816368069527 54.28811752334843 255 255 255
-616.771974188618 2.6688451566419347 55.95192956189552 255 255 255
-614.8484265077252 2.8268245786748722 57.815501968131024 255 255 255
-614.8193094216263 0.4058953580675908 60.19961257829414 255 255 255
-614.5338969896212 0.22248860021365413 60.533110463420115 255 255 255
-614.0336448840566 2.951053084577554 58.0838982731669 255 255 255
-614.6884973406902 -2.0604432491768847 59.61890568082297 255 255 255
-611.5265556381462 -3.530970788326629 61.314780043730465 255 255 255
-617.0937157215178 3.4166818535447976 60.21933327618677 255 255 255
-614.7712914750394 -3.126274981008388 60.63381015719257 255 255 255
-601.4672952709583 -1.670951410988823 65.0083631746147 255 255 255
-613.3842641138737 2.9137604736806915 60.74518504726167 255 255 255
-619.7760566369233 -0.016380785148796484 61.06159861420562 255 255 255
-618.2108490425281 -1.1494082036357103 60.740538718792585 255 255 255
-624.710191529058 2.6625497837194008 56.640542658104266 255 255 255
-618.4991143882085 -1.0687213301429308 60.67547104893432 255 255 255
-617.631920792143 -1.263945779363163 60.92404317592626 255 255 255
-618.252158898011 3.052349721941171 60.01588024035378 255 255 255
-618.3223932464464 3.044107149141777 59.998416189508646 255 255 255
-616.4769738923206 -0.5060093668924459 61.11943341087512 255 255 255
-612.1284941078977 -0.9747388819626366 62.63546651229478 255 255 255
-616.949268123136 2.4426277112478996 55.89092884422638 255 255 255
-615.5798801820537 2.647203343957272 55.67356808132501 255 255 255
-617.8263558370344 2.7795064284771005 57.69189291598221 255 255 255
-614.5447093036023 2.9059558939450474 58.499093136594084 255 255 255
-614.3318053927661 2.960799155224772 58.55908990732765 255 255 255
-617.4440664035913 2.8554423362555834 57.77079658783499 255 255 255
-615.0151935802882 2.6829897148530875 56.255233618791365 255 255 255
-616.472231362199 3.0413001713768404 59.48821561449174 255 255 255
-614.5073626721264 2.7132784111419355 60.44367965001531 255 255 255
-614.9651281332864 2.7958941519665435 60.24547870627172 255 255 255
-614.5936878502763 -3.3204049151659074 59.96519409469731 255 255 255
-616.6628218305125 -2.2190502608627867 59.49711472752975 255 255 255
-614.5558704547235 -0.6430182652917562 60.488847790462394 255 255 255
-613.6733676833718 -2.427797230652459 60.27022003102753 255 255 255
-614.2263837948652 -2.6776574343736765 61.09600229876035 255 255 255
-607.0091743801945 -3.2960264442605336 62.58471497044678 255 255 255
-614.4245989040899 -3.2473455447701642 60.78822215340342 255 255 255
-614.0636315320593 -1.740062666073488 60.38295208332747 255 255 255
-607.4201982219975 -4.81119792224329 63.600730131811716 255 255 255
-611.3208638414258 2.877976555899452 56.958023709171975 255 255 255
-614.3281666835113 2.850759558122605 57.148935951826864 255 255 255
-613.9377750525742 2.95495279581303 57.3012037762347 255 255 255
-614.2952451764738 2.9275874122725867 58.04673729004147 255 255 255
-615.1177421627989 2.683917077181158 56.2686268638791 255 255 255
-615.34753198874 2.548923127054489 54.30786656328788 255 255 255
-619.8318429500708 2.566644026244603 56.09466353916898 255 255 255
-615.2037439379395 2.5627813043295555 54.56507303157873 255 255 255
-608.6456122854659 3.0899254746385623 58.35818900604041 255 255 255
-612.07244475676 2.707774024281254 56.73023601419926 255 255 255
-609.5238935719046 -2.425770381756374 59.721998653371635 255 255 255
-609.9511585643386 -0.5633880724343783 60.23214782474954 255 255 255
-616.5048748613419 2.694805299793432 55.93395380365538 255 255 255
-618.4751271873918 2.7829956805141975 57.68020242113732 255 255 255
-616.1486860987967 3.0878749590323777 59.57912254610891 255 255 255
-616.5462689708529 2.626407212926541 55.87048691768029 255 255 255
-615.0182246823167 2.667387067165997 55.781978901616256 255 255 255
-603.8768814731409 2.8764719437575628 55.96744143355482 255 255 255
-614.675004441603 2.975944981965017 58.650335449665455 255 255 255
-614.9150810003015 2.6029580639934062 54.53729403800145 255 255 255
-614.8865783707419 2.677184284385702 56.22317058663108 255 255 255
-613.0750122103321 3.178510537188614 58.432902902250305 255 255 255
-604.192949733116 -1.4461373767103316 61.023475229753494 255 255 255
-597.5092139475023 2.400228918853046 50.563249984233806 255 255 255
-612.2543727677989 2.7064828511129644 56.494238910847386 255 255 255
-604.3899655463875 -1.0645203011049702 59.321410852548965 255 255 255
-605.8718684091403 -1.8106550981933083 58.896018176701304 255 255 255
-604.9692482825017 2.6823809261849423 54.774870142072466 255 255 255
-612.3275356584644 2.37962360093399 53.23665138428782 255 255 255
-602.8463208017087 3.802780739771268 56.9121906543326 255 255 255
-609.1248899688061 2.695577622279228 60.24374773517088 255 255 255
-606.1245419800626 2.3715057612982693 51.570358029149865 255 255 255
-606.6613388156384 2.327111284077158 51.692871946228934 255 255 255
-605.2661091705788 -0.9227798677702257 58.7916877225676 255 255 255
-604.5558739078019 -3.023039738513079 58.451180949993386 255 255 255
-599.7329076754775 2.643054772097084 54.17301052779519 255 255 255
-608.3406293748072 3.144968760938271 58.546195391718896 255 255 255
-610.8046651244509 2.708202863043371 57.09782634294324 255 255 255
-609.367533289329 3.207112898866236 60.79406659749885 255 255 255
-609.5622770088145 2.9025706974811376 55.11019569515409 255 255 255
-615.6432462950632 2.4969623576887234 54.61824503567861 255 255 255
-613.9437777259482 2.5333743949007976 54.644049431002706 255 255 255
-615.2596959360233 2.6887834690666392 57.99157779880203 255 255 255
-611.5475351127852 2.404191737730353 52.193278435763084 255 255 255
-614.0839321755467 2.381202142472413 56.326429682813796 255 255 255
-612.2431575817394 2.4526420693807407 53.30892188431059 255 255 255
-612.5010569391293 2.4066394536073696 54.170319731767044 255 255 255
-612.4805693506015 2.3937307061088537 54.11947783177522 255 255 255
-599.3666186545646 2.5170665413813835 51.97336434372466 255 255 255
-607.4961258623665 2.7920930241081274 55.108821709943285 255 255 255
-608.1734514105453 2.786756310514193 59.75663947165037 255 255 255
-607.662732917055 2.8683235370880884 56.374114684352215 255 255 255
-609.7349462439348 3.2025017047998254 57.985599240466875 255 255 255
-612.739763549781 2.7965890886546765 57.413074047113184 255 255 255
-614.9408797866995 2.1362203224923695 53.39834865065033 255 255 255
-610.6722603419848 3.0221272560260957 58.545795877310624 255 255 255
-605.7578739225031 3.2870041238410592 53.67759849481804 255 255 255
-611.4053790088307 2.6081583467535685 54.795003652422245 255 255 255
-606.0356403895736 -1.1841479360575118 59.736088138289546 255 255 255
-607.0389092609387 2.9471941850201606 57.369911886755496 255 255 255
-607.6206361494629 2.892779541584482 56.39439060309998 255 255 255
-608.0646853651348 2.6856036960236502 55.00560880178926 255 255 255
-607.9972414813425 2.79745705886234 56.18931333135075 255 255 255
-605.8905181798121 3.2302211936373797 58.474762568270435 255 255 255
-604.1198331770469 -0.7593238945336616 59.617073671463366 255 255 255
-604.5699186124161 -2.879481668348765 59.41125431656996 255 255 255
-604.9073861687796 2.675073369534577 54.76079225373135 255 255 255
-605.0186674117958 2.657415330528133 54.76175491035073 255 255 255
-604.2995785920267 -2.7342575041859263 59.08394261232309 255 255 255
-603.2016257597963 2.322493934727914 51.29995782455203 255 255 255
-603.009079872523 3.163274528233731 59.07835432532051 255 255 255
-606.7550343389668 3.0224172907704077 57.58869049934822 255 255 255
-606.6895383740155 3.0962088082149113 58.25492483170269 255 255 255
-606.6654440279285 2.8085466608306606 56.09394698460845 255 255 255
-606.9787506633019 2.9475151688491494 57.48697628890209 255 255 255
-605.7255056462456 3.242761977509646 58.51790195500215 255 255 255
-607.0695110151157 2.6427773668023256 55.51887235255859 255 255 255
-606.932575886244 2.6534708433309513 55.619329314877795 255 255 255
-605.9125133524731 2.8050918323070473 55.643418946387705 255 255 255
-593.3905756859012 -5.2829500827528495 64.03282753040742 255 255 255
-605.416494592481 -2.7087381133132915 58.250877311738236 255 255 255
-612.9202487352674 2.5770364451403363 55.50971877584683 255 255 255
-611.7272748484838 2.492938664807359 54.01112411120405 255 255 255
-611.1568780425549 2.6002865297515867 54.299960866354645 255 255 255
-611.465563196505 2.4669095003687858 53.01221306003332 255 255 255
-600.5619543138589 -4.180099827415688 61.67751769253768 255 255 255
-605.6982093187357 -2.8324947353049765 58.640889478729704 255 255 255
-605.9973897497641 -2.313546293607076 58.55396794825391 255 255 255
-603.5297852057059 -2.510174699857168 59.337917449421106 255 255 255
-602.9603315619948 -1.009556869300475 58.94630103213059 255 255 255
-601.2003535903596 -1.671973183996898 59.33692827995102 255 255 255
-601.589170751148 -1.592610038266093 59.17891019897895 255 255 255
-588.8545225789495 2.6589185345406268 53.07286082861627 255 255 255
-605.3169336031355 2.5844161060407105 52.94821204350468 255 255 255
-601.2627062571332 2.4436088855258205 54.17171915241311 255 255 255
-598.462926534379 2.774459892064735 54.15925211650124 255 255 255
-600.1641746994127 2.857571765897939 58.908956372606546 255 255 255
-598.690589315121 2.6881510620177487 59.46018724766725 255 255 255
-594.3356914814404 3.2602595554266927 57.37698805411233 255 255 255
-595.8849066407428 -1.890399778302836 58.93509810284657 255 255 255
-596.7618472213637 2.987033283526629 57.96840778087109 255 255 255
-601.9824236243475 2.5030706937595397 53.094035613321154 255 255 255
-600.4571321206807 3.15325505916558 58.10945477273479 255 255 255
-600.580789604009 3.119165279709806 57.999279100400486 255 255 255
-600.5918201100305 -1.9373190469569987 58.637580929702864 255 255 255
-605.8757493195116 -2.5644648079898467 58.076016442403 255 255 255
-603.4212395746996 -2.6841231811080695 60.658752227885145 255 255 255
-604.251875517128 -2.9555322395820838 59.538725447939626 255 255 255
-604.1616736146436 2.8503812120467593 59.73948293825347 255 255 255
-591.5318415630155 2.591911897172028 53.17845741972552 255 255 255
-603.049191404815 2.4150130684968154 51.98748142465038 255 255 255
-598.8900512488403 3.064967717052807 52.73601812037521 255 255 255
-599.5090483573322 2.9368223181239204 52.815324592554745 255 255 255
-601.414331916271 2.528458917357194 52.352922161809275 255 255 255
-600.6648576591497 3.1199357329084654 59.708491084217414 255 255 255
-600.5958423067649 3.119077639138933 59.72652697203681 255 255 255
-599.5412099377756 3.109463847914863 57.558280738728556 255 255 255
-599.5892788532875 3.1008133353015492 57.58073938973732 255 255 255
-599.5475203486809 3.1286470703173093 57.6222207332899 255 255 255
-608.4940581108931 2.596436866714898 54.9585208810543 255 255 255
-608.3013094934174 2.552237410601575 53.773665847115495 255 255 255
-608.6959420979367 2.4768055194915055 53.80712702914016 255 255 255
-608.296906898807 2.639154354525821 54.9715965465643 255 255 255
-607.2368255989562 2.947121509957308 56.46369153171144 255 255 255
-610.1294497800635 2.3481643930923535 54.02331054278393 255 255 255
-607.7695241603244 2.842696957149577 56.33797470414352 255 255 255
-606.9027889489431 2.9895450227943203 57.54288225246005 255 255 255
-607.0603620607911 2.841858014366312 56.834074346412734 255 255 255
-606.0620476028398 2.929800708357984 56.857985898970554 255 255 255
-597.8659010212639 3.332426250617294 54.567110877269705 255 255 255
-602.770794875013 2.640872777812754 53.75598682662996 255 255 255
-603.3612618132983 2.3916080707171137 52.12257353689525 255 255 255
-602.9140981372399 2.5873026494918414 54.44214492038265 255 255 255
-601.4678395211158 2.5288560187154925 52.377761956027214 255 255 255
-606.921733881758 2.8255702171405037 53.67300030648797 255 255 255
-602.5798230795531 3.064825248450872 56.16487611151564 255 255 255
-602.9663973061239 2.365108906517799 51.183339418811066 255 255 255
-602.8038256736634 2.461556495594695 51.89834896404679 255 255 255
-601.0723995591997 2.648580797430738 51.477651312676244 255 255 255
-601.5815739776793 -2.3109598045224677 59.666945197113364 255 255 255
-602.997978760836 2.4229099550020834 51.95927853815879 255 255 255
-601.8219152169896 2.5092247912800003 51.778094598947874 255 255 255
-600.3822521853282 2.9507010240283207 56.324975575913726 255 255 255
-596.9371058241682 -0.9493120243908999 57.27657768736549 255 255 255
-597.1077463942801 -0.8854698730787414 57.283328997685246 255 255 255
-595.5596673194669 2.4649768233041356 51.84960320206913 255 255 255
-595.220146832682 -2.6557663626635595 59.35691347499809 255 255 255
-595.4621639857351 2.840513111768054 58.31690409375661 255 255 255
-597.199019968229 3.148370942170599 54.367692317368615 255 255 255
-602.8750640761841 2.8433292272054205 55.70621522661923 255 255 255
-605.8559982852715 2.460809564234415 52.441676956128 255 255 255
-603.4509467095053 2.789135515478163 55.593723630172754 255 255 255
-604.1387659160467 2.825591199405002 55.90515096944376 255 255 255
-603.1438351363081 2.569969688845945 53.73447603834616 255 255 255
-597.324874756525 3.530061600889802 56.6104146698408 255 255 255
-601.6528086555747 2.518651128081689 52.233829103708366 255 255 255
-600.4657932440846 2.912928948780852 56.30949698075242 255 255 255
-597.7792854390401 2.3485525505019305 50.71679854857523 255 255 255
-596.5545727821361 2.9065441826090535 55.5987219974249 255 255 255
-595.9342838018606 3.0619013804742625 58.989273350944494 255 255 255
-596.3626490173325 2.8978963093992522 55.634753206670766 255 255 255
-594.8294410484657 3.2231443683816448 59.41358880549465 255 255 255
-604.9403038368266 2.6931290699058708 54.77801354147499 255 255 255
-593.9992377540541 3.1695057389803956 58.24892028334727 255 255 255
-595.2389866165641 -0.8467698252369615 57.27752505316656 255 255 255
-595.6302058627438 3.0766694020931933 57.049332644520746 255 255 255
-595.9348041065522 -1.143536088260734 57.7132942782196 255 255 255
-593.6430301820085 2.7371313988210257 53.61789491310938 255 255 255
-591.7339162464303 3.02240270411361 53.71137821712863 255 255 255
-591.1491989867783 3.097736104075023 56.83630118600137 255 255 255
-601.8428801038906 2.4506042463209603 52.46226518610014 255 255 255
-604.8644148922391 2.7063269797711538 54.66921929419958 255 255 255
-594.793551672302 -1.498816440240235 57.273304738343235 255 255 255
-593.9453375392 2.9822382992083774 55.72236890031712 255 255 255
-602.2176139767635 2.857809681273062 55.74128268704569 255 255 255
-595.7124223450897 2.935593982525127 55.494187539139524 255 255 255
-601.9080484679421 2.435518126330169 52.32347892444277 255 255 255
-601.8855685042149 2.7602466898342275 54.442013499565924 255 255 255
-602.3366630010104 2.66873874520606 54.40361544171605 255 255 255
-601.0113901099609 2.6491534795954927 53.60335294565861 255 255 255
-599.7706055238303 3.063466693310006 57.46306723948538 255 255 255
-593.1938500390095 2.902034310998146 55.15902878966581 255 255 255
-596.7266567508451 2.9326902719396646 55.603120153805904 255 255 255
-581.021666271987 -2.5683674210642753 60.233044722471035 255 255 255
-580.9838003093588 -0.48160597013565365 59.22119290003914 255 255 255
-581.4292229428432 -0.21182222104654036 57.36920725594913 255 255 255
-581.3621103075762 -0.2315818760764965 57.37717222834959 255 255 255
-578.9960075109993 -0.6287660303843903 61.69205840600564 255 255 255
-580.6972010665148 0.9330626340151642 58.10015461424865 255 255 255
-577.7497486154651 -2.7917362888543904 60.01866506467438 255 255 255
-583.3443115103745 -2.7433519213205253 59.36932635640902 255 255 255
-592.750809942422 2.7893851004253847 54.93118707841124 255 255 255
-595.5643216096229 2.9490439127356445 55.68703123061895 255 255 255
-605.3001955952653 2.614038444042208 54.7505277899556 255 255 255
-595.0029569041938 -1.0523556401413616 57.50065933353726 255 255 255
-590.5385394487615 3.191994511598158 57.06060821126771 255 255 255
-598.4870559630195 1.88402345997887 52.62910039607172 255 255 255
-591.913291851693 1.1456898094045056 43.48240694850763 255 255 255
-590.8752714488409 1.2279641966351824 43.08417462843246 255 255 255
-586.0937404109775 2.927623876836831 48.701767564738454 255 255 255
-590.608588291533 3.037063201294558 58.54264099995064 255 255 255
-587.6179771488681 2.7885835716356704 53.084107367796605 255 255 255
-582.0656161649146 3.295853389997246 58.53916297459439 255 255 255
-581.6795757152502 3.1793035520876245 59.85392441689028 255 255 255
-582.6901958646913 3.268796616760289 59.2386356555 255 255 255
-580.8443044006069 -0.6002260830289865 58.87709461630651 255 255 255
-582.1790385893313 -1.8924573714951474 61.452286821367196 255 255 255
-595.0103372587296 3.224115268231956 57.352192442492736 255 255 255
-596.2677201005822 2.785166605006072 53.88290940823584 255 255 255
-597.0699666741818 2.8471044178999465 55.49928583386129 255 255 255
-597.4131180432822 2.612417391996233 53.86241727045257 255 255 255
-595.0116589735621 2.365967635803943 50.42327351870001 255 255 255
-591.240603065721 3.3865297461944293 58.02056220206389 255 255 255
-592.1234189829377 3.0137582896837602 55.026256134920146 255 255 255
-592.8905426219128 2.5470634633891613 51.87173965483284 255 255 255
-591.9163664597197 3.151846350543946 57.480508019292586 255 255 255
-590.1449787309383 3.296966100281085 58.614933997698834 255 255 255
-589.6735781028315 3.3599641788968686 58.77633496201223 255 255 255
-601.6825369671263 2.4752603114285496 52.26306721133766 255 255 255
-601.8495236299632 2.4426573916138934 52.30685206273265 255 255 255
-601.4388814117463 2.5071852873718634 52.3802188664103 255 255 255
-600.4532396266023 2.8220601953222184 55.76683107261402 255 255 255
-600.7352313265552 2.7607947961367336 55.687672622894425 255 255 255
-595.9200684139578 2.8632252412426906 55.448283760021624 255 255 255
-595.6098989155739 -0.11008877639814774 57.79737933346658 255 255 255
-580.4305540677426 3.127331723572372 57.59511949204418 255 255 255
-581.0164699689191 3.408664848845646 58.919543237559 255 255 255
-581.5535748328838 -1.2905671556599705 57.0860413429683 255 255 255
-582.5703602215445 3.146155269261101 58.30864364740611 255 255 255
-586.4955716027297 2.356141032544942 49.54883642326991 255 255 255
-586.6082270926581 2.330609489587019 49.614098889771896 255 255 255
-593.408441865691 2.791832809084317 53.634562755498365 255 255 255
-583.550247436111 3.187971164614147 57.25408519808937 255 255 255
-582.1445664561786 -0.710681499128444 57.132716647455545 255 255 255
-582.2817643148949 -0.3116321404228146 56.729350615973395 255 255 255
-580.5224765839359 -4.35433016479458 60.67699195626681 255 255 255
-578.3149835102047 -0.7139742205393462 60.08873559301307 255 255 255
-581.3588692876333 -0.23080640496735105 58.48022141801692 255 255 255
-581.1634619748488 -0.22798019488226373 58.5252132093239 255 255 255
-588.0817003725957 1.8659896256032384 45.429213630603854 255 255 255
-591.0254271390983 3.1343712227297216 57.01491193663264 255 255 255
-590.197222351798 2.580685588000819 49.60804667265417 255 255 255
-587.1065465696511 2.7573514767806415 53.036034163485205 255 255 255
-589.1004676331108 1.8911551657909556 48.04525761033989 255 255 255
-582.2504756241209 1.7587174111846784 48.14825020830234 255 255 255
-582.7853606802884 -2.2947729349782424 62.00372292596145 255 255 255
-581.6960162870412 -0.7051422931699318 56.424277852888345 255 255 255
-581.6146164856414 -1.2589966712764387 60.12957259338928 255 255 255
-581.6692759753968 -1.234344624644259 60.11598491546725 255 255 255
-590.7526656789012 2.768465979922283 53.33447989455636 255 255 255
-589.5521662739058 2.939985700154988 53.329338940243936 255 255 255
-588.8094901499428 3.0433297874943745 53.32281014480421 255 255 255
-589.9610716401554 2.362244312653523 50.029460291673786 255 255 255
-580.4534831357415 -1.7066993049816812 56.79200434972205 255 255 255
-581.9983783308404 -1.6287716315235876 56.391435607225944 255 255 255
-581.3563097321761 -1.38418164611151 57.011965863906106 255 255 255
-580.256863394177 3.06540626354639 57.021693657628745 255 255 255
-582.380802614263 -1.9411592378818145 60.0772460941713 255 255 255
-581.8798365801478 -0.13807615184920508 56.74214986473571 255 255 255
-581.9510282989394 0.15034764772319642 57.472679237142316 255 255 255
-581.1375609131887 0.11374429433414424 57.722040285907596 255 255 255
-581.193572929948 -0.2558235840015288 57.444066400097526 255 255 255
-581.6358873052828 0.6835902460290315 57.25746764895003 255 255 255
-581.0729766530716 0.6708782660684127 57.408990013938016 255 255 255
-579.0374942036995 -4.419427879916117 61.77601167972134 255 255 255
-580.7794697029899 -3.661584509827019 59.313693707819624 255 255 255
-583.2706534859012 2.1241822130306787 47.95086598185268 255 255 255
-580.9735824269543 -1.1872509460195806 58.49160879608756 255 255 255
-580.448429792275 -1.7412772772154819 56.097196217635684 255 255 255
-586.3474674085472 2.3803861315809423 49.472674426891444 255 255 255
-581.407843212605 2.7930990390381307 52.317957563487965 255 255 255
-583.7331506539783 2.741925156795768 52.57839493677317 255 255 255
-587.8365083640118 2.0533144125418934 52.379723245303744 255 255 255
-581.2875678203602 -1.6509307758388134 56.2046061229218 255 255 255
-581.1205599036696 -2.089700973462965 56.74067071509597 255 255 255
-584.1833955263664 2.6797690310836626 52.56675440688583 255 255 255
-578.5095179680806 3.2836877339419934 55.67419862371752 255 255 255
-580.9648350749075 0.42054235986974664 57.37339971595911 255 255 255
-581.158399076061 0.3345855989403135 57.621301153380344 255 255 255
-579.5049947101896 -0.45076948109904347 59.24435688562972 255 255 255
-580.8047764696577 -0.2558589487113081 58.63708647822662 255 255 255
-583.4196361298949 2.4271881648134785 49.177347716815326 255 255 255
-580.7596835227484 2.9739060261962726 56.95633074801013 255 255 255
-582.1605274970558 -0.1035193150088487 56.58456810815399 255 255 255
-579.6717182651422 -1.827362947914028 56.30319949636758 255 255 255
-581.025512614859 -1.46113022247803 55.910859650739 255 255 255
-579.8967139163253 2.474522897127157 50.0034131008544 255 255 255
-578.9237173292107 2.793068286184468 52.13743685692059 255 255 255
-579.0876692354659 2.916197723583442 53.86754383863577 255 255 255
-648.9986837857896 -1.2858301411385007 83.39738463211475 255 255 255
-649.7203530729581 1.1784446095804544 76.20821802313715 255 255 255
-649.9471747543083 3.4454346752675242 67.24827249933051 255 255 255
-639.9027326353443 -2.0529144561722834 79.36150373246801 255 255 255
-650.3886188483257 -2.410087049547876 64.00701333091659 255 255 255
-643.0911686499107 -1.0552987820461635 65.0721379486016 255 255 255
-647.3913100573322 -2.137008222948401 63.12129025248475 255 255 255
-649.0835313575789 -3.725907820498019 77.21088873879376 255 255 255
-645.4069467052562 -1.7980830267199295 65.41559417330836 255 255 255
-643.5528011535293 -1.9706298345400644 61.71973204947846 255 255 255
-650.2839654690323 -0.8911113666392776 64.61628503322528 255 255 255
-645.7568143806407 -1.6869051777415613 62.24299076946184 255 255 255
-649.9124225760407 0.6984195374763686 64.1923450449127 255 255 255
-645.7272842170613 -1.357470490990579 63.07092260168478 255 255 255
-641.2530296582341 -3.0883843958097383 62.49289190053377 255 255 255
-644.9477460939128 -2.0667225511098106 65.25143595054365 255 255 255
-645.2519093334295 -0.9300852433539006 63.06601878338442 255 255 255
-646.3651893926768 2.358808794912906 57.61885219480688 255 255 255
-646.665893610562 2.3466290776788385 57.94002802821698 255 255 255
-637.6405234586564 -2.003087804248352 59.99543998078559 255 255 255
-644.3722600283495 -0.775617886191176 65.23251957803815 255 255 255
-643.1723020044371 2.589413457995943 60.04033174630478 255 255 255
-608.3365056370973 0.5890625229706252 73.9358022767444 255 255 255
-648.4178586573627 1.8363142247659168 83.74260791897629 255 255 255
-639.9723061073424 -4.325916878379868 62.81028820580022 255 255 255
-641.161137448692 -2.5214532945883565 61.189520583319286 255 255 255
-619.4011863386586 0.07685401508510203 61.16087412493535 255 255 255
-641.8444568812561 -2.385122057879814 61.06515447005481 255 255 255
-644.6700333642415 -3.2513792483640103 63.19684099124848 255 255 255
-631.20607748634 2.5254178098832485 56.67566478474319 255 255 255
-625.1651395643214 -5.44948552981994 44.09798238493106 255 255 255
-607.615393125818 -16.17798534979179 38.28120035912828 255 255 255
-640.7554483123208 2.2717501261109456 55.019951909135465 255 255 255
-632.8133863918376 2.9299599632087805 60.767254295609035 255 255 255
-610.0846910277842 -3.114036513881091 38.775044997794154 255 255 255
-590.3006036341518 -14.526535591266358 33.54345892495951 255 255 255
-608.9216012882944 -7.384885576853193 38.409000681372454 255 255 255
-641.3842486572725 2.1827663373760737 55.25333674506727 255 255 255
-639.7952567185044 2.096671704459311 59.11009770932776 255 255 255
-608.580027791876 -14.170256635867112 33.070955195163336 255 255 255
-642.9895196077783 0.7777918681260108 52.55804002251364 255 255 255
-597.1381165469401 -5.748801595671546 59.719284748980115 255 255 255
-607.3550811387598 -7.416899560908894 38.27482999212748 255 255 255
-629.4625593728643 2.5304423247559784 55.46345540044599 255 255 255
-601.8153788944662 0.22200295050273144 70.71243197948577 255 255 255
-615.7039467218503 2.3379591764975194 52.81211434302407 255 255 255
-583.098106196398 -19.703283106306525 33.084349683991455 255 255 255
-616.7430690829755 2.736019788542259 58.26494440706012 255 255 255
-588.7755581247851 -2.4729922353474953 35.33993793749951 255 255 255
-610.733153937741 2.572961150946177 59.62208953530892 255 255 255
-591.3524234743862 -6.0007667571244525 61.13004010520945 255 255 255
-583.6319199041247 -12.293602312841983 75.6902948946526 255 255 255
-605.8998840693519 3.1377591819845416 60.81595846956454 255 255 255
-606.8014684305334 -5.992841049833368 37.60642327367873 255 255 255
-579.9215893739497 1.7513873192341556 74.52901516273286 255 255 255
-608.5850793553024 2.3204809605989785 51.88158902751348 255 255 255
-596.6911360111376 -1.5917914839357215 37.00592485164053 255 255 255
-591.5405628915786 2.9980941881256005 60.87791431120179 255 255 255
-650.3802023719489 -0.8355571750947384 68.87706026962316 255 255 255
-580.772647048368 2.384271810639027 48.94793614025882 255 255 255
-641.5026102474072 2.0958573592923067 53.92990603176864 255 255 255
-641.5037512725008 0.754027883934004 51.933908423234435 255 255 255
-631.4954609671315 3.107101575922525 64.75067080167898 255 255 255
-641.2111436542002 2.6366331184338856 59.51512667482978 255 255 255
-645.3366996519776 2.1414266469517838 54.63352866817784 255 255 255
-631.5308634280622 -0.5922603016569461 64.44048182553368 255 255 255
-623.0811100073748 1.6626478925163166 63.50709781695316 255 255 255
-645.8782127231117 -1.2833371527138322 64.74356095594413 255 255 255
-644.9821194043823 -1.2250164320288572 65.59819050345132 255 255 255
-645.2350257962458 -2.587863111356153 62.92172251508651 255 255 255
-633.3907277401667 2.7351559360172555 57.795093928617696 255 255 255
-644.2229574679012 2.2815722795864675 63.85392591868585 255 255 255
-639.2652916299311 2.591307698574215 63.0602317623982 255 255 255
-598.6091384136779 3.6954001187227457 63.49366469133485 255 255 255
-638.516728000688 -2.521430946563239 48.58505686733663 255 255 255
-635.2124873419356 2.66844669446414 62.413095884750874 255 255 255
-648.4381047913907 -1.5231495753484072 78.36959241400913 255 255 255
-650.522100566912 -0.7511829134062911 63.90174989274648 255 255 255
-647.8247386484833 -0.21869243784727743 70.42903270146982 255 255 255
-647.3119869808918 -2.8436769046329893 67.4175931920265 255 255 255
-648.6372984988982 1.6857863048088877 83.50992055359407 255 255 255
-649.9599973416252 -5.0383321586640175 81.64769030545057 255 255 255
-648.9612907322482 -5.297145728973769 83.33150104818793 255 255 255
-610.6569473560685 3.2558219694852335 62.556380385898194 255 255 255
-594.9770189453625 -11.373301826061862 37.87794178365465 255 255 255
-610.5901601739456 -2.7782441793693433 40.06215967227271 255 255 255
-641.574669661855 -2.3413943598822122 60.52872683769718 255 255 255
-591.9488191711242 1.6682687613854443 66.57359871382187 255 255 255
-641.2847579029885 -3.203802667514008 62.03624641826994 255 255 255
-644.3145979401367 -2.753696434281391 62.57231647314664 255 255 255
-650.2076175390813 2.5819273593584224 60.718576215601104 255 255 255
-642.7613901678232 -3.541619848257085 60.28825814341265 255 255 255
-642.0068833525078 -3.0628712653001173 60.46818245118337 255 255 255
-642.1525770697575 -2.638257957467591 61.494872034969305 255 255 255
-645.7760858320291 -0.734317684773087 63.2189823147264 255 255 255
-638.7081374718592 -3.997450793690108 62.678255811008924 255 255 255
-649.0466877755708 0.6988047049600166 82.09928483893006 255 255 255
-648.1205621247227 -0.6626755451142152 69.64762724951323 255 255 255
-648.6112771621908 1.278954991695267 69.88173418313075 255 255 255
-649.2967260316792 -3.081136337969653 66.21774012494957 255 255 255
-641.2310706573207 1.7991832846678042 50.64382168984405 255 255 255
-643.1247136363902 1.6195166693244305 52.95126215084519 255 255 255
-640.1623188848398 -0.7201396602788392 50.39389890546617 255 255 255
-589.3404623615808 1.0440476847637226 45.126650458390976 255 255 255
-642.2329920331035 -1.789436598568896 60.15556234670524 255 255 255
-649.9847992986726 2.152683218364646 64.1144791849279 255 255 255
-644.941548857559 -1.1731264223052804 65.55545606580395 255 255 255
-642.3053600059768 -3.146487768387665 63.09260423083758 255 255 255
-648.4934575937464 -0.5697632807272548 62.92074728114783 255 255 255
-645.9226676796694 -1.2684765252121295 62.581368098698434 255 255 255
-647.8801459463677 -6.436410727402478 78.40836909481649 255 255 255
-648.3056325277098 1.3555467681493862 70.24101147456696 255 255 255
-630.5159908174614 -1.3082931904257222 46.59888416064049 255 255 255
-642.1795609063155 1.3042906344191882 53.92340314288323 255 255 255
-642.7823541693625 1.5141234576987976 53.447110905937514 255 255 255
-649.9404503195993 -5.73152278794279 77.9932269817193 255 255 255
-624.2969196939246 -0.0506204950655027 43.072837737054556 255 255 255
-634.3827604301972 2.1979596450883374 62.7430002574842 255 255 255
-620.1538109353165 -5.121538024404186 42.10027576163955 255 255 255
-587.2023861673018 -16.22953974017385 36.68949557997354 255 255 255
-627.346276680448 2.6469630383350324 53.49334032840459 255 255 255
-630.8183079989623 2.5950289207280566 56.79092136989443 255 255 255
-638.6250619308428 1.6877774675396315 65.99725194475829 255 255 255
-616.9766146453949 -1.4883066754656795 72.42403101279416 255 255 255
-634.5785744928254 2.8471044638816867 62.959708730169226 255 255 255
-630.9866392941701 3.027531005903536 64.96949602736554 255 255 255
-641.7287445320084 1.7701846755021284 50.99775115169757 255 255 255
-641.9392916399732 2.8463184196999247 63.348870714911776 255 255 255
-636.1615540423584 -1.5925743360214728 63.07212570166992 255 255 255
-636.4484602983798 -2.2109971134466537 60.36606321058607 255 255 255
-649.6626704598216 -0.6896652070731815 78.50264984271747 255 255 255
-648.8533625488043 -1.4950184264549993 77.73762076125882 255 255 255
-645.3576090227243 -0.781239383324273 65.26255260206274 255 255 255
-646.9504198833735 -0.8336856301775164 71.16168395822562 255 255 255
-629.3677920395796 2.86416541886227 59.00578528483949 255 255 255
-640.9174760988776 -2.718149432949426 62.98623223986249 255 255 255
-619.1718104916292 3.0516559468721436 60.43610813986278 255 255 255
-614.3942462560035 -0.6619594874344195 60.4845976571815 255 255 255
-647.4556929276281 2.9872294844972505 63.004859637222474 255 255 255
-643.000459644871 2.1497589741969083 54.3611890910335 255 255 255
-623.8440699433763 -7.389155440816797 62.69840859467967 255 255 255
-605.4305807937444 1.442574891838714 63.959854762846106 255 255 255
-618.1051584056686 0.5623017701258206 70.75985679332241 255 255 255
-628.3232465928704 -3.110143112426087 61.75854528906627 255 255 255
-621.3897857832994 1.4711972583740938 68.6840194870417 255 255 255
-629.7102562443812 -0.6087606867795738 45.85049784749353 255 255 255
-604.3029704708345 0.48406153152580167 61.27997089079589 255 255 255
-645.8979932479399 -1.6179823261571826 62.747147744355594 255 255 255
-637.0340927012793 1.1404128499286639 69.72450043804172 255 255 255
-635.0135206642184 -6.1035588745433245 61.15902694578373 255 255 255
-645.844388036342 -1.4915747696063733 62.261258002435326 255 255 255
-637.8570065760656 2.50329576006476 57.801025418774465 255 255 255
-635.9231449412808 -2.811601808168673 60.897583647611825 255 255 255
-640.0059975022112 -1.6351823040664666 61.49481841475443 255 255 255
-649.2886817251606 0.0569798136275228 76.56823036498918 255 255 255
-650.1771539498586 -4.5404639608320885 76.05415322055012 255 255 255
-615.8526396879656 1.1451588869138076 44.536289766641914 255 255 255
-603.6925651150046 -3.506772547373438 37.54769451769608 255 255 255
-588.4110506874912 -3.8127495654748116 36.083631369163164 255 255 255
-611.2301919867494 -2.4127096219263837 67.30905527699153 255 255 255
-633.230360656107 2.284563677880058 54.559542527345585 255 255 255
-646.7060348984899 2.183570978424349 55.81915732864621 255 255 255
-639.0178378754633 1.6741593114591709 65.7940386324637 255 255 255
-601.3191995677887 -3.178337746467217 69.22763308058532 255 255 255
-638.7374391916584 -1.0129088343165957 70.37882201763458 255 255 255
-642.7815878574562 -0.4379304184765118 67.52260930095642 255 255 255
-635.8175461808531 -0.356801850837714 66.09657572899023 255 255 255
-635.4536559574582 -1.4229016600641646 72.48600463558904 255 255 255
-645.9971198868851 -1.6212873640121455 62.9507791883672 255 255 255
-644.4081596495311 2.9751074974104004 64.35478076813969 255 255 255
-644.8466424255384 -3.0464223443072296 62.9451738417418 255 255 255
-613.6491511868575 -4.267812336758908 60.637187760720565 255 255 255
-607.9654311869122 2.9626473014441723 62.72211589256588 255 255 255
-646.8359370706045 2.1885408663868944 55.803898802563225 255 255 255
-649.4482315412135 -0.5392156895166256 74.34605315031192 255 255 255
-647.9429532834318 -3.175864244204581 71.40704980389324 255 255 255
-649.1777841869186 -1.0450412140187346 67.44366819740847 255 255 255
-641.0187703098312 2.1499911516791954 53.75197666529385 255 255 255
-636.5457724550083 -1.4199673319779134 62.22298543843333 255 255 255
-604.2532178899307 2.7662663568862427 59.56977938841661 255 255 255
-650.6797975639214 -6.31905619994974 41.75969091558814 255 255 255
-637.7208330038176 -2.190575404872531 60.31533088980254 255 255 255
-636.2361520372673 -2.3207003300891085 62.0414030730999 255 255 255
-640.1397257965842 -3.401663521034015 61.51002332247154 255 255 255
-612.549080193323 -16.880073718215336 35.84422131138275 255 255 255
-608.5814743337605 -16.682472134462255 37.85145797768815 255 255 255
-607.8915245666999 -16.972326941275973 37.53971450374756 255 255 255
-635.9424736925371 -2.264009849843461 60.11653484811021 255 255 255
-629.5747611382982 2.876638770955595 62.05081252143275 255 255 255
-635.3759252255319 -1.7229440806804046 63.27628893758584 255 255 255
-619.6499242240868 3.1205809194149805 61.78544606339148 255 255 255
-612.271362572817 -15.108666253088973 42.32341866582361 255 255 255
-611.4509673719807 -10.650933461448357 37.76244206035293 255 255 255
-608.8361016532557 -17.756417540007547 36.9942927492704 255 255 255
-633.3018823908949 2.385140517649285 56.87125456603323 255 255 255
-611.507712918568 -13.810365753370371 37.079497290693425 255 255 255
-646.7955982062126 2.8101677324848815 71.69223618779502 255 255 255
-649.6180829999578 -1.1117224569675326 76.32957014821355 255 255 255
-649.8699009108864 2.5394448856088836 63.92343796008922 255 255 255
-647.9211527656929 -0.699782871049937 70.01231520398677 255 255 255
-648.7821842022946 -2.3540120554051907 77.74427315443336 255 255 255
-650.0584636391317 -1.3445066893648452 63.79431388515981 255 255 255
-648.4623090628869 -2.260156088080171 62.99390232946352 255 255 255
-646.157715404938 2.404571063590663 58.85594396983751 255 255 255
-645.3965753659292 -1.7468793891731025 62.708009048813366 255 255 255
-617.6698060186311 3.627311181153523 64.4218087433128 255 255 255
-637.6138641356367 -1.4525947580345235 60.122697026179715 255 255 255
-641.3600840179957 3.4621189340479166 65.69056844811868 255 255 255
-645.6876243668098 2.7393402006426824 64.71542526878758 255 255 255
-643.9578369772933 2.6462010791405284 64.0956478043597 255 255 255
-594.5868929528191 2.8390690199978774 58.14928701124902 255 255 255
-644.4361966662814 -0.8238284479657736 65.47288106448507 255 255 255
-649.2993683339417 2.903492205130088 66.29251221856987 255 255 255
-648.392386648649 -2.6013633619063903 66.7532114053407 255 255 255
-635.1277139661026 1.1756540989543458 69.8540999808261 255 255 255
-635.2961930603087 1.1777619076976347 69.76389944433129 255 255 255
-649.3371510531317 -0.8735940089679648 66.80263632304475 255 255 255
-644.7658625963617 -2.0410203019033126 62.10087940226393 255 255 255
-650.0478073579578 -0.815690669757176 64.17302134433216 255 255 255
-644.4894829607214 -2.418708912298225 64.0306164063164 255 255 255
-649.698749467905 -0.8907631344807481 64.40862539384707 255 255 255
-646.1640466757939 -1.4676053970562677 62.12721311489254 255 255 255
-648.8687594124451 1.4047778091039813 64.57592334594406 255 255 255
-631.8543007334573 -4.281922678304541 61.013805930197215 255 255 255
-645.693671086341 -2.342945413890668 64.71280375201022 255 255 255
-644.8649473259865 2.129621359016169 63.59331932231975 255 255 255
-645.13964477078 -1.000968126678405 65.46712653134377 255 255 255
-645.4482784204322 -2.7003504294481697 62.78700398484524 255 255 255
-642.776025630363 0.8981381996629487 52.88378914738685 255 255 255
-646.7408155143175 2.2661136963195476 56.96495006353531 255 255 255
-639.6605373929768 -4.086017306258148 62.00369991024917 255 255 255
-642.9778976941495 0.8888864824713867 52.9807829841524 255 255 255
-643.2826888282672 1.8387590930157796 53.35839817173169 255 255 255
-626.7297820301036 -0.1345899778750681 62.48463988630595 255 255 255
-640.2219140023095 -1.1439566061609447 59.70175096011276 255 255 255
-638.285915210819 -0.1785761554128129 50.50217141723607 255 255 255
-642.4652312152966 1.6127109234448147 52.55371130873033 255 255 255
-588.1803129673171 1.5160099060546801 45.21312365405632 255 255 255
-631.2439195793779 2.9237755735687116 63.14409366669062 255 255 255
-628.2020102927603 2.2234010916768083 54.023452700405635 255 255 255
-641.1439550431331 2.9783516524244824 63.61930000449386 255 255 255
-592.3666104243013 1.9033466099007805 67.23582528223751 255 255 255
-601.6509085975885 1.3459476740050627 60.91970315010853 255 255 255
-618.3846619914652 -1.3070658823412575 59.964850792450456 255 255 255
-633.4447206594913 1.9317348712655384 49.0306951333298 255 255 255
-618.9985699032243 -0.6694745789721184 62.62542565978878 255 255 255
-646.2367674187177 -1.6339323618709898 64.99926235892501 255 255 255
-649.1949344584519 1.3016195737310916 64.34286602195424 255 255 255
-644.3034967825427 2.7515747932575287 63.91994903282364 255 255 255
-641.6579318098452 -3.776924319672652 62.4499234042488 255 255 255
-648.985549273154 2.358003802110513 59.20642498954195 255 255 255
-649.5276956792159 2.4639075633969814 59.64750261514331 255 255 255
-618.3553270024718 1.8180330509452327 69.40114043815767 255 255 255
-629.302337770178 1.064209777355881 70.27443757400592 255 255 255
-589.7339100781837 -1.516322602410832 71.62245902929156 255 255 255
-649.5825511661008 2.1447206271876382 56.22576258794393 255 255 255
-649.8839091807096 2.1091871051297426 56.32530020413156 255 255 255
-649.929992557609 -4.66593955719372 76.4694767974796 255 255 255
-637.9051236083244 2.231136890838342 54.80910499633531 255 255 255
-610.3085559612922 -17.81409605882115 34.479152399517304 255 255 255
-648.9769120230357 1.6743186219984825 82.88966926229563 255 255 255
-643.1224015094682 1.6071118621329061 52.926805447901074 255 255 255
-638.415674296891 1.643667737683833 66.12742983088847 255 255 255
-630.2066979747234 2.5306858471936824 55.47888470011003 255 255 255
-643.7563058031924 -3.4178118846636156 62.394233462154304 255 255 255
-638.8936960286779 -4.5886324585977665 61.50992447805162 255 255 255
-596.1870387516432 -1.1308184931243375 70.08050046044889 255 255 255
-639.8787295371235 -2.5006726560053476 60.973469721151595 255 255 255
-645.6363693037594 -0.3715488284548645 63.38097742950844 255 255 255
-634.2646535925159 -0.6413369728282383 63.60364396048135 255 255 255
-631.6443616641175 1.0003119854719076 69.3321612630522 255 255 255
-600.70798630125 2.761613880749957 59.562322939919156 255 255 255
-629.5967532773307 4.032966130081711 68.61416485146685 255 255 255
-642.9212982355167 2.890557711562681 64.6062565603626 255 255 255
-643.8804697271701 -4.046019830760054 61.870110097205895 255 255 255
-598.8015736374335 -1.7117278307552253 78.93283417387067 255 255 255
-647.3853606710727 2.822293897719744 62.222184011682515 255 255 255
-645.2780373303481 -0.13477150301740792 64.88939502235233 255 255 255
-638.6732885622138 2.5869974661233455 63.10703242781398 255 255 255
-650.3423643411452 1.927250576863667 61.479942281832486 255 255 255
-645.9107806696006 -1.3241724517587699 62.546105916121256 255 255 255
-632.8530261515425 -0.9822334563476218 62.14651973804606 255 255 255
-636.9777999688234 1.4473111387651292 63.80094667316674 255 255 255
-646.6590626460368 2.184483437491841 55.79511540275756 255 255 255
-644.3273821585636 -1.84147297540642 61.710009570696236 255 255 255
-624.5995452322096 1.6365851666442932 67.43496976230419 255 255 255
-629.6765756514503 1.5638805651188923 67.05022252332874 255 255 255
-645.6779171802915 -1.3847653148548211 63.438567944328796 255 255 255
-619.4392249110805 -1.4716830529958642 61.64722935702156 255 255 255
-629.1630774234787 2.6179635364787934 56.16431970846459 255 255 255
-588.864540153554 3.1662328715701715 58.236251256665604 255 255 255
-609.7795753430787 3.0712955424504593 60.50566697708095 255 255 255
-583.1370994369347 -5.43398597983886 59.44449977441053 255 255 255
-612.4250250080978 0.9084700175182281 61.44114777060004 255 255 255
-597.3730841281282 -7.321320532291667 37.79100874304859 255 255 255
-641.8686165098333 -2.6947779983453515 61.05425201884792 255 255 255
-643.695096495141 -3.071067586157385 66.48070988331571 255 255 255
-646.205201319892 -1.3824141121689024 64.1411103029336 255 255 255
-649.1127347602309 2.5115024727527677 59.883419552860346 255 255 255
-645.9444009524292 -1.8692777710554935 61.92885195262345 255 255 255
-649.7610325713105 -5.815688736252541 75.20980811053388 255 255 255
-649.3903544484116 -0.7241185737128237 67.17144604980126 255 255 255
-647.3165374908493 2.822164171608752 62.21982062172276 255 255 255
-649.8984690420606 2.2184840991685713 57.03176892721471 255 255 255
-624.3899242789846 -1.6986765401108066 62.97273666394279 255 255 255
-644.9044480934646 2.3447102980011065 55.15721217808117 255 255 255
-648.7497591896424 1.6932930213396205 56.81518404399856 255 255 255
-613.1963576246645 -0.37631171305274247 38.64597265824333 255 255 255
-598.4336804515102 -15.770164235310094 37.99580753409389 255 255 255
-610.0084246785741 -2.881531773486742 39.84626034487247 255 255 255
-614.562634206274 -6.610053149267099 40.3144624035319 255 255 255
-644.518492969866 -0.5466460684734749 63.85233789637162 255 255 255
-645.2423386135325 -2.475099201623852 63.213551275384305 255 255 255
-645.3478204717201 -0.7251597516671513 65.11964967334549 255 255 255
-644.8428912837103 -0.8606344063849143 63.58227159721861 255 255 255
-649.3858563342393 -2.269084406930663 65.99534039412625 255 255 255
-640.7407909755588 4.084071566641893 62.06811210116245 255 255 255
-648.2545868205934 3.0614798023786918 66.95057589512297 255 255 255
-627.4985743367047 -0.8163108912817112 62.53967292266256 255 255 255
-643.2753470116205 2.200188703139384 55.34294163788414 255 255 255
-643.9417689114216 2.174050150054345 55.450132218312554 255 255 255
-629.756886366659 3.187221717000293 62.01455703829062 255 255 255
-639.5482898954552 2.9621548703961578 51.87654138328071 255 255 255
-648.2893104308475 -5.7717879629729065 72.83552986879178 255 255 255
-649.641334529262 -4.733710661797231 73.54447318692004 255 255 255
-640.918765483065 3.0020762219141988 63.71319316299969 255 255 255
-650.0637750914104 2.4799156391023356 63.820837844299 255 255 255
-644.4545002028284 -2.6802737941196373 62.74437782776597 255 255 255
-645.3854159007531 -2.8413711425361896 62.73324701329193 255 255 255
-648.464265827529 0.48046441312356336 83.49829714618053 255 255 255
-589.7030223760696 -7.632003320381928 36.87136919229012 255 255 255
-607.2730144877794 2.804765163593375 55.108083164926484 255 255 255
-591.6089172262032 -11.54764700216117 37.39430672163464 255 255 255
-610.0164679286567 2.199686882380185 52.25277717952547 255 255 255
-647.8005322408883 0.0009623134951581847 84.8533042180937 255 255 255
-649.9798244316304 -1.0102945966706578 64.81575806057846 255 255 255
-586.412552943535 1.369409927170932 42.26112606305188 255 255 255
-579.0415158175076 2.6618860662667236 56.49871481817167 255 255 255
-645.2064340091754 -0.6551274928753266 65.24199025541068 255 255 255
-642.2720539343197 -2.589792665330201 60.98865994627608 255 255 255
-626.8025972441064 -2.9248831572406804 63.14136509980469 255 255 255
-648.4071357076365 1.2064365224390983 67.11196018624923 255 255 255
-642.3022300393437 -0.7096490597956961 72.37161390473162 255 255 255
-650.2875856889651 2.1611678663284133 57.13207263572029 255 255 255
-639.0116230474869 -2.9014218463503543 60.79567745114814 255 255 255
-649.7261431408242 -0.6984909137802973 76.12348599188549 255 255 255
-649.5723713505314 -1.3989542484304067 74.08533140365827 255 255 255
-646.9168494131741 2.3055065426994608 57.885981415639435 255 255 255
-646.8590345438824 3.0066450954404216 64.72180622406836 255 255 255
-630.5220514968565 -5.094494701171085 68.32804025128357 255 255 255
-646.4704326387232 -1.847021271474171 63.61025132804182 255 255 255
-612.0437123381546 -9.9124897167494 36.54266219220666 255 255 255
-613.6813902261682 -12.633321619510394 38.95731555570725 255 255 255
-640.2674451707617 2.1719299339621596 54.07430735220187 255 255 255
-642.7895671283022 1.5829497457109598 54.003939190875975 255 255 255
-634.299469095084 2.14895809184298 55.008784345782246 255 255 255
-643.5193475812277 2.442970434899732 56.93866356662615 255 255 255
-649.8342796297401 -4.612036243582029 76.56270229347076 255 255 255
-641.1291506308227 -2.4605851446249094 60.61688297259319 255 255 255
-635.0728955628523 -1.7908646272135194 61.51035038526504 255 255 255
-641.6489048186793 1.7701481879779166 50.89226397458692 255 255 255
-646.4480095530663 2.313794671758882 56.884647050656255 255 255 255
-645.2555858780908 2.672314387112877 60.25460128611164 255 255 255
-643.3003030397323 2.7190241084104514 63.05492264116725 255 255 255
-645.149091306523 2.8129104555909903 61.869170344053394 255 255 255
-596.2001189407654 2.120812750852025 69.76893837568578 255 255 255
-644.0691125861748 4.113195946351422 71.84713955712574 255 255 255
-625.0143105958824 2.223384743236265 69.55236948958373 255 255 255
-645.7533165395051 2.635778118347874 60.545820498503794 255 255 255
-585.7034882945279 -1.2510459323361136 72.39122904823905 255 255 255
-644.8613110952675 -1.4398611085408461 70.34081103131463 255 255 255
-650.4341597048904 0.9829822508848665 63.982373929319316 255 255 255
