-244.15635191795243 29.66398481421309 259.715175610124 255 255 255
-284.2955242945533 29.37891956012026 259.9283055555121 255 255 255
-280.78853535445296 13.227364601091978 265.94887266403936 255 255 255
-251.69345314130595 32.32105775955552 263.8729103153096 255 255 255
-260.5415188027965 32.18569872985171 270.275523462642 255 255 255
-254.82203105278208 28.396799806981765 263.3330461673878 255 255 255
-254.42540244008248 32.52458665759433 269.8410559954481 255 255 255
-291.4860862908545 19.86400617604702 269.15042705253734 255 255 255
-281.6677351099304 26.889636417225542 264.08840475246404 255 255 255
-273.43209989631185 28.385640145382574 263.34223286563105 255 255 255
-279.7909082233841 26.313934933936697 280.318373683148 255 255 255
-261.6253588218626 27.907992930478013 234.84774643605346 255 255 255
-269.9579659587376 27.893814187716888 235.49432566003594 255 255 255
-260.9077013755359 20.187679880800037 216.87498449070137 255 255 255
-297.3835382995558 27.028835389435216 253.66085942549975 255 255 255
-280.7422967149338 34.14306940799182 278.6562566739877 255 255 255
-239.64888475203782 25.623779214419226 275.5578245270601 255 255 255
-288.2549737381985 22.78713420627345 262.9169619229833 255 255 255
-309.9587194623994 20.78472156658172 263.2977486289292 255 255 255
-250.46109643255213 26.792794623252032 275.471314668089 255 255 255
-246.8622702420301 32.136431291016606 261.0782205742376 255 255 255
-236.87422926653488 35.73527712394285 281.5481935493614 255 255 255
-276.3151199585867 15.487969328522183 230.9137299160925 255 255 255
-270.8530988820683 25.891337597829118 224.55093251457217 255 255 255
-243.789012520643 22.86826468287202 262.595788872837 255 255 255
-240.31533145599926 29.26727678151329 275.11381100766124 255 255 255
-240.91095712921668 25.90712493050265 272.93966731014854 255 255 255
-277.8994343721136 25.233792319480347 278.8242278015397 255 255 255
-238.81609590523354 33.76736491446531 271.93608620703577 255 255 255
-237.8305265576823 32.03178454131965 260.6805660662524 255 255 255
-283.1693651921553 13.084043602456273 258.2481683374468 255 255 255
-288.0316240755058 18.98340808638155 267.36465769501194 255 255 255
-253.29063623161963 36.21494543357873 299.9827491503212 255 255 255
-277.05286199521555 32.06091287649708 275.8100404268671 255 255 255
-280.39361627408164 32.71622553179605 283.855903398269 255 255 255
-308.10389940423335 14.217297047400436 289.5222853191799 255 255 255
-281.97972105533927 28.368101793762186 263.9638401644451 255 255 255
-260.7343883991092 31.847092071472506 268.76384715441094 255 255 255
-283.7104297278367 18.911123258370324 253.32992692967764 255 255 255
-276.2175677575796 24.240802556759594 251.89041032957957 255 255 255
-282.56244741147236 25.271187623260897 251.23526063106058 255 255 255
-277.27299754107304 30.24172772851962 265.63405292106506 255 255 255
-275.18111007585435 28.442166542903283 255.94901843298535 255 255 255
-274.29372827019154 28.453397590750257 242.83708065410883 255 255 255
-290.8472314599277 30.822842328859128 286.0808462969464 255 255 255
-259.12478633543606 32.061561688202296 270.17888064642085 255 255 255
-256.87448141319857 31.677274143731907 265.21659248839774 255 255 255
-300.9578451978804 15.810031642281745 247.42198938414646 255 255 255
-273.68079980704584 28.74927083496682 262.3448851927058 255 255 255
-237.90403817599474 33.463425440682514 272.9588471157676 255 255 255
-249.4975518688091 15.392558678592744 221.36724519934558 255 255 255
-256.3469394045127 17.581433989277762 215.5299370345919 255 255 255
-273.1879576477837 28.841465731691713 244.4646997309007 255 255 255
-284.95892419468987 19.948427548675912 250.52989397598247 255 255 255
-276.2056244228085 14.93062770383319 229.20169594600253 255 255 255
-276.1991443741862 14.3970099135097 231.1294753961016 255 255 255
-280.67554247751434 22.945378022180574 233.59454021144205 255 255 255
-281.4585649791856 25.059275182544916 246.02411923340236 255 255 255
-247.48737458253908 27.887662419155987 275.43765789612394 255 255 255
-245.11139301554726 20.40968413572053 261.1540241430988 255 255 255
-282.3809249257274 27.177997244857927 269.6445662627073 255 255 255
-288.6338192581206 27.23963758124313 276.0439375520472 255 255 255
-255.56999783795175 32.48870169718145 268.5885214546435 255 255 255
-282.7295036138194 21.262871516081056 259.89906506738606 255 255 255
-283.62274571236514 28.72478569613559 254.83956703415544 255 255 255
-321.52918986497707 26.133209750675356 298.52630883960074 255 255 255
-275.7468678454008 26.52932721774355 264.99992021982445 255 255 255
-246.5785722370015 32.79643817403508 264.6338613541555 255 255 255
-278.4577181635115 27.23407388677283 273.344248455252 255 255 255
-291.2658128382708 21.51299623480404 268.04985867580217 255 255 255
-277.00494868549424 30.79370684190996 264.3800798448698 255 255 255
-272.92333576544513 29.594821999679574 277.8771481179117 255 255 255
-277.40150279031843 25.89848775875824 278.81116484655087 255 255 255
-261.24615615411335 27.528500244122192 230.6924979663902 255 255 255
-283.25988719270316 19.9555828041155 258.30389727803697 255 255 255
-277.11202406264306 31.310106096536302 268.08417428946257 255 255 255
-277.39793754997856 32.36509761763071 278.2480899253585 255 255 255
-284.0732490993269 32.140591698954545 284.84779030727464 255 255 255
-279.76621744227725 28.709599955139993 281.33587295566963 255 255 255
-286.8290971598202 35.245804999028664 288.19838137072253 255 255 255
-281.9653309084777 29.724167761002036 259.87440707466646 255 255 255
-281.12227247836955 15.418972152118677 264.4006421366855 255 255 255
-245.94442410621957 32.80589502256405 264.55534168652594 255 255 255
-249.64628581828114 27.687643271464143 274.9138125032457 255 255 255
-284.4664975749307 24.147553548048716 259.25466925241847 255 255 255
-254.7691989472939 32.78593081892332 271.67784479039904 255 255 255
-285.61529387072557 24.080183162182323 274.3249138153526 255 255 255
-286.80331692370265 17.291587718191067 266.82555327032554 255 255 255
-277.72137703652675 26.47655068608621 265.47195291005744 255 255 255
-286.3495464939131 26.006719504431295 269.9270486703788 255 255 255
-244.21612736980614 5.78061868651112 242.20544152446513 255 255 255
-307.75885131928857 33.96919933513909 299.1442022000224 255 255 255
-245.3248175379443 31.180251943442876 278.3343001522521 255 255 255
-258.3945599194244 31.951830946270523 261.2951030453986 255 255 255
-258.87998431621935 31.89408758548115 270.18419597577355 255 255 255
-267.0480032982648 28.925250159492343 254.0191187713545 255 255 255
-274.2587096622754 29.229626083386385 248.91133874727248 255 255 255
-274.2711560033043 28.56968456351998 248.28475361372773 255 255 255
-273.9827728292665 29.481261167127826 249.2341496292484 255 255 255
-255.9951662417065 17.5852639600449 216.42953133044938 255 255 255
-274.6191217703053 28.93101680278292 246.6079033048061 255 255 255
-272.9457613651714 23.78309632373744 246.7494723473768 255 255 255
-290.1205825893481 28.249412410466775 257.2482851696078 255 255 255
-284.9855068349209 30.471331739069075 280.17091372290497 255 255 255
-247.5676470363402 27.17639408494494 259.31712530199366 255 255 255
-246.4133372279921 31.032786675765237 279.372067324384 255 255 255
-275.16635720845477 29.65075251166631 293.0339208380767 255 255 255
-267.4398130637708 28.855438343903256 251.2115704357343 255 255 255
-266.6407154013031 28.636536348421465 253.49403205670646 255 255 255
-274.70412821639746 25.605660993032853 250.7535701697791 255 255 255
-269.9233036239108 29.515949966837468 250.18980872118573 255 255 255
-267.6389736415808 28.86991149667173 254.1350126157418 255 255 255
-277.6583898739629 27.744335167612924 244.70432296478768 255 255 255
-275.3148822650186 29.07004047149345 251.31374169951798 255 255 255
-281.4697103054937 25.10089772569018 242.84908543456936 255 255 255
-273.29332681412734 29.547552171254978 250.35601775745386 255 255 255
-274.60096289333154 28.506667502462818 247.26909378356524 255 255 255
-274.9419646795721 26.317267251159087 252.0864845319762 255 255 255
-276.30812347711844 14.79265358061092 234.765269066004 255 255 255
-296.57037456584703 24.424510965102883 270.4845514459751 255 255 255
-265.8234605566959 29.008786210401183 291.0802725807747 255 255 255
-369.0811759365206 -17.747329470265164 276.0856600317368 255 255 255
-285.1555667137988 29.480744102492707 254.73577295694054 255 255 255
-275.3201099358555 28.414959517147846 255.85790829806194 255 255 255
-284.49654399905495 16.105666343589473 236.67789945872096 255 255 255
-289.68057387611515 28.915730126208217 281.7035421972512 255 255 255
-301.32919486293093 26.63103354589755 277.43569690443735 255 255 255
-271.56711430573785 29.74808867242873 268.2841134178667 255 255 255
-276.5995763259169 27.96979512572104 265.2163503361689 255 255 255
-283.90652095291654 26.421725435196926 253.81145379338892 255 255 255
-250.94174301543674 32.4029681445035 263.7959818385791 255 255 255
-251.91693642434177 32.50086500500803 265.93093797503263 255 255 255
-273.8147036599111 28.006556068519874 239.38318499369794 255 255 255
-266.6024440896835 28.512852256809403 242.20177858880493 255 255 255
-271.1180165359866 29.34205433286707 249.55332012083596 255 255 255
-243.39730388100446 31.84578791402611 261.47972876849525 255 255 255
-244.8687051084021 31.168685094728932 280.8516783994769 255 255 255
-275.0164236606804 25.900819220176995 267.73444679386927 255 255 255
-236.9196252474884 33.86322044788987 268.4274699390154 255 255 255
-255.06112184193836 29.702409381734487 278.1329044760005 255 255 255
-274.3807283470882 27.894960393714694 277.61689506662395 255 255 255
-282.695472351438 21.925882824661812 249.97295585940594 255 255 255
-268.64275424652294 29.398289687026523 249.93126458448728 255 255 255
-283.5480798196032 19.285853364199266 249.77863491324834 255 255 255
-282.6460188639765 29.46347684502811 253.99886111309513 255 255 255
-274.94282368638716 26.99517923040493 251.67966921572662 255 255 255
-286.22719541703634 26.907842479086675 251.3390407494255 255 255 255
-249.03248951841672 28.22908465915088 261.7697299772978 255 255 255
-252.21361228895304 32.35931529815501 269.4370784389314 255 255 255
-245.41451728161482 30.540926119570607 259.17137157885094 255 255 255
-286.9310534462197 20.465132164775113 266.5249735227054 255 255 255
-301.8815772615913 27.910253793969318 267.23709219281966 255 255 255
-281.3673639057435 21.420004542748114 264.99739429222683 255 255 255
-259.9096448016637 28.603476066683026 238.54946319947635 255 255 255
-245.58904460382712 16.79583180813102 221.22767113980018 255 255 255
-245.1303060595241 15.815248496086266 219.56180629535984 255 255 255
-244.04057649026072 29.747008255564566 239.71382059282718 255 255 255
-246.40016434714826 28.149241389343462 238.37454140965121 255 255 255
-247.71240116183168 27.97593033055783 237.81796928013563 255 255 255
-293.15567668722235 27.509804084456682 271.92891437405115 255 255 255
-292.29816782146196 28.508391087948034 269.3051021122146 255 255 255
-284.74260151550675 29.9428623322961 277.9100885908542 255 255 255
-275.6722924264784 28.957839522997475 267.3953474173833 255 255 255
-273.0341504353726 28.12026440411569 278.2697336231161 255 255 255
-277.745926518377 26.113764719190005 275.4131822903152 255 255 255
-255.87831190260638 16.068897001100744 215.9556671149084 255 255 255
-276.4293038861677 24.25546391924626 252.02099690186733 255 255 255
-266.7143727482868 28.836531714861877 253.89229564920066 255 255 255
-275.98837058090044 28.305746835666334 254.98545388948702 255 255 255
-269.3234195878629 27.214283669270685 232.03565845785232 255 255 255
-279.48448174595745 26.382621143077138 264.71611830549654 255 255 255
-286.30039952518695 29.935655007096525 278.45906245754367 255 255 255
-277.07518144399637 30.2415201584329 265.63712323245886 255 255 255
-280.51548924139945 14.02548003151427 234.40789225977517 255 255 255
-273.6482520105525 28.286847462285998 239.48994658277383 255 255 255
-296.5475851051165 28.611011344091214 269.12230413362806 255 255 255
-282.0699260723915 21.690505140389845 264.78012361618505 255 255 255
-282.0747706274354 27.29831495324902 266.37874893574013 255 255 255
-282.19520828538504 28.954041491898735 263.3243655511858 255 255 255
-278.15781596865844 28.484328461232042 264.2838192620926 255 255 255
-274.883678996592 27.173679862021597 264.9600072038004 255 255 255
-286.53845534906986 28.69998859016627 267.6762398843114 255 255 255
-290.43550519563826 20.636254913162713 267.4600296595245 255 255 255
-278.31031635094666 27.84366951075429 285.9348287883908 255 255 255
-286.2370477999528 21.33331319865654 257.8824066564413 255 255 255
-277.1760442762346 20.50676852652359 229.59465859531107 255 255 255
-277.16351037090715 26.557114312045037 235.7390529001371 255 255 255
-273.046875947755 26.53570245699911 235.3063109719057 255 255 255
-276.8589368418641 27.377740881728492 236.96610398366096 255 255 255
-267.35536832971883 28.441906584058678 252.26694590362166 255 255 255
-249.66760139544806 18.388511827025305 230.2072213446349 255 255 255
-273.8046228929412 28.81471705002759 242.26377450085553 255 255 255
-275.67114709405394 30.484327985256385 270.05697232969686 255 255 255
-277.7530702397155 28.795481833122338 249.646540964418 255 255 255
-288.37515840389256 24.345445766340593 243.9704290065677 255 255 255
-274.0203529405745 27.93349887195417 238.31604654375337 255 255 255
-282.18887194523006 22.678963212536026 250.59350437429308 255 255 255
-286.2660360333972 24.957317676779812 245.83484025688307 255 255 255
-267.49864407875566 28.4440418235855 253.4583382124513 255 255 255
-276.3620816961243 17.659828964835615 230.90024733155784 255 255 255
-280.8648902893418 15.603623659184311 230.9902346504045 255 255 255
-273.14066534806415 23.953703623657862 246.00293617600204 255 255 255
-273.78159593459407 26.242410068943983 229.0168640730019 255 255 255
-276.8142002421754 17.26652966734008 234.91435863778673 255 255 255
-267.2235924296009 28.91649492400265 249.878602397375 255 255 255
-277.618954144482 28.512007332341742 244.39798924774112 255 255 255
-274.7289914958863 28.730054516712038 248.89365917112406 255 255 255
-263.85954970071964 28.418858558587836 240.7197347828961 255 255 255
-274.63575276714795 28.913109505073535 246.5124988243598 255 255 255
-266.7727884819713 28.40518663290335 253.22427759089976 255 255 255
-273.50051323786386 26.279347080879127 232.64563052218887 255 255 255
-241.10472163885635 26.363051660707356 274.4506467021145 255 255 255
-241.15416767624396 26.30506659612423 274.4483972458305 255 255 255
-281.7869200033434 27.46441263375631 279.234268637828 255 255 255
-245.4776296779069 20.43624774535077 259.88249603183897 255 255 255
-241.76631378624901 28.047910351230325 275.33958458941424 255 255 255
-268.76128811815227 22.033754443040365 276.2290622846118 255 255 255
-279.8656220866535 25.113858113841705 279.36276820913304 255 255 255
-250.43036517087825 28.453621110291184 275.1605182877878 255 255 255
-280.60489670897954 15.534086631876331 264.3658030032222 255 255 255
-286.3942361995622 24.326553922170387 249.0545084324479 255 255 255
-288.06876354989447 28.031354525238058 290.26516865577787 255 255 255
-286.7100840028809 19.862553030421182 270.65538753077846 255 255 255
-288.8160545428473 20.573395712517087 272.20129416213024 255 255 255
-249.40601236401176 27.88684943876834 275.65740882395244 255 255 255
-282.0522650138993 27.454052876149607 285.4816949446572 255 255 255
-275.9876832636157 27.21218260115304 241.77831088054802 255 255 255
-287.2448206231633 28.37052821543574 283.5346039203911 255 255 255
-279.1440308051641 31.372221082991118 279.6229485979744 255 255 255
-277.95075905759086 29.0945597483367 266.01100562427314 255 255 255
-274.408133648349 28.829349175877397 244.49336264821915 255 255 255
-274.8353151977462 28.75311204290825 249.47252960928267 255 255 255
-281.18364236301903 20.612414653794538 248.43243514144729 255 255 255
-261.33145983333986 21.938067286843285 231.87107363729157 255 255 255
-274.8052822851261 28.693446885806328 248.58354351841876 255 255 255
-240.56388896444577 27.606223406172713 276.10724538458527 255 255 255
-263.4619683364846 28.552099073305087 240.80378629780034 255 255 255
-254.24010016851864 22.738784717805856 237.75538876963628 255 255 255
-275.704657185569 17.532361243558533 231.16687698302388 255 255 255
-273.5519261024343 27.900979618410897 237.65307317248823 255 255 255
-259.4444537360391 21.173812399094594 222.99322632223908 255 255 255
-283.8664052081651 22.62315888305428 256.98181226555363 255 255 255
-279.46377722510397 27.96089786268928 273.10221488992954 255 255 255
-284.0240569878008 27.156347189919067 283.56377789772216 255 255 255
-285.75784622612287 25.34903302310438 250.41442044385212 255 255 255
-291.0931924029519 18.890120482117496 267.99184456470596 255 255 255
-285.1167238528037 25.428050645615176 250.82693154030113 255 255 255
-249.7827461787894 28.445496816720333 274.9170476419016 255 255 255
-283.97752000033694 12.901516241066298 264.14622187992575 255 255 255
-275.8317983566797 25.91207606710865 250.6819731602325 255 255 255
-284.68227397872715 25.770007240586395 251.11540377005383 255 255 255
-273.6041420892342 24.396883752291416 233.24072599727492 255 255 255
-281.35687151133453 13.561758693731452 235.41047028926118 255 255 255
-285.85458708220926 8.265115679878484 228.3736369308627 255 255 255
-282.5845974914622 21.735179553743414 251.44413238859931 255 255 255
-274.7875281471019 28.788299620089624 249.35242787455138 255 255 255
-277.0912836894886 28.049018302151065 245.7540192036837 255 255 255
-282.98515196454497 17.47712657963846 263.91087945118807 255 255 255
-281.2185931679629 30.360088665868517 268.3186939414458 255 255 255
-274.7529202276544 27.82343600291631 265.2083466259281 255 255 255
-274.2235052174939 28.323086585399643 262.19601363694983 255 255 255
-267.2265821967685 28.506237024243553 252.4205325081665 255 255 255
-267.61816141381126 28.957294380241365 252.6281651194534 255 255 255
-238.8960301578486 25.70425828856709 275.2521433745528 255 255 255
-282.09253614356345 32.27083237562441 287.73341911891737 255 255 255
-278.9488075636822 27.277724074387862 265.6552105954049 255 255 255
-299.3942352211463 30.513217865680247 284.4595275265259 255 255 255
-277.13991764371036 25.010668540629666 276.70225221379354 255 255 255
-274.73214983793565 30.750545787904194 262.8526248882768 255 255 255
-287.93791923691083 21.769494258023425 277.01900752657474 255 255 255
-317.27455451980984 4.724733496740319 296.59020476374417 255 255 255
-274.23790640537436 26.564467850564384 246.02525091809497 255 255 255
-269.8418962898071 27.914761133264697 236.57606735774718 255 255 255
-256.4143213430196 17.500007127515623 219.7510424982525 255 255 255
-286.5949969391408 22.360469733365427 266.9143793786692 255 255 255
-264.67893658735045 28.423478364168616 242.5982512208005 255 255 255
-277.720975175291 30.126293664861866 263.9792093014623 255 255 255
-282.9499487079843 14.346012887124424 240.42458282921584 255 255 255
-277.9600627319155 27.575338023450218 264.22017165829226 255 255 255
-285.01515375781264 19.1035736440841 250.94176098858821 255 255 255
-276.2014831922863 25.985023620401208 227.77546842864808 255 255 255
-274.14968516822466 25.66025806613283 228.05368962325474 255 255 255
-276.8929534450123 22.234863057541332 226.94284232146757 255 255 255
-277.2464999398687 15.429774052105778 229.9487968016358 255 255 255
-267.5465723049938 28.645357157521968 253.58939092270887 255 255 255
-258.02126979181315 22.567378984703932 234.55463252713713 255 255 255
-255.03657971370978 22.947247073133333 236.06857175956264 255 255 255
-274.3683699844836 21.608206456733146 236.10140207306708 255 255 255
-274.19701362804085 28.214126220736713 245.1676301750693 255 255 255
-273.96590275538205 27.156212491463847 236.42573042441896 255 255 255
-279.8153394075309 15.803983199699818 234.80133229334734 255 255 255
-259.1613688947198 26.797560396638346 241.92060800157816 255 255 255
-274.00708640641994 27.833603071529563 241.79795143523506 255 255 255
-258.9878170870054 25.35676708733149 236.90721779930738 255 255 255
-268.21063030815014 29.499122919041838 249.5676852563211 255 255 255
-279.2497312723252 15.026948285586444 232.14917730975185 255 255 255
-276.3053129265783 19.263678602607133 240.31867469539614 255 255 255
-273.3390790655412 25.020521150099544 247.97044480824584 255 255 255
-268.0422509904414 29.410053196288146 249.36109672985285 255 255 255
-284.6468737953621 26.14568477477261 253.18251968988199 255 255 255
-285.43952778910545 26.220890480086304 248.19384756615682 255 255 255
-282.4234997873417 21.474008616107447 251.0582197794905 255 255 255
-274.91525926127605 28.7994485446199 262.77819316853993 255 255 255
-284.30107481693517 20.56486166742304 258.782777049579 255 255 255
-242.35937341275203 27.295546151304123 272.67399593040454 255 255 255
-243.86010889944254 32.8521903599894 264.20764563143905 255 255 255
-280.9893780773871 20.83139438742744 271.3237951687845 255 255 255
-255.79711800318975 19.26985900018184 262.91288764752727 255 255 255
-256.7721611308993 28.855943797491204 266.44995288255046 255 255 255
-294.2852857120234 11.417727480276792 246.46253038331383 255 255 255
-278.08269208327255 27.478784076338226 264.5083978394615 255 255 255
-274.7593035058656 28.7088916399984 248.7636101977591 255 255 255
-280.41020458312187 15.87700066646218 237.0293692797284 255 255 255
-274.2237764864536 25.441711679410716 251.69897953840743 255 255 255
-266.6798871343129 28.8865828881752 253.80273349326146 255 255 255
-277.5522812643367 15.878227306405055 232.00972522427531 255 255 255
-278.01274434347084 27.713041955804982 244.05203728273878 255 255 255
-275.3483776081005 22.934661746191797 243.16602136051694 255 255 255
-281.94635799472564 21.559383967383845 248.06684565874346 255 255 255
-273.7737094830047 26.904955512416635 229.8387608288571 255 255 255
-245.69632849259284 29.722565754445696 275.3921394756999 255 255 255
-246.91891566395546 14.422198402846616 219.11810109296084 255 255 255
-262.16024155597756 20.01668581595344 214.80696319605386 255 255 255
-261.9774786812227 27.627190032626228 232.5723929406364 255 255 255
-249.79675189751026 27.409778415176614 275.9548349671157 255 255 255
-275.88590763689155 27.07945604336942 266.57337152838033 255 255 255
-278.17267640474284 29.999126931053013 265.1120074079632 255 255 255
-236.9076205919048 33.3107980899834 261.20715841682664 255 255 255
-278.84337309006077 27.52568989547152 266.02567640904164 255 255 255
-274.54740940459266 30.511889054371252 263.31856994759295 255 255 255
-289.0355327678648 28.84508343527718 269.2670744303223 255 255 255
-284.03257429706935 22.391923626997087 257.0571259776542 255 255 255
-239.63254158522932 31.84786228226954 279.25575094776815 255 255 255
-274.0808110996592 23.870637653433246 230.49930694181944 255 255 255
-273.42609422309 27.453389640985343 235.71343691502824 255 255 255
-271.9184159626518 29.165799766266755 256.05022472422297 255 255 255
-272.84543281827035 28.985074810633364 256.35052120417225 255 255 255
-273.7983274430233 26.812887086558796 247.54150806327846 255 255 255
-274.59585353202027 26.424203797835613 245.07583333972082 255 255 255
-273.1403111101423 27.124997313563735 238.3966273918109 255 255 255
-272.63831529207846 26.897853434143258 265.3899921257505 255 255 255
-282.50333630564455 19.09428112214058 259.4694057504279 255 255 255
-283.0335544458209 27.18055391435347 268.87395979526946 255 255 255
-289.23905012262446 17.918102211968172 267.8333700433284 255 255 255
-289.05505609439876 20.81986392278296 272.7702624718678 255 255 255
-294.07488291806135 22.15403512045475 286.08256723000585 255 255 255
-290.81997331734084 28.52365403134112 278.8400221754742 255 255 255
-332.54282943559883 17.935590999257222 299.8163924860024 255 255 255
-355.49385434075754 30.278869011654407 305.0950333031371 255 255 255
-273.6452209248757 26.864115016936765 291.789479514033 255 255 255
-253.53886845804138 30.084436949934883 255.54226714347521 255 255 255
-241.5791412918355 4.1178345891992665 250.06807853708116 255 255 255
-284.07875367675877 26.376746288427313 253.54939262760715 255 255 255
-278.93996127836016 21.86864496343111 263.6942653343449 255 255 255
-249.52931632400166 28.03154729323999 262.90068133056127 255 255 255
-288.5168447400201 22.092768774016847 275.6539834188809 255 255 255
-281.1057954444196 23.63178150456534 263.58703758489656 255 255 255
-271.811580584384 27.666776754070657 287.1476470570532 255 255 255
-255.36307934422277 28.20349456181939 263.2036343071039 255 255 255
-260.84996661388976 28.60830679971643 297.00168880609215 255 255 255
-261.2920608157207 28.752841004865928 297.37705138557857 255 255 255
-283.7419249896692 28.561848649532706 284.51912491521995 255 255 255
-246.67539288913252 33.15853660342107 273.1260174043798 255 255 255
-249.49257253552392 26.811118398381563 275.404849722407 255 255 255
-243.75932974447167 31.881461806766787 261.31585271919585 255 255 255
-281.4559184141524 18.512819843829845 264.0636401264888 255 255 255
-249.01170598878386 29.245107951492507 277.0533293951314 255 255 255
-248.9727637173867 32.530799582388234 263.6792177426713 255 255 255
-383.41328624780823 -16.636914028030976 270.6361006055756 255 255 255
-282.62485684364765 18.131519937802757 260.2717047919075 255 255 255
-284.48164442652893 24.67179609140516 252.201273722533 255 255 255
-250.20367655952938 31.98190615792572 262.1719106082753 255 255 255
-237.04194226341855 29.91490153665347 259.6461073315098 255 255 255
-272.73163787357646 29.536614423128164 250.06320586760046 255 255 255
-240.71092132842426 25.32485307842547 275.94469921548773 255 255 255
-276.6011130663382 14.943033299465911 229.42852134733164 255 255 255
-274.02856860122984 28.214729707105057 241.15054538019444 255 255 255
-283.99997873938867 24.756898211972537 252.3061069303762 255 255 255
-238.17806081490866 35.08307099955101 271.51852654384714 255 255 255
-282.8228054964709 22.268396952616605 258.99605137489834 255 255 255
-285.7351545214566 30.73564693532455 264.1453131994605 255 255 255
-287.8764453680319 29.583845467580865 275.3444282912516 255 255 255
-281.53411006621764 21.83850878725427 264.6228790447798 255 255 255
-281.6566752314794 20.785046659403225 264.9986659912433 255 255 255
-243.37875371299367 22.94886092780748 261.16752949950546 255 255 255
-241.63373559332044 29.27477755369113 276.4656037921589 255 255 255
-239.05464006340912 35.4559527224255 270.92657453029943 255 255 255
-281.2968732766182 14.216282740371668 266.3929377480563 255 255 255
-299.09961022506786 30.53353643669613 288.96354768444394 255 255 255
-237.98235399568148 32.1213727737859 277.48005441334993 255 255 255
-240.31771308655573 27.432168849994667 276.33054356888437 255 255 255
-325.75753979389566 18.51384260963082 295.9300264055158 255 255 255
-283.906052074657 28.85335106926584 265.4151596027424 255 255 255
-239.24854766367287 34.70469868481558 273.7772471972022 255 255 255
-267.1420311951742 28.06503179843502 279.39751894446226 255 255 255
-281.3824027601752 30.417299463318145 268.04549550808395 255 255 255
-289.1568516206927 21.00988037421343 267.55121089244193 255 255 255
-282.3701482627789 20.960267618635438 249.77458483121018 255 255 255
-248.81921573922904 31.26695149852268 280.85339905246815 255 255 255
-296.8191690230076 27.627804789823248 285.79216781922935 255 255 255
-298.32369226210704 28.629324102725676 285.3631356752956 255 255 255
-242.70558566582983 32.9637783285207 264.4026894704634 255 255 255
-281.8081388346419 28.322904534125684 287.8943439083494 255 255 255
-289.5690841828813 -7.117060962190563 299.5397708146873 255 255 255
-284.19163043540465 11.006385370690655 260.43977380286606 255 255 255
-248.18699417557315 24.733153902705652 260.2050023605501 255 255 255
-243.7296529307724 31.81870199470395 261.4081650452947 255 255 255
-332.2421058869976 24.563547624590903 324.95485122352034 255 255 255
-288.3452426522617 27.988844987111055 230.7018655794742 255 255 255
-287.2074908619178 19.02848073495486 253.6844008883561 255 255 255
-282.38210700869837 22.426230124718167 251.60059763394395 255 255 255
-282.2205738425905 20.57529853809023 251.53979709039976 255 255 255
-283.9917088791636 18.84151314938672 249.9322617216696 255 255 255
-284.4630982771085 20.461164932388588 259.04979895771896 255 255 255
-277.3947824125425 29.18113956871644 266.89273588897106 255 255 255
-279.6591687226956 28.803402132777272 251.49243419808806 255 255 255
-285.114522249576 25.16483367095204 247.1906033162196 255 255 255
-281.1917634270424 29.17000556176589 251.78419326844383 255 255 255
-284.03748676072644 23.502718107749253 247.80556339825756 255 255 255
-270.05040220475365 28.25388423091801 261.2647406571165 255 255 255
-284.9080906127842 25.16534698570476 245.94279626834637 255 255 255
-282.51985151431813 28.576291975796043 250.26118327921893 255 255 255
-252.43983641316092 32.427048541005 265.5431066919654 255 255 255
-259.48402187545753 27.72106616661924 237.0431169482425 255 255 255
-267.3885081394734 29.45302320241185 250.58626474480704 255 255 255
-258.6110898470115 21.528993638628457 222.5791621620707 255 255 255
-279.08531795064766 27.831099281879112 236.49352846879918 255 255 255
-275.01211682767473 29.27117185222047 253.41308270503825 255 255 255
-281.98686219322434 13.153995731663567 234.14794097722753 255 255 255
-274.5777285009943 24.287534960233103 239.25891957386006 255 255 255
-258.66272420286805 21.553528292415923 222.60889642175871 255 255 255
-274.69821284583 29.192902235915756 248.95199860734954 255 255 255
-256.65807553067776 30.03630143950065 290.6195686492183 255 255 255
-245.9482012756561 30.959497981096735 260.4293886374837 255 255 255
-234.07379658074902 33.63125893703987 282.83873633388396 255 255 255
-259.1216455404951 22.764093086803435 244.8491535701848 255 255 255
-274.6026219757358 28.94909083700299 246.7002378185465 255 255 255
-267.5875086772946 28.911658126141226 254.3776396771231 255 255 255
-278.90701000553963 14.650417401148232 230.4772177524178 255 255 255
-275.2330850282637 28.419773574781836 248.41976892786755 255 255 255
-279.4201050993506 26.397980068705735 239.7635353960528 255 255 255
-258.8529407137592 25.32175772477504 236.69258004079967 255 255 255
-260.0741617415613 24.337953922961773 246.03660222842967 255 255 255
-260.02000374031667 25.674935909780867 238.2670308212202 255 255 255
-257.6009454396064 18.936145805026086 217.46454576777668 255 255 255
-274.032484156996 28.24147484720462 241.2839699833064 255 255 255
-279.8793086263108 9.182301146665964 216.86011763084684 255 255 255
-278.7952832724139 11.373019244275604 221.31113477058727 255 255 255
-245.10087707736352 25.720710834289953 261.52853501604625 255 255 255
-243.59820660611126 31.364236562269767 277.7068216518149 255 255 255
-251.3124722300741 32.41378344830463 265.07760690318327 255 255 255
-280.1987832998296 29.669417126070815 282.0807857567933 255 255 255
-299.1869557825703 16.612548294701988 271.12217743181947 255 255 255
-282.181863944022 20.069709498624178 263.6485117615515 255 255 255
-270.7693761504228 31.538671300968122 275.51130733804797 255 255 255
-238.37970188685367 33.31771098251529 276.8725714462065 255 255 255
-285.2151137716707 10.65195773434047 260.46505175886665 255 255 255
-282.5185464761664 12.691909785664908 259.9904484946944 255 255 255
-250.10195068380585 26.634072628305688 275.95887437719796 255 255 255
-238.56998003964625 33.20659490994786 272.64974849364023 255 255 255
-237.20057442705223 33.70555703275362 273.23215433332405 255 255 255
-246.88885040365705 23.809464591255804 261.7228444192982 255 255 255
-244.05231524625947 21.59757417235401 259.2181079200261 255 255 255
-260.41459279389375 19.634411143574283 215.1286579524242 255 255 255
-258.3166151833688 30.09346260406606 243.08444487961674 255 255 255
-273.14538647430476 23.929716088342193 233.30426716443543 255 255 255
-277.5449246478231 16.681097786988573 224.46850392097832 255 255 255
-278.37064288065517 13.125581723940904 217.8304350822012 255 255 255
-278.0761695800515 17.786996573093663 229.44922384186052 255 255 255
-273.5973456245032 28.303167853929544 263.2813428917832 255 255 255
-276.96223802654816 29.48466585991718 264.0937779372489 255 255 255
-245.36650224043632 22.13666718126699 262.58641822412676 255 255 255
-272.63446029689635 29.383644034824353 249.12101009787906 255 255 255
-275.3614738606509 20.78755020195021 231.41546153279768 255 255 255
-277.7431038368033 15.070498969753706 233.09004800018613 255 255 255
-282.5631818015911 26.667425704606956 254.12023460249236 255 255 255
-249.47910282052501 31.188494777195103 262.312310085044 255 255 255
-286.4636884736502 26.779322969196357 270.05285261633014 255 255 255
-251.5402897660336 32.4840502564265 265.98063637333047 255 255 255
-260.0864540942324 31.263714611278324 281.5201048557523 255 255 255
-246.9192570220461 26.066246685845023 275.69414467161795 255 255 255
-260.34638518028106 31.235636884977303 281.6761112036313 255 255 255
-243.5051717336732 31.902806846427175 261.452408976187 255 255 255
-250.5189383543277 26.509658159807593 275.0104522489187 255 255 255
-250.1954519269634 26.952330868826053 275.14171065968554 255 255 255
-238.25415789636077 34.119483970759845 271.85690051294335 255 255 255
-248.87551794145082 31.38129444083961 267.3780377955772 255 255 255
-256.1552867251656 34.23405073602972 277.3783165062112 255 255 255
-286.05743060388005 14.795806189778128 267.3777166265373 255 255 255
-252.01472906350858 30.658206486966396 243.08778870679302 255 255 255
-283.1017191489096 27.72644602503907 258.6599575666161 255 255 255
-276.77649851870393 26.454880656547346 278.5828189223694 255 255 255
-289.42023003226063 24.031313317289506 267.1848530728556 255 255 255
-238.4581011695064 25.89748425925206 275.0257024942959 255 255 255
-282.7520270956205 18.67098102390134 249.5540990537267 255 255 255
-278.1803250837361 28.459646066390754 264.2703724448677 255 255 255
-291.7370176834472 20.4206995127177 274.4392587007989 255 255 255
-298.59963834620487 14.981016822157118 270.77520755581406 255 255 255
-267.6480875359142 28.71184711846322 252.4329565091649 255 255 255
-278.23370847900736 15.694767203368052 229.59986676559026 255 255 255
-270.2603056896824 28.720909757353308 244.4577269590259 255 255 255
-255.944791090386 26.76132162186931 273.5604370247886 255 255 255
-288.20988014693194 29.329050844437212 254.53426946244923 255 255 255
-267.4033045438631 29.052760491250844 254.4510961373163 255 255 255
-267.4613716413398 28.495310855684917 252.10681340320272 255 255 255
-272.91467706195726 28.01696333644511 237.28972160596834 255 255 255
-255.70325298610788 31.32456210152286 281.1260591259986 255 255 255
-277.65750001203025 10.569930182823079 259.9385484074537 255 255 255
-281.52011553146855 28.997953706003436 277.1981376760304 255 255 255
-282.6313503901777 19.09520714669621 265.0362577215085 255 255 255
-282.04173534435756 29.086779232649953 234.28415953642616 255 255 255
-241.63085170043308 33.18598466700516 265.3738972608073 255 255 255
-280.89543027385935 16.76555958668088 265.5932403011804 255 255 255
-272.6694974365168 27.838378731830353 277.6578712595765 255 255 255
-276.9085534358814 14.744886508967177 233.2484669262214 255 255 255
-269.96543167576635 27.855943084074198 235.02846591545514 255 255 255
-276.58572851956933 26.322003739077036 236.02305277402934 255 255 255
-272.1353979360652 21.746110395564358 234.57590153303138 255 255 255
-235.17169768791194 35.57374347393617 279.5060738330151 255 255 255
-272.9523485303419 29.413708083496545 248.6839157034933 255 255 255
-274.79342558986883 28.951577665842652 246.67025205443215 255 255 255
-270.09972627372406 29.504459015281363 249.80277565665202 255 255 255
-254.32398920763598 32.422383204508975 266.207492117002 255 255 255
-280.40351838600344 26.88064293673611 281.0908369537615 255 255 255
-245.9736801569011 26.33676461087862 275.26049950346345 255 255 255
-365.21042237572345 23.45781836569469 338.9693157151397 255 255 255
-320.13766987967875 24.86357190567665 318.8259377065655 255 255 255
-309.1528631064233 26.157623392080833 278.6789756792738 255 255 255
-282.94875067676213 16.158063221459507 253.9124278738272 255 255 255
-261.0967395847263 31.900788150886587 269.4119951246119 255 255 255
-283.23334493541574 22.80883316871872 257.5219123871799 255 255 255
-285.36076372671005 32.76064543667911 285.6259493739288 255 255 255
-274.91189538573684 31.444160183046556 276.8798195429804 255 255 255
-326.7191031782485 9.462991164919018 237.42163173496664 255 255 255
-281.579340677607 23.51983077701275 263.2378114660443 255 255 255
-249.20947611763933 27.285486633782906 262.45156433958573 255 255 255
-251.38734919430703 32.72177103702394 268.19405931488734 255 255 255
-250.79730069758642 29.339843356913384 274.6003086669933 255 255 255
-337.9722702247299 28.08536240907335 276.80264970232315 255 255 255
-280.2573345955545 24.286641162673373 275.761046443173 255 255 255
-283.1061225849849 24.794790573641194 256.04219384322835 255 255 255
-267.3322511697338 28.89487015787597 250.50993860237688 255 255 255
-275.2000949250961 29.26860886457393 253.41442059720742 255 255 255
-273.19598264263186 22.737894745849143 237.15838262903966 255 255 255
-267.34363172251227 28.874988635078758 250.4477630418757 255 255 255
-267.03014554578596 28.572627596385047 256.1884785183119 255 255 255
-282.0127041237019 28.210619974991165 264.0044864766676 255 255 255
-274.9356717020843 26.326146510211423 252.11081801386 255 255 255
-283.32784093669704 21.920930937305414 250.30536955864676 255 255 255
-275.78086055536585 28.697041618614946 262.30260350566476 255 255 255
-236.1450140079713 31.32310875986353 264.31164381994415 255 255 255
-279.7708198166837 14.928154274380892 264.3271625584766 255 255 255
-283.357017296332 31.523122494546566 280.96465629296705 255 255 255
-276.4589739508317 31.002903773154433 267.12152858970114 255 255 255
-282.85695709066295 18.89192128648191 257.3566414447264 255 255 255
-276.6478673567091 28.611173279157477 265.70787403884725 255 255 255
-282.8226865625233 18.001005467913743 259.99341453267266 255 255 255
-245.33389772748475 29.790657410213193 257.4417034824208 255 255 255
-275.0897832105421 31.588787910386053 273.52777945996667 255 255 255
-237.64360230613505 33.3933169583134 280.6011059877654 255 255 255
-238.04435790147423 33.86543304613598 269.9402929034053 255 255 255
-241.0180819149149 27.07766752396533 275.5675866302413 255 255 255
-238.68585536160037 35.30839193235222 270.6642071520206 255 255 255
-236.6015457076842 34.71009718293536 269.48443933273813 255 255 255
-294.9700395961115 26.4883919721735 252.29741919174262 255 255 255
-252.3751118355974 32.42936648966736 265.56143924900846 255 255 255
-337.1330864848531 -1.6506659342214345 320.99257760637636 255 255 255
-259.37998102955515 28.03179428065563 245.50974536824504 255 255 255
-246.04698619004145 19.65500355410542 259.8402727518048 255 255 255
-248.47167699212073 2.528596435294866 249.96929809817502 255 255 255
-293.0685909595065 18.320242386052833 263.17660316119 255 255 255
-284.1132906451471 17.03719832266018 259.89492124372515 255 255 255
-338.4108145245287 26.566056291376988 329.379299036454 255 255 255
-280.9013243223253 14.775088786207045 260.59111550892277 255 255 255
-287.4845661004875 28.277345156646643 257.35082404397235 255 255 255
-249.62132709552378 28.361584988921514 275.4716263310351 255 255 255
-263.92772431077395 27.636487443463025 233.25174021823764 255 255 255
-237.9406863153374 33.40077332535401 273.0530431834775 255 255 255
-243.47650770414182 22.278190436708424 261.43018680476354 255 255 255
-277.000609096495 30.936733689573636 266.9927603910312 255 255 255
-288.49716809222747 15.6990935945695 267.6778043955067 255 255 255
-280.5230913118279 33.10616668695485 284.8525339921299 255 255 255
-282.56375765120123 32.54520597819504 282.27696585520266 255 255 255
-276.9957813883407 29.716390749118048 265.72421998665527 255 255 255
-276.96361615927157 29.633441500924132 266.0977532859472 255 255 255
-283.00810698618307 21.124746920465554 259.58540111093794 255 255 255
-262.02508007548744 26.936254892049725 231.31022524560083 255 255 255
-273.7040343935021 27.96742955464763 239.22960292456312 255 255 255
-267.51501362888973 28.43558786983468 253.47069221823605 255 255 255
-266.9764361937195 28.623384415508674 243.1194987750443 255 255 255
-261.5489597511377 29.07011518080247 255.29046755736886 255 255 255
-259.2640327440448 27.428943600069815 242.0383409597285 255 255 255
-286.0913366354622 24.69958905672803 280.7937785071961 255 255 255
-283.5678095421771 21.744960919161702 249.96088191242595 255 255 255
-274.97574471269894 24.82691529563494 252.43450622748156 255 255 255
-269.1077048532395 30.068167044167396 255.67146719243289 255 255 255
-278.9052996737589 14.21260195264707 222.83838426200256 255 255 255
-275.35362692451486 28.430768222954583 255.8119503012132 255 255 255
-278.37794336409524 17.529065922428455 229.3597561531583 255 255 255
-281.5456590022957 26.664817164534824 281.46059588166287 255 255 255
-280.78358506796036 19.000788128603567 265.36601185855284 255 255 255
-275.29968172418796 17.192278931904674 229.7783453790194 255 255 255
-266.2810392794565 27.885219931862466 236.87859385903516 255 255 255
-245.93060754891218 29.97665920035464 257.4153517114405 255 255 255
-243.16876040431737 29.12953804691656 261.9215632536492 255 255 255
-260.21943922008325 17.05411616897871 258.7705263052001 255 255 255
-310.7588816074972 20.640629996888492 291.17640805084443 255 255 255
-280.97171028354325 29.826168875319684 257.4336179074627 255 255 255
-284.83101581305357 27.29525361483791 273.83188043663444 255 255 255
-285.79428892703095 14.620406847659426 267.29277660193407 255 255 255
-283.5896611336142 22.52952413618511 257.10746728096734 255 255 255
-281.33560749977056 28.46750415111638 263.7318992662649 255 255 255
-282.1153688826486 16.002164091158306 257.9643062929653 255 255 255
-304.8630780453403 26.375677751379957 279.11592609018896 255 255 255
-275.18260041092526 30.999755022267394 283.6881987431709 255 255 255
-249.11286757603284 28.03280025619707 244.11084078035645 255 255 255
-291.40077341668393 30.08496600456525 317.8874692770568 255 255 255
-239.87886878245905 33.0661633792025 277.23287167821945 255 255 255
-275.51968067476065 29.229411052982183 252.91236602959233 255 255 255
-275.6090753454985 24.054079456951786 249.5929445005341 255 255 255
-277.6674732290031 23.721665957946584 250.93391734822345 255 255 255
-274.9421887621032 14.295747556324162 231.84059155898012 255 255 255
-266.7614248414245 29.144803361444403 254.0441751603804 255 255 255
-273.9237492141311 28.843765125716743 245.46577071321389 255 255 255
-276.79055517009084 17.145532934024352 234.90493258444025 255 255 255
-278.18691772297524 30.17806281227898 308.9824797107534 255 255 255
-285.7315273846231 26.14809477691382 247.90098572438376 255 255 255
-285.2434938008053 13.405121877499981 237.52876830752547 255 255 255
-282.07346044911554 15.47524554016169 242.68301763332826 255 255 255
-284.506553405929 27.179392750582345 252.67713040707275 255 255 255
-274.94525687258164 28.47519522813762 256.30752559736055 255 255 255
-282.07410705797963 21.55115898037344 251.95836673190666 255 255 255
-274.71217432701286 30.62532204371611 262.753401767818 255 255 255
-277.1894749266229 30.265005044511586 262.938166592205 255 255 255
-271.88659285963735 29.979885942734015 264.09169198996375 255 255 255
-283.392406579639 28.65022767333146 258.4735436052029 255 255 255
-236.9305970144851 31.657130020640974 278.04130551499674 255 255 255
-283.9940056632714 21.407371280767705 253.06070149560065 255 255 255
-257.635742838021 32.55411374223593 272.1600069963562 255 255 255
-279.5513302283947 22.573506557526784 254.0111523289535 255 255 255
-312.89852243712846 28.29071366867675 252.09164731201398 255 255 255
-274.5675714828199 26.280755559389547 263.63880552147043 255 255 255
-286.625437598749 22.563660382948473 254.51424796878308 255 255 255
-316.5630605460462 31.076752538404218 298.2569085293086 255 255 255
-279.4604018701996 25.235424075313542 263.6885275190203 255 255 255
-279.5929720609099 27.79608945526291 263.85709165585274 255 255 255
-284.7813835432482 21.10851144243351 252.70464756510393 255 255 255
-283.5622447469341 19.38882120117149 257.5539943467393 255 255 255
-276.30313822541905 27.97879403107244 279.26952803165256 255 255 255
-273.86047922681905 27.49315398957942 276.662694342994 255 255 255
-289.74503664653025 28.106677369317225 282.28890756235324 255 255 255
-283.6408534116303 27.39274339682414 256.076076093874 255 255 255
-273.9832315730874 27.800929867372805 241.6588792696739 255 255 255
-259.2900124043368 19.99339284939412 218.2230426055139 255 255 255
-303.6497124216917 27.659527825978792 280.44191509776397 255 255 255
-253.1838083733327 30.544910820215573 244.5304694499211 255 255 255
-283.97430323988453 25.835299191838317 253.3150299994769 255 255 255
-371.86270614357653 -6.312918746651647 276.27407367668195 255 255 255
-274.89107930096986 26.872385989600943 251.32269889148293 255 255 255
-280.89227510699277 17.93446194761583 239.33500067830056 255 255 255
-385.9968626120141 20.946788799477346 341.1134395178508 255 255 255
-245.29951956619584 33.30971899102138 273.6385924778702 255 255 255
-249.3286910745484 30.115267094486608 275.66974413673626 255 255 255
-292.5256236458723 28.542619978682715 282.53445768957084 255 255 255
-346.469759218317 -16.628000252798785 317.0339383856962 255 255 255
-269.987907079794 28.100206988342006 238.01898102713767 255 255 255
-273.2781584409205 28.85668795249057 244.3506149544253 255 255 255
-270.2645119764167 28.731825077044437 244.64335990557797 255 255 255
-260.5200477098919 31.88353797152864 269.3854609877824 255 255 255
-318.58641112212246 30.2456366975534 303.82423723499767 255 255 255
-283.20176513198766 22.11080535658405 258.69334501152684 255 255 255
-239.91586088920803 30.264435039662303 257.4475050579436 255 255 255
-278.1847479187775 24.750171665980925 275.9166190874269 255 255 255
-254.28289699140055 33.86707848796503 289.0718366424007 255 255 255
-292.63722020670707 19.451500138075023 273.17435047880724 255 255 255
-279.1925785871614 26.320763994828795 265.15300877808613 255 255 255
-287.3203565612104 26.810403636698698 274.2715471265883 255 255 255
-288.4484606306987 30.75241968071694 281.6788660761981 255 255 255
-284.40820524236744 22.54526371783206 252.70224840799438 255 255 255
-268.3540182220444 30.172309034611743 260.74410764361704 255 255 255
-285.2946316200012 25.28530237721977 253.03639729202996 255 255 255
-277.0706053297696 29.21001621783751 266.93796071674365 255 255 255
-287.74268481949434 25.50081601317359 278.6368534890173 255 255 255
-269.1566796267398 23.94598458243773 263.7345889561594 255 255 255
-259.84318600341857 36.412762878462786 277.07083608479275 255 255 255
-278.86660265231546 22.103981549574154 263.6262640646738 255 255 255
-296.18464195219025 16.517569526277647 270.2543136242763 255 255 255
-250.7138848297251 28.664983912324935 275.4489194261148 255 255 255
-243.1155728449276 28.080044845005766 273.9418868834041 255 255 255
-277.10669803540475 29.11457512333851 266.1293366297549 255 255 255
-277.07666224270855 25.763233652275897 278.47026190671454 255 255 255
-279.70047894686354 30.418847473202813 278.74712571794674 255 255 255
-281.9213457839347 27.954282925944803 264.5705278767798 255 255 255
-260.0000143386389 32.04998265253478 269.98461354913803 255 255 255
-366.8880096483235 20.42650132018869 340.14816077003195 255 255 255
-240.0739656891887 26.72572253459027 275.89054223709684 255 255 255
-351.3187182072091 10.34881528938384 300.7678939073604 255 255 255
-266.77957733109565 28.87042962237127 254.2110118085542 255 255 255
-283.1826575409731 22.4271009528793 249.73704961343702 255 255 255
-277.69370516133097 16.30918030383327 230.99934856800195 255 255 255
