-602.3772918367071 15.587663207319249 184.1583723516488 75 205 254
-601.1708075496085 17.58603561714225 179.1256596588361 74 205 254
-602.9816740956315 15.830144160852509 183.2263304885765 75 204 254
-605.5611411702505 16.068379146101446 182.0810822684461 75 204 254
-600.3211524776588 15.572997397605874 184.42004146317848 74 205 254
-599.6195608847171 16.212169843503954 182.52883151359148 75 205 254
-600.7759138895091 17.634176508667476 178.99220437908141 75 204 252
-602.4529417025294 16.044338934269444 182.7332871335877 74 204 254
-601.4647324610588 15.951442421701865 183.13349979434912 74 204 254
-599.5347824599653 15.82772104344676 183.60194296400016 75 204 254
-603.1106082562903 16.386736452297 181.8446796665337 74 204 254
-603.1569255417602 16.755652724293252 180.91105570543507 74 204 254
-599.4374990885084 15.587474268138472 184.40077861230873 74 205 254
-600.6077465429202 16.523709066713916 181.7100193814241 75 205 254
-599.3962194496376 15.673400709079276 184.06655424269053 75 204 254
-601.7577558123587 17.483781786036513 179.49401295852635 75 205 254
-599.5643842772695 15.723119328826627 183.88320450423652 74 205 254
-600.1474175967957 17.822424662016612 178.58936970478982 75 205 254
-601.2834509987478 17.33674600921751 179.81760526797876 74 204 254
-601.9344564644225 15.72521560694204 183.65329211952772 74 205 254
-600.0540454480445 16.588599086888962 181.5931638971242 75 205 254
-600.3470258872827 15.491491497223521 184.87105020659544 75 205 254
-599.8214760950015 16.985397340338338 180.67209541423392 74 205 254
-599.8570747133315 17.113749457842182 180.21924146165335 74 205 254
-601.1748342169294 17.146977270031112 180.1568416568687 74 205 254
-601.4240568866121 15.759898185006934 183.61158287909268 74 205 254
-602.4274039138566 15.704439399493822 183.6444986908211 74 205 254
-599.6185072099632 15.585563655510011 184.4536573768508 75 205 254
-604.2108457775923 16.277308896099534 181.90416446213797 74 204 254
-600.5631681214385 16.337274329989324 182.12766501541654 74 205 254
-604.5693447233442 16.02991014750799 182.40953272156682 75 204 254
-600.0045248536342 16.198241367288198 182.55807328764874 75 205 254
-599.5403707763633 15.933711544591063 183.35348539239143 74 205 254
-600.4836874600866 16.641176878931645 181.48633443372844 74 205 254
-600.6489587900106 15.504777397782144 184.7894390571317 75 205 254
-602.4532138734327 15.877819713678964 183.18922463106085 74 204 254
-602.6273290238238 16.98388012747988 180.52972061284663 75 205 254
-600.6551982652942 16.908588826133922 180.80607569618329 75 205 254
-606.0660050112094 15.80752233120217 182.60186641424517 75 205 254
-604.6148330698057 16.231104716524953 181.93780174190374 75 205 254
-601.5374554399903 16.282797207376774 182.18360155514114 74 205 254
-601.6442832741624 16.836297900109024 180.81914533029254 74 204 254
-600.9037178207308 15.5506395392377 184.47959665719065 75 205 254
-599.796898925496 16.281862497285516 182.35365852306458 75 205 254
-600.1694123371257 16.95695862272371 180.71751138455988 74 205 254
-605.5556445483869 15.736256887005883 182.9316041457505 75 205 254
-600.6837563645901 17.104969108576025 180.23327949377298 75 205 254
-599.7156091130743 16.21625428065473 182.5045801680191 75 205 254
-599.9174509678138 15.870472231237677 183.4812684378666 75 205 254
-600.9547020387349 16.80383686131217 181.10795051837212 74 205 254
-599.7414402451448 15.968925860466832 183.26826149450486 75 205 254
-600.644433283868 16.775295907935007 181.16765524355276 75 205 254
-601.2742793013467 17.566847932228864 179.40256646791528 75 205 254
-601.9536991674199 16.079151352714398 182.7039754602848 74 204 254
-600.9389640577446 15.801817018026918 183.55562979678024 75 205 254
-602.0155497474223 16.245560066895738 182.23461818452375 74 204 254
-601.4768730261894 16.11140722131956 182.66755780197178 74 204 254
-599.6603589386431 16.065793947162078 182.93367906094846 75 204 254
-599.8830471911202 15.58711567962447 184.35319342457092 74 205 254
-600.148728069571 16.775584549714853 181.1893737279229 75 205 254
-600.9590395073507 15.984799117971752 183.09392511412767 75 205 254
-602.6925557368152 16.76638416423693 180.8919596551391 74 204 254
-606.0456313931501 15.672824189692866 182.9623408557386 75 205 254
-602.1997818153642 16.806945149538823 180.8375173359814 75 205 254
-600.2287487174191 17.091460180523658 180.26410024446938 75 205 254
-603.0181640282473 15.9989055279067 182.7791809791741 75 204 254
-606.6048908286899 15.711315552874492 182.68379265292643 75 204 254
-600.4849913628575 16.16789123690924 182.60739635201173 75 205 254
-601.7084236075099 17.33018638001876 179.91415111636738 75 205 254
-601.3810732105239 15.619685585917917 184.0930708659049 74 205 254
-599.5061092296112 15.621488663489053 184.2314871604912 75 205 254
-599.8505847497311 15.514401333036702 184.74049957729966 75 205 254
-600.9875860035683 16.134933345724946 182.65024037526865 75 205 254
-599.7797314639158 16.805669135433924 181.13609477306207 74 205 254
-602.603810803438 16.428378626262727 181.80692764286735 74 204 254
-600.8959452937243 15.655718703130166 184.01341222598884 75 205 254
-601.2579718164459 17.030104108124576 180.38286057684388 75 205 254
-599.8900053708776 17.322582026921115 179.76811507843803 74 205 254
-600.2440542487332 15.510816864091067 184.8011621159615 75 205 254
-599.9423094998314 17.81784510816467 178.5766152880027 75 204 254
-605.0982165473245 16.161724675060345 181.9789856099339 75 205 254
-605.9510584679973 15.972878697258395 182.21076852363535 74 205 254
-601.9516863444863 15.903769515179734 183.19390684742845 74 205 254
-600.3461837195975 17.55769822817195 179.29685924010371 74 205 254
-600.3685545277257 15.676499320299929 183.98255580901707 75 205 254
-599.715916975873 16.36105142980889 182.1348152317102 74 205 254
-602.9425914282047 15.664674798662215 183.69856646616716 74 204 254
-601.4230948498441 15.41293360601912 185.39666813416468 74 205 254
-600.2304946031157 16.196516864575806 182.50624287066583 75 205 254
-602.9065490852408 16.757500663056856 180.9904960764864 74 205 254
-600.9629828765201 15.392550300346766 185.55738658181843 75 205 254
-603.2712570304642 15.644385419199518 183.63947397549873 74 204 254
-601.846810243998 17.397706496094735 179.70929825169588 74 205 254
-601.3324341914911 16.50855705641183 181.65029067029224 74 205 254
-603.9983781791693 16.408562007184443 181.58871062413067 74 205 254
-605.7864198499826 15.69195838960879 182.88909351188076 75 205 254
-606.110997704884 15.754983899014086 182.6374427701946 74 205 254
-600.7698269852935 15.3769440538699 185.74960191699486 75 205 254
-599.2700851908808 15.835678012124983 183.60856030621497 75 205 254
-603.0246037136063 15.648432212977594 183.68376110560848 75 205 254
-602.6091880069334 15.485540910331814 184.6409910968378 75 205 254
-600.924917969991 16.89866842771307 180.69027730118074 75 205 254
-599.7029108741633 16.051976875750835 182.96391180884865 75 205 254
-603.4167948075377 15.966778021133035 182.73315570214515 75 205 254
-600.3940612901318 15.360393803556828 185.90283112583288 75 205 254
-604.7135163490466 15.65639757751145 183.2924525804741 75 205 254
-599.3112388650765 16.0502422353891 182.99853180201663 74 205 254
-600.6117170666889 16.90961506466701 180.7044006233323 75 204 254
-604.7769762423022 15.818384738100919 182.8299794413917 75 205 254
-601.5423145301306 15.44099461298211 185.1138829963945 75 205 254
-603.514995343232 15.510469409084791 184.29496198059982 75 205 254
-602.093456155563 15.50123664172592 184.61013962960357 75 205 254
-600.1758520812515 16.03055390508875 182.99291764216778 74 205 254
-600.0686105998376 17.64404543655715 179.22237456794522 74 204 254
-603.2699631134209 16.164610017626053 182.24994336350028 74 204 254
-603.7663792039286 16.486581255345243 181.46324740829672 74 204 254
-600.534475721559 17.35785603141603 179.71864788914826 74 204 254
-601.9650484819978 16.86874031176813 180.73898927053216 74 204 254
-602.747252280041 15.864052326597744 183.13378060186238 75 204 254
-602.7999441161943 16.193441775564807 182.24287134819653 75 204 254
-599.5401339263561 16.813441642378706 181.0464346841029 74 205 254
-603.661788289724 16.327125700383277 181.7910002782511 75 205 254
-603.2698466874543 16.69669241879584 181.0986297324064 75 204 254
-605.7188091030148 15.57645717052588 183.25859687460581 75 205 254
-603.3774559001093 16.54433201622837 181.3536404212751 75 204 254
-601.4777064163549 17.09674877931852 180.28595973653302 74 204 254
-601.4825938852475 15.501560308049903 184.5337712098182 74 205 254
-603.3821404869921 15.49982339837379 184.43882185341744 75 205 254
-602.4329004580427 16.847826926916145 180.80418250898947 75 204 254
-601.384983627979 16.868453008134082 180.74785081746478 74 204 254
-599.672252315629 15.895488973300118 183.43295403487136 75 205 254
-599.9581666680413 17.15230221001615 180.15535066825265 74 205 254
-600.6815594941443 17.012394505316465 180.42970533795983 75 205 254
-603.7689825421218 15.927363457646955 182.7665917679741 75 204 254
-602.1647466284329 15.59273753471378 184.0586274954672 74 205 254
-604.1625914453224 15.580227526514772 183.71477830694343 75 204 254
-602.2993649002128 16.239754706862442 182.18799881629673 75 204 254
-599.978344163281 17.368852317639714 179.6971834291728 74 205 254
-599.6721099244195 17.583986981288053 179.1802481582662 75 205 254
-603.0196807315677 15.491620391620472 184.55848649571152 75 205 254
-601.7321756663417 15.425928159881913 185.33072790491735 75 205 254
-603.6443523480432 15.526776709998387 184.07429746895625 75 205 254
-599.6364430086225 17.4013613820534 179.63657645065885 75 205 254
-599.8914524989685 16.970868017011007 180.61677509796556 75 205 254
-602.3730734504128 16.616210424509394 181.2553862315724 74 204 254
-603.2645323555384 15.532413569525156 184.033542863744 75 205 254
-601.8840180291687 16.639049984323975 181.27260206350988 74 204 254
-606.2009487353871 15.549835008531762 183.17053736591922 75 205 254
-600.5178624840636 17.641228421815693 179.35699889846583 75 204 254
-601.3500673442194 16.69677127288532 181.1895346875451 74 204 254
-603.4819776161041 16.097507015327857 182.37057132655264 74 205 254
-603.1397794893005 15.974328968985338 182.75933354387377 74 204 254
-601.7989849152866 16.275556892577136 182.1510632951375 74 205 254
-602.2078735037919 15.895576982874573 183.13615950885423 74 204 254
-600.8262844381362 16.72943526760235 181.16472295510366 75 205 254
-600.8298446100587 16.333206172129476 182.10044923575816 74 205 254
-606.078637936643 15.660219359894349 182.88702696520193 74 204 254
-600.882553390745 17.62696708134129 179.06503469669076 75 204 254
-603.60914208574 16.22325214217884 182.07205296699706 75 205 254
-603.64103041967 15.625902622445286 183.6544320381398 75 204 254
-601.8492826715268 16.473752770999617 181.69204773705326 75 204 254
-599.1364210559401 15.316792183442859 185.37913070992244 75 205 254
-601.0452094828679 15.497460093464039 184.53206274730627 74 204 254
-602.0191840139281 17.06754283947933 180.420382132258 75 204 254
-603.0733635106271 15.826367436830528 183.17715674960428 75 205 254
-599.4862128013643 16.002770436538064 183.1705660271848 75 205 254
-600.4261911676956 16.7277157212366 181.190375599759 75 205 254
-605.2374798179297 15.61018536978374 183.29422780097036 75 205 254
-603.6905651042841 15.74554635445134 183.26365342482376 75 204 254
-599.3862468537767 16.096048723834123 182.8343393739292 74 205 254
-600.2705611400604 16.79958869072367 181.03646879683677 74 205 254
-603.803310862074 16.106521101762727 182.301600242652 75 204 254
-601.9807006155397 15.448383116437938 185.05721141192643 74 205 254
-603.3444837037667 16.34503046899979 181.80201228986078 75 204 254
-606.3521392297521 15.620368358905779 182.90861204233934 74 204 254
-600.5015089282953 15.389987304762252 185.59549478419837 74 205 254
-604.2728107772532 15.884372523624092 182.77343763299342 75 204 254
-604.083942934115 15.521300032584826 184.08291314322886 75 205 254
-599.4766072144421 15.325490036617147 186.0599466206722 75 205 254
-604.2226273219144 15.70278144103516 183.26947179149627 75 204 254
-606.0612603546258 15.56091062192913 183.19646977667747 75 205 254
-603.3344535899854 15.795180847487735 183.20086758937396 74 205 254
-602.6015951663697 15.574453508865657 184.07442178634565 74 205 254
-599.543265435132 15.317516063342648 185.1803394424412 74 205 254
-599.6049325637778 15.711472633608272 183.92436358154933 75 205 254
-601.3055095242286 15.407411673080466 185.52998101268085 75 205 254
-600.8401143322773 16.532258586458713 181.63517992271412 74 205 254
-601.1536831810428 15.638451640736239 183.9351497657922 75 205 254
-598.9237886563719 15.41588350645565 185.28003338200352 75 205 254
-599.5470236768568 15.581827131395267 184.34571286355052 75 205 254
-598.527018557236 15.393818908925194 185.66954141667546 75 205 254
-599.8600630920737 15.376873265787939 185.11754216856679 74 205 254
-601.2895976547675 16.1139384209064 182.55573028906656 74 204 254
-599.8121939213111 16.40890974065249 181.9792255432934 75 205 254
-604.2015269471784 16.182258271636147 181.97170222429315 74 205 254
-599.4444933539243 15.4917813200734 185.25521009518013 75 205 254
-600.8397451308151 16.33985417406155 182.04204371526006 74 205 254
-598.6803238677102 15.518085436654141 184.6464853286379 75 204 254
-598.8737519227524 15.472352180579259 185.74024546099054 75 205 254
-599.9137378242422 15.593374529616199 185.27372359841632 74 205 254
-598.9375480787506 16.45932820580056 181.91248983844227 75 205 254
-602.4156910107012 16.619535327849007 181.24065535019568 75 204 254
-601.9482161417644 16.846551028475467 180.8262829733157 75 205 254
-598.8618800459932 15.377601055843805 186.31127530133676 75 205 254
-600.2779034115019 16.180464027773446 182.49279754831178 74 205 254
-602.3571132832822 16.441691917507452 181.71625305598164 75 204 254
-599.348558496235 15.411118282841166 185.93643990388486 75 205 254
-602.2046902478718 15.700683922876024 183.58299969206217 74 204 254
-601.3321080002218 17.068428077867488 180.4462876798706 74 205 254
-599.1154485934294 15.338658670937022 185.112936889628 74 205 254
-599.5668377224939 15.555151712539388 185.03701871358027 74 205 254
-599.4610803266394 15.34147420477623 185.14620479121808 75 205 254
-600.0602390597151 17.621026942448264 179.20850959520143 75 204 254
-599.758340769744 16.21898253949858 182.44133267203438 75 205 254
-600.6765327066191 15.826700282934913 183.4378121685056 74 205 254
-601.7836051698985 16.086846868869163 182.5710247612526 75 204 254
-600.8791500012214 16.553172251532924 181.59326002010607 74 204 254
-599.4168357357786 16.846006057311477 181.02632032213194 75 205 254
-600.0059196194601 15.417731141828675 184.86816187225452 74 204 254
-599.7059637087235 16.049106560573644 182.9100605919131 75 205 254
-598.710626705428 15.651568963955775 184.18893168534356 74 205 254
-599.4001550616425 17.009108125480793 180.55745888971927 75 205 254
-600.1061057472817 15.704869818183614 183.87715499909214 75 205 254
-600.9655315438253 17.211183815831138 180.21379592110486 74 204 254
-599.9283869616241 16.97088966480112 180.61244210420142 74 205 254
-601.2527848221747 15.953423092082906 183.02081309350305 74 204 254
-599.0413108862738 16.862710131091788 181.0010975735681 75 205 254
-599.1468554709661 15.43085799303008 184.81632913677143 75 205 254
-598.7515143424373 15.771761585861142 183.7771575268113 74 205 254
-598.9799092157872 16.645689381442274 181.45928531766126 74 205 254
-599.1136066739282 16.29093487312339 182.31304891773007 74 205 254
-598.9073777158212 15.931270059155779 183.30843682105302 75 205 254
-602.2782628348658 16.032796809721923 182.64822466335448 75 204 254
-601.6896135837902 15.740316714040011 183.54366127649163 75 204 254
-602.1247977447789 15.59346675886991 183.99508896870637 75 205 254
-599.4841773664965 16.389646514515178 182.05239516223367 74 205 254
-605.1865241263768 15.838266721167642 182.5418164559751 75 205 254
-600.7824530147024 16.149338729446956 182.5231954370683 74 205 254
-600.5157417496988 15.452418039933312 184.74404392868814 75 205 254
-600.2223821005948 16.021756690812797 182.93761961658143 75 205 254
-602.338475293995 16.7832531931819 180.94634910404343 75 205 254
-604.2804466132634 16.032481611982845 182.3141335076176 75 205 254
-598.9296872490395 15.617873125311425 184.32859327413118 74 205 254
-600.9792884630025 17.4762883046892 179.4550098149313 74 204 254
-598.8321492652996 15.744847806501955 183.85405703832672 75 205 254
-600.2722378260846 16.969178151045924 180.60222255295957 74 205 254
-601.6263737907614 15.606355777181893 183.99889363340796 74 205 254
-599.9250761277744 16.568257248369413 181.5880813663597 75 205 254
-604.794802342189 15.908325399975263 182.4760273583093 74 204 254
-599.68870580228 15.886233664534952 183.37812452929018 75 205 254
-599.5687493058274 16.522645154695578 181.70890744835532 75 205 254
-603.1949450953455 16.239916697916446 182.05767730723866 74 205 254
-599.1669569804286 15.915986633464179 183.33544717238394 74 205 254
-599.6499625399703 15.732105093514695 183.84174473169702 75 205 254
-603.8258016241766 16.270302998818092 181.8478140733447 75 204 254
-599.7627845445725 16.66216413965302 181.40342780594986 74 205 254
-600.0533535724707 15.566469258188416 184.9868136271489 74 205 254
-601.1671798854284 15.792280382658456 183.4690103864882 74 205 254
-601.2924721755173 16.311016448094815 182.07396591119172 74 204 254
-603.8294591499097 16.0989954766928 182.25432580769748 75 205 254
-598.5821148881383 15.34725881408979 185.23199934876746 74 205 254
-602.8599427954214 16.392453012111098 181.74418395357114 75 204 254
-599.3197985386234 16.231361965554395 182.43918224244678 75 205 254
-600.9359141182525 16.91762359934437 180.69702313721115 74 204 254
-601.8607023324319 16.4923069672789 181.66764685450224 74 204 254
-600.4958451409401 15.591534529264152 184.99182368776619 75 204 254
-604.7990129519218 15.781675854582648 182.79168805793418 75 205 254
-600.0766598100929 15.530809347571402 184.43145357093508 75 205 254
-598.9019810328763 15.462286085981903 184.7548365329411 74 205 254
-600.7249533669856 15.984410710059315 182.99661480553848 74 204 254
-600.9179006193114 17.427363638444337 179.74801752404932 75 204 254
-600.5166591064204 17.444892916626277 179.7197878215935 75 204 254
-599.2569307331424 16.44922579186058 181.91904200083053 75 205 254
-598.9062878695967 16.265311357372624 182.3787942731993 74 205 254
-600.1964221069417 15.850048888601647 183.42346770823133 75 205 254
-599.9973921929543 17.211714563636267 180.1320557667425 75 205 254
-598.8009249747522 15.935784157816592 183.3006861546854 74 205 254
-599.2170576317436 15.367496300089687 186.25082095164385 74 205 254
-600.5198602241221 17.568281803833774 179.29890638054673 75 204 254
-601.7411418961167 15.916777609644896 183.05591111705593 74 204 254
-605.3047544758098 15.721507608305748 182.79839274128892 74 205 254
-599.1032323981275 15.634678154769112 184.21730003599282 74 205 254
-599.3554470738433 16.635279643420787 181.46903321196743 75 205 254
-601.4597084583463 16.92008298041531 180.69399807710084 74 205 254
-600.6264270407586 15.677755950519634 183.89850072785893 74 205 254
-599.5516762658855 15.425177584180034 184.8009806008808 75 205 254
-598.8553331178248 15.708320356664833 184.00832348666808 75 205 254
-598.6746129882551 16.36928669545606 182.0112363486631 75 205 254
-599.2911076330134 16.328922805529672 182.07070561343141 75 205 254
-598.0504490491521 15.56861073053781 185.90380353486833 75 205 254
-600.0078201065279 17.011056786440623 180.23288549145664 74 205 254
-599.366206991118 16.754499376844027 181.0787066528017 75 205 254
-598.9750478112809 15.333292416955812 185.15779759973773 74 205 254
-598.1493387200871 15.572541907165151 185.87479663864218 75 205 254
-598.815253633673 16.564330414964598 181.51824689289506 75 205 254
-599.0221216986695 15.383322383741982 184.89139554112816 75 205 254
-598.4784146798091 15.56499377889464 184.4313242667575 74 205 254
-600.7577958548949 16.06863777607583 182.62862052292107 74 204 254
-599.6347825756917 15.658989407749036 183.90065171785668 75 205 254
-603.3107440506692 16.020661839588115 182.3322840975264 75 204 254
-598.4266847323977 15.342431339058589 185.84621570365533 75 204 254
-598.3689176109933 16.208458985604317 182.44728997513562 74 205 254
-600.5030629559953 17.28920168440188 179.84036292030933 75 204 254
-601.195998913536 15.864556297669981 183.0993097659531 74 204 254
-600.2866758745472 15.615752140132358 184.7571905318421 75 205 254
-599.3951522820855 17.065097713141895 180.12613621962134 74 205 254
-598.3376673914653 15.406765273122843 184.83638501227287 74 205 254
-598.6137376131453 15.391861157394223 184.85745056509828 75 205 254
-599.0711711755855 15.517106610830458 184.4448353263223 75 205 254
-600.3976353158998 16.808868711966607 180.72354572653092 74 204 254
-599.215959828515 16.604548281789445 181.4328042203349 74 205 254
-600.0118707694153 15.443195658528492 184.90284176294256 75 204 254
-598.9830427573853 17.833375822314938 178.51130064662215 74 205 254
-598.3054012491517 15.592339036635169 184.19605513839835 75 205 254
-598.0005794384483 15.238292338606758 185.89800202382912 74 205 254
-598.3850876235483 16.396982624654214 181.95570213271543 75 205 254
-600.6906625315531 15.897395219520988 183.08562282469978 74 204 254
-598.1681953630502 15.58023014483847 184.32075236254826 74 205 254
-598.9623810484835 16.482270469075292 181.6853324667727 74 205 254
-599.5308734104116 17.53491929703002 179.2935617436529 74 205 254
-599.8823422179992 15.522866657770242 185.0244603917044 74 205 254
-598.5905282966115 15.568025445695287 184.29648750464747 74 205 254
-598.6647770269831 15.346502442332065 186.22802149291653 74 205 254
-601.2837114898683 16.038991188032625 182.63701325763927 75 204 254
-598.5353779953364 16.189906404812525 182.49040368004037 74 205 254
-601.337173396002 16.417344218644327 181.72325688065396 75 204 254
-601.4440180227588 16.764545792354433 180.77908420980776 75 204 254
-599.7351994192259 16.138516762347397 182.53822813143248 74 205 254
-598.203529352692 15.879202476969411 183.36265326708042 74 205 254
-600.1694206585186 15.75959624164902 183.5320788699276 74 204 254
-598.8664201318004 16.764488937371922 181.08874553152728 75 205 254
-598.8026245155344 16.194509746976316 182.45710792741008 75 205 254
-600.6387143475356 17.18236949228572 180.08927309752318 75 205 254
-600.2412647261683 16.106665466742605 182.58276141857093 74 204 254
-600.0275812765102 17.49519933806139 179.3411912661955 74 204 254
-604.2761537671232 15.73074054197758 182.84716090192657 75 205 254
-601.7429653885362 15.988800131400852 182.7124448062395 75 204 254
-600.6286324159137 15.585251256413262 184.08839314424608 74 205 254
-601.3886949183164 17.022356429189735 180.37995503079893 75 204 254
-604.2810102900967 15.878665294311242 182.4625936488091 75 205 254
-604.799349461818 15.783894640140659 182.55414542657402 75 204 254
-598.1371732114279 15.419945344435176 184.82097479754572 74 205 254
-599.1530406986641 15.834479261445583 183.41494742641126 75 205 254
-599.1837892328542 15.987238035828977 182.9986899799919 75 205 254
-600.3337369878931 16.482885301791892 181.6445026409872 74 204 254
-598.165811798202 15.714009160977529 183.84967828652017 75 205 254
-599.0002503631629 15.42507956297382 185.49292955041366 75 205 254
-598.9260526328165 17.065646981621587 180.16014092334606 75 205 254
-598.552818949509 16.95857615914694 180.59317998130433 75 205 254
-603.8086309920703 15.971339134440607 182.35391904268008 75 205 254
-598.9417154456572 16.369864667925356 181.98944673692105 75 205 254
-599.5705689361803 15.527090788632194 185.160069061834 74 205 254
-598.299103733978 16.047883024080043 182.89459486715467 74 205 254
-601.8977916587487 16.525594162562665 181.30304972118614 74 204 254
-599.7055294780082 16.82628873826762 180.88410866607487 75 205 254
-598.1138384154832 15.31093649206114 185.20593852855052 74 205 254
-600.0613431315983 15.626283192600567 183.99245165794977 75 205 254
-601.1411280240304 15.563609493102552 184.14306725600423 74 205 254
-603.764084896226 16.157684996246104 181.91816017620812 75 204 254
-601.1856751920967 15.688718837890796 183.60818796348434 74 204 254
-599.3574458181538 16.882831255794226 180.70281404428715 75 205 254
-601.7085543683523 15.658798557351211 183.61469437467207 74 204 254
-599.6997889038216 15.966646774970624 183.00482424861113 75 205 254
-598.7099215965637 16.02661543788522 182.92478955474846 75 205 254
-598.4412597414351 16.558342782977746 181.53012847052418 74 205 254
-599.6810725957205 16.786507472690094 180.98638447208214 75 204 254
-599.1209342492277 15.663258486207008 183.93179973425944 75 205 254
-599.2134934574444 15.582008127022803 185.11128651531573 75 205 254
-603.360488586446 16.21892459655471 181.85800491054317 75 205 254
-600.0068847816996 17.304202269333327 179.7609601457959 75 204 254
-598.859986231575 15.379395758770167 185.88224188317577 75 205 254
-598.3659929008759 15.280424259680112 186.33072787636598 75 204 254
-600.6920655642818 15.729396528116583 183.55674091784763 74 205 254
-601.8247359307198 16.3769728058966 181.7642008016703 75 204 254
-601.8970144678094 16.71874246568697 180.88973530711255 75 204 254
-599.6465442849383 15.793509457316942 183.4824375978331 74 205 254
-600.9118939153077 16.762939612578382 180.78144205688886 74 204 254
-598.9851129569643 17.27733042613342 179.6674348245616 74 205 254
-599.0305024580132 17.51828216813574 179.25074818989538 74 204 254
-599.6095561412733 15.506865169990068 184.4089544616631 74 205 254
-600.289542340154 16.27499621408663 182.11431244498195 74 204 254
-599.5099849538888 15.389263313341706 184.93883246799476 74 205 254
-599.3695217208603 15.444914484555083 185.39047576385056 75 204 254
-600.1777635222497 15.932678002834638 183.05229385408228 74 204 254
-598.5098229455352 15.334740212126432 185.4050590827899 74 204 254
-598.6410060343079 15.857573460539026 183.3972919716235 75 205 254
-598.4253327913692 15.98091306752578 183.06644142673665 75 205 254
-604.6508094270998 15.51122803894928 183.21999606127068 74 205 254
-597.9727827905497 16.08077499692869 182.7889780936266 74 205 254
-597.9933274989155 16.24156234011925 182.34728973471812 75 205 254
-599.9501646702447 16.30149125824915 182.0237906814786 74 205 254
-598.023328352232 16.00995316225101 182.9638548776209 75 205 254
-598.0700443952865 16.109430007566093 182.71165484593553 75 205 254
-600.5433943266869 16.85637872260138 180.64261129296696 74 205 254
-601.9763925832228 16.342206376637012 181.71757668334484 75 204 254
-604.4019068704755 15.694407575849066 182.77460801647135 74 205 254
-598.9486404240633 16.55715350752649 181.4492826664842 75 205 254
-598.5769653221854 17.174077018371946 180.05084535961606 75 205 254
-600.4344298363902 16.267684427379002 182.05021437820983 74 204 254
-599.4775951412457 17.12536518933506 180.08263649110188 74 205 254
-599.0441304136616 15.128106139234436 185.77306077770413 75 205 254
-599.1267695742209 17.353752668096405 179.61255483249826 74 205 254
-602.1159788912057 16.087106780009545 182.2701459024702 74 205 254
-600.2674552620487 15.752820109210832 183.4524153433166 74 204 254
-599.135078306261 16.85794791904952 180.69174085138317 74 205 254
-598.34528224274 15.047524603223836 186.15414145238685 75 204 254
-600.9939297507519 16.602027084074482 181.19475705409928 74 204 254
-599.5705089536541 16.88292779582449 180.63574213255723 75 205 254
-601.7128120359388 15.82389801956957 183.06416327181137 74 204 254
-599.941854362035 16.497613118518352 181.53870313193354 74 204 254
-602.8602150516485 15.878128242310266 182.6923983847032 75 205 254
-602.3207246492035 15.75587619379809 183.12760752073254 75 204 254
-597.9414074128359 15.864868602866167 183.35475404115914 74 205 254
-600.1784978009888 15.476645592524763 184.40790886958607 74 204 254
-601.4270860075306 16.189613852003415 182.12709155391445 74 204 254
-598.8362282516098 16.191033829317323 182.42176547739825 75 205 254
-599.0931927527404 16.705951416235635 181.12198131011561 74 205 254
-602.307905590706 16.31584385724196 181.72268696273147 74 205 254
-600.4995527103633 16.643138082881055 181.154051424941 74 204 254
-599.4102542794789 16.99388636481641 180.4179377901209 75 205 254
-600.4327812307633 17.178767540395917 180.1753078193717 74 205 254
-599.5631142906474 17.652681408583383 178.9465570951079 74 205 254
-601.5187030585291 16.76215380433698 180.84406331024897 75 204 254
-604.871763504414 15.493343322037882 183.18954790828377 74 205 254
-603.3661386803541 15.822900726399462 182.72376657006814 75 205 254
-599.1586427812015 17.633768785269524 179.22527972578078 75 205 254
-600.292176992103 15.92908359675358 182.99126938858308 74 204 254
-598.8897632469614 16.77324714507952 180.9795251541791 75 205 254
-597.7125866733345 15.330216140119289 185.12425181922592 74 205 254
-600.6830994206018 15.437399772135155 184.40049453409628 74 204 254
-599.4384001029415 16.50728393995684 181.53956145113938 75 205 254
-603.3312677991883 15.658565948349683 183.16948333620198 75 205 254
-598.2536066235564 15.304759823590732 185.12715542819495 74 205 254
-599.5158193129577 16.719464600212994 181.05633466728096 74 204 254
-601.8852609608269 16.16039680211788 182.1295658323335 74 204 254
-600.4533936051909 16.45909374995042 181.60106808006222 74 204 254
-601.9222232683856 15.77222712702396 183.15074444032956 74 205 254
-597.9773321281564 15.280370381500127 185.24663695850722 74 205 254
-598.4790900247485 16.777626885477368 180.97747487483275 75 205 254
-601.9041524825659 15.297345591639004 184.597556495887 75 205 254
-598.6942545741624 17.59588918407022 179.12251295039832 74 204 254
-601.890754271541 15.448325025206389 184.13306582178933 74 205 254
-601.7995868905562 15.992859923450354 182.59404098580669 74 204 254
-604.7225222076601 15.74609556707414 182.5406759869635 74 205 254
-600.9350418701022 16.22975381045378 182.08946815046752 75 204 254
-599.436245154796 16.341550806253505 181.96816847743565 74 204 254
-598.3061879718376 17.576042654442396 179.09931207581337 75 205 254
-601.6204819665932 15.379371096097401 184.45233702601377 74 204 254
-598.5766924582624 17.349065190020095 179.60251833889563 74 204 254
-601.2258612175804 15.39257224050344 184.44744245787126 74 204 254
-601.6974270348996 15.66917204648162 183.5163140626192 75 205 254
-601.2770435968132 15.68298406573044 183.54401374832793 75 204 254
-602.5496816109027 16.28947026652682 181.73668174014546 75 204 254
-604.9454435245251 15.620917867280195 182.79822407834158 74 205 254
-599.6743310735736 15.507562235316001 184.38621833577577 75 204 254
-600.5587379733204 17.038305974866013 180.30956775635892 74 204 254
-601.2404561999302 15.543186133110382 184.03850512049658 74 204 254
-598.2505254099916 15.714816644720939 183.75989356431586 75 205 254
-598.5362361034947 16.95563598389605 180.51215958960677 75 205 254
-602.3272659032436 15.604837448012528 183.59989321543458 75 204 254
-601.3357825330537 15.856337211926395 183.03509580461804 75 204 254
-602.6736713890156 15.436564937795517 184.03058271589165 75 204 254
-604.7032538999202 15.66560387170221 182.7593827858222 75 204 254
-600.8249873759095 15.889063388198588 183.02305578441982 74 204 254
-602.4408489068599 16.100772766417887 182.18478383558985 75 204 254
-600.7120296938176 15.588463348360998 183.99360377336106 75 205 254
-602.2060040409193 15.353658106341987 184.39055061389558 74 205 254
-602.2733034906958 15.451605536019336 184.07009858618892 75 204 254
-602.8486728449627 15.70626913842263 183.14936251514115 75 205 254
-602.0473494973875 15.956160456185913 182.64717047182168 75 205 254
-604.3399070708666 15.542838465950682 183.23956043003702 75 205 254
-598.2659202277847 15.882872794064758 183.28716447907664 75 205 254
-598.8060921341458 16.02336958925437 182.87874634192585 75 205 254
-603.8377057776283 15.600228111555065 183.2147162434764 75 205 254
-601.9326539552468 15.661653067337665 183.49298700660432 75 205 254
-599.9635040232821 16.690450675590917 181.09636827007222 74 204 254
-602.7769471197371 15.547174777045724 183.67474270153164 75 205 254
-602.3958847063695 15.927854362779339 182.65212871240186 75 204 254
-602.5807559282814 16.397138135894913 181.45007239653796 75 205 254
-598.5894857202749 16.515141685196888 181.56758856172794 74 205 254
-602.4248684520797 16.45990391311586 181.35281862540097 75 205 254
-599.0560875366659 15.265613662541435 185.25035290186622 74 205 254
-598.1276490817816 16.78256825895819 180.97634861785974 74 205 254
-600.0876493229291 17.078071545614012 180.18352439507208 74 204 254
-602.7927062439855 16.383240971300193 181.4918957553734 74 205 254
-600.0443257609993 16.875289743833463 180.6392633624791 74 204 254
-601.9604188245683 16.5364009464863 181.22693731432767 74 204 254
-599.6675504388584 16.848329617423996 180.66033112709675 74 205 254
-598.7228346896507 16.672180210881866 181.1839152953546 74 205 254
-598.1366719001411 16.368150154284347 181.9255706618684 75 205 254
-603.073191880453 15.981223621640824 182.2798718896301 75 205 254
-598.5256836725076 16.752984491661863 180.98719850133034 75 205 254
-599.5561966949286 16.286544929814706 182.01733613559972 74 204 254
-603.5370042655568 15.733467381216617 182.77240085821063 75 205 254
-598.1173956824719 16.56372777993076 181.4704558173311 75 205 254
-601.1121554045087 16.361620036830484 181.67835367684424 74 204 254
-602.1356106664687 16.255402074313206 181.7838598894947 75 204 254
-599.9724997421242 15.912729447032135 182.98992390181402 74 204 254
-603.8916660455299 15.835350663986812 182.44439386935068 74 205 254
-599.3194437697681 17.43861819808931 179.22045142475773 74 204 254
-597.6231784990061 15.363498731745517 185.14724572170059 74 205 254
-602.6124673377758 16.225128111411443 181.7729536346345 75 205 254
-598.0016596589994 16.193219775500324 182.37832238617057 75 205 254
-598.2255266321265 16.47874464709697 181.66329644714526 75 204 254
-598.3789117338847 15.837961407700295 183.37371182647644 75 205 254
-600.5649123917649 16.40933393900204 181.64562381447953 74 204 254
-599.5956608222624 16.480716485003732 181.56790546946712 74 204 254
-597.6693234689877 16.122850962052873 182.56451884047058 75 205 254
-598.2853661607736 15.446706193386147 184.71701118872255 74 205 254
-597.5243316499144 15.890540261280886 183.30927084487618 74 205 254
-598.3272485501586 15.337749680802723 185.1286893713401 74 205 254
-597.4531707806937 15.770164682592211 183.6256899855314 75 205 254
-597.8180099525903 15.449735561030032 184.767917642732 74 205 254
-599.8812855327742 15.71855347961257 183.48365545854847 74 205 254
-597.8219644865984 16.950327048806773 180.51402595299044 74 205 254
-599.8894786950451 15.570819319100773 183.9999720770514 75 205 254
-599.4838976932954 15.939367740557671 182.9655025844454 74 204 254
-598.2903754145892 17.534851162052668 179.16346130793946 75 205 254
-600.9081108288377 15.651907441616133 183.5244067704675 74 204 254
-597.4518245429296 15.601004258207047 184.06180967704213 75 204 254
-598.6063775235302 16.91249840625635 180.5606717583969 75 205 254
-598.4513814816971 15.99648184557795 182.89501604095125 74 205 254
-603.5548112419852 15.903381467961907 182.365102154287 75 205 254
-599.0197047599289 16.30411458029942 182.02246431048303 75 205 254
-597.6832214035246 15.562018371030941 184.3767206241306 74 205 254
-598.9653656774569 16.97783403495644 180.4134422754094 75 205 254
-598.4828838484842 16.159897861002236 182.4332628465717 74 205 254
-597.8993311003862 15.87956363543375 183.30533556965042 75 205 254
-597.9427604316575 15.566803873720994 184.27637800136526 74 205 254
-597.9535351570381 16.016406291859735 182.87439067932573 75 205 254
-598.959827636728 15.971766512119668 182.92502898420915 75 205 254
-598.1692206367801 16.944884568879772 180.5007310325974 75 205 254
-599.5272535470243 16.09543849810014 182.50739959162217 74 204 254
-599.9767559918791 16.067228886231156 182.54409968589934 74 204 254
-598.0175559945043 15.478291615361906 184.60171634086453 75 205 254
-602.5730014512774 16.03265324148751 182.23370091998518 75 205 254
-598.3340946072376 15.656671543216458 183.82268347714202 75 205 254
-599.5933797476287 17.42497397823263 179.22828680695144 75 205 254
-601.0334257012314 15.986660907493786 182.6162764937194 75 204 254
-598.0810187249099 15.407747653774585 184.9225290104959 74 205 254
-599.34641851709 15.484003082553816 184.416068917891 75 205 254
-599.2921458287755 17.285133643155888 179.69991395947332 75 205 254
-603.0267372148645 16.1652185805934 181.84568460417302 75 205 254
-603.3724700064478 16.050727502211895 182.0538597457163 75 205 254
-597.5209391051565 16.03284943024635 182.8641697587465 74 205 254
-598.208658127442 15.288569782476271 185.8880855128703 75 205 254
-598.8033085186074 15.504897431767665 184.40863982595067 75 205 254
-597.3469672178104 15.39750075314722 185.06140057326297 75 205 254
-600.7020051079496 16.983273346308586 180.2609022093399 74 204 254
-600.1704238412312 16.817731791917716 180.6925333184036 74 205 254
-598.5933533538537 15.315447199234413 185.85430727773266 75 205 254
-597.5932133790728 16.239459312944575 182.28939422957504 74 205 254
-598.8492890737125 15.647281257193995 183.80300189279666 75 205 254
-599.3189142924255 17.049224132739973 180.22536644184817 74 205 254
-597.3423709554203 15.433032259702301 184.8878259338735 75 204 254
-598.5312411695206 17.39583030863308 178.88568394750195 75 205 254
-598.1903003759154 15.325646166056742 185.2234566206783 74 205 254
-599.5457294367746 17.25577049546775 179.7422783646607 75 204 254
-597.6168255877838 16.364110978254438 181.98198037923368 74 205 254
-597.6417531228859 15.869787682951324 183.3889102444673 75 205 254
-598.8927202135861 15.80963134889863 183.38780535615115 75 205 254
-599.3840183576045 15.623376612497118 183.83440389576592 75 205 254
-599.0683810380009 16.518377053277806 181.5259136713755 75 205 254
-600.3303212739853 15.553064639615526 184.03413216711127 74 204 254
-597.7951452546057 16.792463533430553 180.9446996732084 74 205 254
-597.4698330472891 15.692110394214927 183.79467621996315 74 205 254
-598.4376922579833 16.613393321451294 181.34915822713393 75 205 254
-600.4891435701353 16.032476589920886 182.5727199819849 74 204 254
-599.0050637648911 16.13717380987063 182.45217302569966 75 205 254
-597.7861152786613 16.27676614870954 182.18566610977703 75 205 254
-598.6926095818542 17.108266948395137 180.12826962090332 75 205 254
-599.4079797942 15.77001889643346 183.41907509671728 74 205 254
-598.1247441560383 16.751622085883003 181.0139543383501 75 205 254
-598.5980720466922 16.54918240895977 181.48920279526803 75 205 254
-597.8808933479019 16.372967594756968 181.93900607911272 74 205 254
-598.2492486609848 15.55060022593632 184.34033537884562 74 205 254
-597.8871967817004 15.672683798906938 183.81080809945098 75 205 254
-597.6949679919043 16.575150934991157 181.45402917404726 74 205 254
-598.6942403619523 15.414359956165553 184.79314917626996 74 205 254
-601.130966859248 16.543140774981858 181.23032382834927 75 204 254
-604.0452863784565 15.676027874820136 182.7855187822905 74 205 254
-597.6578249618972 15.931880339770338 183.16205845328096 75 205 254
-600.394855444852 15.682964193133861 183.50776483532806 74 204 254
-597.4521578966393 15.566871197483298 184.35429206804702 74 205 254
-598.5248964898298 16.35375025572661 181.94267574121392 75 205 254
-598.1941812877466 17.1396281641485 180.04357671347455 74 205 254
-601.2060229553754 16.740170533073858 180.7739155118269 74 204 254
-598.7660308506282 17.135766260684463 180.10532823515084 75 205 254
-602.088798468111 15.680953932056775 183.14975097016023 75 204 254
-599.324518614974 15.271586021920138 185.30987384681907 75 205 254
-598.1894513478045 16.762036930297217 181.017390908394 75 205 254
-597.5406149946002 17.59962010117802 179.0537542247502 75 205 254
-599.5704574400232 15.934972805448808 182.96851405506553 74 205 254
-600.9052892494104 15.632667615972778 183.55765369445726 75 205 254
-598.8125229648111 16.87841718122597 180.61930383449845 74 205 254
-601.4907649574228 16.181906040000097 182.0532803003842 74 205 254
-600.1015516933638 16.05591312147111 182.52979555480584 74 204 254
-597.8092304510091 17.15442252149279 180.03164292705247 75 205 254
-601.2334669969869 16.53073461217587 181.2255099193946 75 204 254
-601.087550257867 16.69786181874246 180.956062120933 74 205 254
-599.2485239091884 16.700153840798905 181.0580506694444 74 205 254
-600.0916916061535 15.902611828516061 182.9743640854819 74 204 254
-601.3377946211012 15.38395062527308 184.42239583748764 75 204 254
-596.9183439497494 15.406519863482318 185.13086490477752 75 204 254
-602.6226740954744 15.804724051906238 182.71681664469762 75 205 254
-602.5536261835252 15.635410490003416 183.17322877015096 75 205 254
-597.3794787014449 16.817633346430426 180.95006634549185 74 205 254
-598.0098764023929 16.038768199457746 182.8647987687313 75 205 254
-600.744406710999 15.320773342797057 184.77135492910224 75 205 254
-601.2044863678499 16.335882218714666 181.68682376648457 75 204 254
-603.6588009835162 15.66968858285745 182.78100251238888 74 205 254
-603.5889562568722 15.547087595650167 183.16049727882628 75 205 254
-600.0922754243422 16.255143185723952 182.08542903593695 74 204 254
-601.6497742802933 16.454488387804666 181.3488321563141 74 205 254
-598.9056105124819 15.51156428574088 184.354986580975 75 205 254
-598.5238029901786 15.214848859989816 185.69812744140347 75 205 254
-601.5089161846274 16.309392903655834 181.6926509628658 75 205 254
-601.308949005777 16.05056109893634 182.36160716014908 75 205 254
-600.4039318573967 15.413016596218778 184.48905496642385 75 205 254
-600.9674987066218 15.826019434379889 183.02218582187402 75 205 254
-600.5585546858251 15.845382403856012 183.04268323557932 75 204 254
-603.0712767916867 15.586075006068738 183.19289129185967 75 205 254
-598.7202640988495 16.562554968685664 181.50976152349324 74 204 254
-599.3682171324295 15.36624487574029 184.91689214380065 74 205 254
-601.7303641529943 16.750950244557558 180.46049611055585 74 205 254
-599.1647353274425 16.522740522338992 181.56867609359207 74 204 254
-599.4689891023618 17.266068759733564 179.72645627649933 74 204 254
-599.8461009453033 17.07229785966411 180.19018972826933 75 204 254
-597.8630962488996 17.37963107804817 179.5924116335654 75 205 254
-598.813970948974 15.285447343378175 185.36602098752724 74 205 254
-597.4766591935792 15.703992308814746 183.75286327052623 75 205 254
-598.4907462210896 16.909358792708204 180.56094897201888 74 205 254
-598.3518436888802 15.351082540857535 185.14162305346028 74 205 254
-602.0137436025453 15.537797019047895 183.63183668774414 75 204 254
-598.3427387090555 16.586663173987922 181.4748968827899 74 205 254
-601.1101600406182 15.631476366114045 183.4981805505505 75 205 254
-603.8914204728404 15.519579686194625 183.14629395726078 74 204 254
-601.9401952225776 15.429981704814118 184.0640364356198 74 204 254
-604.1876143518585 15.603469295244091 182.79651478481154 74 204 254
-602.5288384741641 15.499802734096171 183.62323580256876 75 204 254
-598.406045758841 16.73895468859758 181.05693115100868 75 204 254
-600.2409296704429 16.606879499869347 181.1417732801291 74 204 254
-598.996307182546 15.78667001117079 183.394245851852 74 205 254
-599.6464141333787 16.290696188635714 182.046428603598 74 204 254
-597.1905784394667 16.08076922738985 182.79763743624733 74 205 254
-599.3935734732285 17.0959093764693 180.1482644239798 74 204 254
-601.5620237849646 15.38102378062744 184.36012342589714 75 204 254
-597.7062228617649 16.8050159415505 180.95876176507713 75 205 254
-597.6675970187767 15.141483570582636 186.10097917322298 74 205 254
-599.7170614270569 16.656334033623477 181.09929742541962 74 205 254
-597.5076663352354 17.411705621114226 179.53076467562448 74 205 254
-600.265035487784 16.836252021153737 180.67294892156616 74 204 254
-598.1822850981987 15.329936803942655 185.29599152433715 75 204 254
-601.1464169583155 16.1609971079146 182.14825582637212 75 204 254
-601.18075587403 15.758065123260655 183.13209580531782 74 205 254
-598.1098890234127 16.192193535181993 182.38525960026064 75 205 254
-601.4854073700487 15.604652610610778 183.52970434302938 74 204 254
-603.9351564927151 15.631850976622836 182.8094316486449 75 204 254
-599.7796559832302 16.855343300021847 180.6374386711209 74 205 254
-597.7664806853327 16.962859919021366 180.50302535257455 75 205 254
-601.5572987976528 15.732420396100464 183.13105845283226 75 204 254
-601.6940538256582 16.09978420767695 182.19489148270435 75 204 254
-598.4419723774432 15.664020662703818 183.7769718742843 75 205 254
-599.1581920606651 17.1762733012706 179.97480199330934 75 204 254
-598.7669307531426 16.724162264760075 181.04956837276904 74 204 254
-601.6236671813708 15.921055754862925 182.63845477023142 75 204 254
-600.9034021094762 15.382623359722288 184.51492734654067 74 205 254
-602.0417001146134 16.381281189280624 181.46687308039785 74 205 254
-597.2083172384515 15.278594793191166 185.68915890449205 74 205 254
-598.8458315872492 15.42324327170289 184.7790640239724 75 205 254
-597.5734898658493 15.879056536352966 183.34700375220802 75 205 254
-601.2841560308589 15.418311178551583 184.27275910963922 75 205 254
-601.8829866898164 16.3984500529243 181.43838603144977 74 205 254
-600.471462108659 15.547063475076422 183.9643866076562 74 204 254
-598.4784764477517 15.159662014182324 185.8338930777578 75 205 254
-601.0485098523668 15.974800111087273 182.60883658471894 74 204 254
-599.6982008620877 16.48926343555159 181.57081813864315 74 204 254
-598.5927239726517 16.994881112544533 180.37135063304558 75 204 254
-597.37768093787 16.071228040073766 182.82246616890225 74 205 254
-601.282877399612 15.94147980729437 182.65737031338514 75 205 254
-598.1632006767626 16.380919549877657 181.9598779407464 75 205 254
-599.9297003496021 15.47400914342597 184.3594667943151 74 205 254
-598.3400943919007 17.354545461664898 179.62142264992696 75 205 254
-602.0970986782659 15.86894086178691 182.67747991645027 75 204 254
-601.5377047304991 15.453975154165072 184.05350257770868 74 205 254
-600.6514366224868 16.20667688555345 182.1161358338274 74 204 254
-601.1867013802594 15.47867240552388 184.0339089743004 75 205 254
-598.6918361381157 16.491303285209085 181.5699638616258 74 204 254
-597.444381636353 17.595915466217924 179.14566426331572 75 205 254
-597.785306855938 16.94918687175459 180.56641411801286 74 205 254
-598.8346905586886 17.300235834412803 179.70897592000603 75 205 254
-598.0855009073342 16.170209781214247 182.44513331879213 74 205 254
-596.7349226439228 16.285439578040382 182.24463384607762 74 205 254
-597.155559143983 15.885197125982783 183.34098576028492 74 205 254
-597.6159054480923 16.193318072552213 182.42258840496228 75 205 254
-598.2041060988254 16.932020347385002 180.59319796318738 75 205 254
-597.1172800505324 16.4283601174614 181.89227830716192 75 205 254
-597.1030445725538 17.784140803972544 178.62387267903514 75 205 254
-597.4805335331646 16.44553993937293 181.82846957188693 74 205 254
-596.5724464561739 15.7451588433606 183.74661484859845 74 205 254
-597.9296772412432 17.555787232337693 179.18346215092723 75 205 254
-598.7690311450942 17.14641148205459 180.09962500442947 75 205 254
-597.0833632108862 15.556055997142794 184.309343029697 75 205 254
-598.4649845603847 15.654234828272617 183.86159315427668 75 205 254
-597.2638818987296 16.23450550083553 182.34215784153437 74 205 254
-597.6850905170039 15.455140214286416 184.86491771440762 75 204 254
-598.5554169221202 15.98320115800982 182.9441111963664 74 204 254
-597.3085578732935 16.310176971548096 182.1378687458234 75 205 254
-596.7949369400104 16.6190021027776 181.40193761293514 74 205 254
-597.4715864155415 17.722476846336246 178.6273528311616 74 204 254
-600.2301998111016 16.81627920663884 180.72649239922507 75 204 254
-597.3068214247684 16.98711279014623 180.4893936235133 75 205 254
-597.8129992817866 17.164558521279687 180.09699712355277 75 205 254
