-22.75717544555664 4.029803276062012 31.674070358276367 255 255 255
-20.590959548950195 7.429347038269043 33.73841094970703 255 255 255
-32.85476303100586 3.6017324924468994 37.067718505859375 255 255 255
-16.584962844848633 1.387450098991394 37.10458755493164 255 255 255
-22.129552841186523 5.413976669311523 32.905303955078125 255 255 255
-22.138580322265625 4.99111270904541 32.6502571105957 255 255 255
-22.196002960205078 5.016705513000488 32.66876983642578 255 255 255
-22.951744079589844 6.6001200675964355 33.71979522705078 255 255 255
-22.527748107910156 7.622562885284424 34.6522102355957 255 255 255
-15.69623851776123 3.6855993270874023 41.95270538330078 255 255 255
-21.636194229125977 4.272980690002441 31.462610244750977 255 255 255
-16.29501724243164 7.459858417510986 36.2405891418457 255 255 255
-17.947206497192383 6.858809471130371 32.986968994140625 255 255 255
-19.44528579711914 4.401349067687988 29.478862762451172 255 255 255
-19.890766143798828 6.151279449462891 29.79825782775879 255 255 255
-18.96991729736328 6.5542192459106445 29.356971740722656 255 255 255
-20.383289337158203 6.465134143829346 31.083335876464844 255 255 255
-21.122604370117188 7.223765850067139 32.439327239990234 255 255 255
-19.44371795654297 5.665396690368652 29.525310516357422 255 255 255
-20.43706703186035 6.675421237945557 30.616910934448242 255 255 255
-20.51528549194336 5.034853935241699 30.113420486450195 255 255 255
-19.582096099853516 5.355074405670166 29.430147171020508 255 255 255
-20.203744888305664 6.173943042755127 30.033782958984375 255 255 255
-18.388927459716797 7.39547872543335 35.106143951416016 255 255 255
-19.232616424560547 7.029078006744385 30.82413101196289 255 255 255
-20.589038848876953 5.554208278656006 30.505544662475586 255 255 255
-22.594778060913086 7.347005844116211 34.15868377685547 255 255 255
-21.39780616760254 6.745051383972168 31.6650447845459 255 255 255
-19.83310317993164 7.137670040130615 33.06455612182617 255 255 255
-20.333383560180664 7.608188629150391 34.6589241027832 255 255 255
-23.02776336669922 4.017389297485352 31.77259063720703 255 255 255
-21.29526710510254 7.4597883224487305 33.55196762084961 255 255 255
-20.511564254760742 6.396686553955078 30.44801902770996 255 255 255
-23.671655654907227 5.677563190460205 34.590885162353516 255 255 255
-24.541622161865234 6.75295352935791 35.377586364746094 255 255 255
-21.322351455688477 7.288538932800293 32.56743621826172 255 255 255
-23.772769927978516 2.92962384223938 31.987117767333984 255 255 255
-22.265310287475586 5.435299873352051 32.97074890136719 255 255 255
-22.397628784179688 5.248037815093994 32.95060729980469 255 255 255
-19.791650772094727 8.170928955078125 39.5965461730957 255 255 255
-20.633594512939453 7.981191635131836 38.097190856933594 255 255 255
-21.38392448425293 5.600736618041992 31.606956481933594 255 255 255
-21.92105484008789 6.837944030761719 32.79243087768555 255 255 255
-16.596181869506836 6.101194381713867 31.203929901123047 255 255 255
-22.31592559814453 4.268787860870361 31.847400665283203 255 255 255
-24.298377990722656 7.926107883453369 36.3023681640625 255 255 255
-24.068056106567383 7.841573715209961 36.111785888671875 255 255 255
-22.780746459960938 8.260583877563477 39.13844680786133 255 255 255
-17.096960067749023 4.535195827484131 48.750572204589844 255 255 255
-20.83306121826172 5.478002548217773 30.985361099243164 255 255 255
-21.542919158935547 5.3954925537109375 32.145809173583984 255 255 255
-22.179519653320312 4.985778331756592 32.535118103027344 255 255 255
-24.65342140197754 8.02804183959961 36.5474967956543 255 255 255
-20.794109344482422 4.9825520515441895 31.90410614013672 255 255 255
-38.47019577026367 -5.277257442474365 47.871612548828125 255 255 255
-26.131032943725586 1.5406177043914795 38.91728591918945 255 255 255
-49.38251876831055 -8.232955932617188 53.087825775146484 255 255 255
-49.245914459228516 -0.07262358069419861 79.45063781738281 255 255 255
-43.57745361328125 -2.7400901317596436 50.42261505126953 255 255 255
-36.440452575683594 1.7249175310134888 58.80438232421875 255 255 255
-36.84074401855469 -0.8356946110725403 44.83542251586914 255 255 255
-41.76340103149414 -1.2713755369186401 45.353336334228516 255 255 255
-25.813962936401367 8.59886646270752 40.958106994628906 255 255 255
-25.36934471130371 8.446550369262695 40.45913314819336 255 255 255
-22.320085525512695 8.28238296508789 40.85368728637695 255 255 255
-20.187408447265625 7.659544467926025 35.94927215576172 255 255 255
-20.452848434448242 7.680866241455078 36.84280776977539 255 255 255
-23.180166244506836 6.904786109924316 33.077980041503906 255 255 255
-22.196842193603516 5.786582946777344 31.720470428466797 255 255 255
-24.656505584716797 6.147819519042969 35.51940155029297 255 255 255
-24.67597007751465 6.7672343254089355 35.45437240600586 255 255 255
-24.416255950927734 6.363668918609619 35.224449157714844 255 255 255
-24.56833267211914 6.75462532043457 35.39558792114258 255 255 255
-24.297361373901367 6.7231059074401855 35.2431526184082 255 255 255
-25.75737762451172 6.462540149688721 36.254756927490234 255 255 255
-21.417911529541016 8.129741668701172 38.94619369506836 255 255 255
-22.38054084777832 5.255460262298584 32.94053649902344 255 255 255
-24.934017181396484 6.420803546905518 35.97089767456055 255 255 255
-28.225330352783203 2.932537317276001 73.63450622558594 255 255 255
-23.555419921875 7.762578010559082 36.98185348510742 255 255 255
-17.190153121948242 5.658369064331055 37.8459358215332 255 255 255
-21.659381866455078 5.401700973510742 32.191688537597656 255 255 255
-17.381948471069336 5.7158074378967285 38.85116195678711 255 255 255
-24.93694305419922 5.395820617675781 34.407676696777344 255 255 255
-20.2102108001709 8.424792289733887 40.46615982055664 255 255 255
-19.55206298828125 8.140917778015137 39.784584045410156 255 255 255
-22.05089569091797 6.613209247589111 32.83679962158203 255 255 255
-26.21986961364746 7.290707111358643 37.233272552490234 255 255 255
-25.00699806213379 3.445833206176758 44.92523956298828 255 255 255
-21.94474983215332 8.699417114257812 42.43696975708008 255 255 255
-23.61499786376953 5.9906511306762695 34.71847915649414 255 255 255
-17.927871704101562 3.400526285171509 37.374412536621094 255 255 255
-18.452922821044922 3.046645402908325 38.98167037963867 255 255 255
-23.224369049072266 6.47764778137207 33.82406234741211 255 255 255
-22.568614959716797 6.360726356506348 33.496036529541016 255 255 255
-23.348703384399414 6.503768444061279 33.887847900390625 255 255 255
-22.404722213745117 7.946280479431152 37.87795639038086 255 255 255
-22.300111770629883 7.253053665161133 33.952423095703125 255 255 255
-26.15775489807129 4.6408185958862305 35.44253921508789 255 255 255
-26.758689880371094 7.254316329956055 37.73644256591797 255 255 255
-25.76417350769043 8.460850715637207 39.8304328918457 255 255 255
-22.59870719909668 8.584152221679688 42.01568603515625 255 255 255
-25.591691970825195 8.529492378234863 40.73224639892578 255 255 255
-18.048599243164062 3.802245855331421 38.12943649291992 255 255 255
-19.153305053710938 3.357211112976074 41.717445373535156 255 255 255
-27.20612335205078 5.858072280883789 37.88777542114258 255 255 255
-24.11995506286621 8.521547317504883 41.147850036621094 255 255 255
-62.45140075683594 4.881848335266113 60.045692443847656 255 255 255
-29.09748077392578 2.1773622035980225 35.4508056640625 255 255 255
-20.982872009277344 1.5407958030700684 40.296165466308594 255 255 255
-26.544498443603516 5.7860918045043945 37.11848449707031 255 255 255
-29.474546432495117 11.160089492797852 55.3971061706543 255 255 255
-23.610950469970703 1.6487163305282593 53.37896728515625 255 255 255
-40.6427001953125 -6.194331645965576 49.66614532470703 255 255 255
-22.044342041015625 5.800230979919434 32.75614929199219 255 255 255
-22.440948486328125 5.253789901733398 32.96590042114258 255 255 255
-18.673322677612305 7.785455703735352 38.23392868041992 255 255 255
-32.07113265991211 8.295642852783203 42.40202331542969 255 255 255
-22.132688522338867 2.078747510910034 52.521575927734375 255 255 255
-19.131755828857422 6.204493045806885 41.15399169921875 255 255 255
-26.777963638305664 7.267211437225342 37.76753616333008 255 255 255
-23.05131721496582 8.265658378601074 39.72117614746094 255 255 255
-23.417705535888672 1.5327974557876587 48.546390533447266 255 255 255
-19.538244247436523 10.088668823242188 57.71671676635742 255 255 255
-38.84440612792969 -3.4538893699645996 49.20846176147461 255 255 255
-21.67095184326172 8.509256362915039 41.84402084350586 255 255 255
-25.87264633178711 4.183417320251465 35.765907287597656 255 255 255
-24.318063735961914 8.841277122497559 43.70131301879883 255 255 255
-26.647367477416992 6.344302654266357 37.25324249267578 255 255 255
-28.082529067993164 4.1845479011535645 36.26606369018555 255 255 255
-23.419692993164062 1.3994224071502686 46.42081832885742 255 255 255
-23.259920120239258 5.726618766784668 33.50811004638672 255 255 255
-19.243566513061523 7.7307610511779785 39.988800048828125 255 255 255
-23.279132843017578 5.270411491394043 34.22683334350586 255 255 255
-19.827394485473633 6.426862716674805 44.00614547729492 255 255 255
-21.597108840942383 8.210241317749023 39.18839645385742 255 255 255
-20.996566772460938 7.097225666046143 48.49723815917969 255 255 255
-25.809892654418945 8.457172393798828 38.376365661621094 255 255 255
-24.798128128051758 8.130595207214355 37.58433532714844 255 255 255
-22.06658935546875 5.249129772186279 32.79898452758789 255 255 255
-23.192394256591797 8.020737648010254 37.3198356628418 255 255 255
-22.75184440612793 8.078246116638184 38.2281494140625 255 255 255
-21.949373245239258 5.422257423400879 32.82487869262695 255 255 255
-28.679155349731445 3.8655083179473877 36.847076416015625 255 255 255
-20.950809478759766 10.581799507141113 54.222408294677734 255 255 255
-29.913692474365234 10.030256271362305 44.3364143371582 255 255 255
-23.75642967224121 5.270533561706543 33.537353515625 255 255 255
-20.172395706176758 4.359091758728027 40.9505500793457 255 255 255
-28.064868927001953 8.894370079040527 42.88935089111328 255 255 255
-36.88925552368164 12.518390655517578 72.48941040039062 255 255 255
-27.9740047454834 8.914047241210938 43.005409240722656 255 255 255
-25.839597702026367 8.94884967803955 44.1875 255 255 255
-24.573171615600586 6.382638454437256 35.31538009643555 255 255 255
-19.68368148803711 7.741349220275879 37.241058349609375 255 255 255
-27.286306381225586 -1.3554980754852295 61.607269287109375 255 255 255
-23.22981834411621 9.228259086608887 45.877464294433594 255 255 255
-21.3350887298584 4.2451491355896 54.9518928527832 255 255 255
-23.425683975219727 8.468327522277832 39.518287658691406 255 255 255
-23.021657943725586 5.8235602378845215 33.89119338989258 255 255 255
-68.25205993652344 9.948832511901855 56.211952209472656 255 255 255
-69.27625274658203 7.146122932434082 56.67229461669922 255 255 255
-69.54456329345703 10.337557792663574 56.99876022338867 255 255 255
-69.34037017822266 10.27711296081543 56.918426513671875 255 255 255
-69.12065887451172 10.024009704589844 56.498592376708984 255 255 255
-70.29039001464844 7.231752395629883 56.71622085571289 255 255 255
-70.08732604980469 6.752787113189697 56.73200988769531 255 255 255
-65.90292358398438 8.17541217803955 55.34964370727539 255 255 255
-68.86504364013672 6.629591464996338 55.515045166015625 255 255 255
-68.8968276977539 8.253561973571777 48.99948501586914 255 255 255
-68.03520965576172 6.9391703605651855 52.99311065673828 255 255 255
-67.21635437011719 7.993197917938232 49.618316650390625 255 255 255
-67.17898559570312 6.660861015319824 53.70787811279297 255 255 255
-65.42797088623047 7.078808307647705 52.758358001708984 255 255 255
-73.45726013183594 11.00397777557373 60.480228424072266 255 255 255
-73.400634765625 11.008023262023926 60.40474319458008 255 255 255
-66.78124237060547 6.781961441040039 53.73477554321289 255 255 255
-69.83349609375 5.305599212646484 54.2438850402832 255 255 255
-64.32432556152344 8.21119213104248 55.91788101196289 255 255 255
-65.66698455810547 7.195131301879883 52.502838134765625 255 255 255
-68.19029998779297 8.77302360534668 49.316158294677734 255 255 255
-66.77197265625 8.661774635314941 49.95171356201172 255 255 255
-67.12859344482422 8.62369441986084 49.75651550292969 255 255 255
-66.87689971923828 8.65805435180664 49.899383544921875 255 255 255
-71.04476928710938 7.3523945808410645 55.45880889892578 255 255 255
-69.35157012939453 6.9142746925354 53.224403381347656 255 255 255
-69.90420532226562 11.408117294311523 56.8274040222168 255 255 255
-67.85318756103516 10.391128540039062 57.76797103881836 255 255 255
-67.48313903808594 10.85982894897461 56.65864944458008 255 255 255
-67.71431732177734 10.88113784790039 56.70589065551758 255 255 255
-67.0694580078125 10.384507179260254 57.52792739868164 255 255 255
-67.8232421875 7.031295299530029 53.01810073852539 255 255 255
-63.75498580932617 7.872201442718506 56.74245834350586 255 255 255
-24.340742111206055 9.180721282958984 46.93934631347656 255 255 255
-25.92940902709961 11.531641960144043 67.45236206054688 255 255 255
-27.445947647094727 5.93622350692749 37.73698043823242 255 255 255
-20.058706283569336 7.998321056365967 39.108787536621094 255 255 255
-24.691938400268555 8.159482955932617 37.908973693847656 255 255 255
-25.297075271606445 5.932579517364502 35.623104095458984 255 255 255
-26.098628997802734 6.300807952880859 36.96806335449219 255 255 255
-24.56114387512207 5.8952436447143555 35.33020782470703 255 255 255
-26.836139678955078 7.248900890350342 37.768341064453125 255 255 255
-27.7766056060791 6.758505344390869 38.61452865600586 255 255 255
-24.740581512451172 8.96289348602295 44.05635070800781 255 255 255
-30.369577407836914 6.882194995880127 41.19504928588867 255 255 255
-30.353975296020508 6.877001762390137 41.20014572143555 255 255 255
-28.17511558532715 8.940971374511719 42.99009704589844 255 255 255
-26.1921329498291 6.655339241027832 38.58642578125 255 255 255
-27.037946701049805 6.7378764152526855 39.0335693359375 255 255 255
-24.8032283782959 9.020509719848633 44.19780731201172 255 255 255
-22.130615234375 2.0969066619873047 47.84148025512695 255 255 255
-19.214202880859375 6.301496505737305 41.752689361572266 255 255 255
-29.813926696777344 6.342396259307861 40.644248962402344 255 255 255
-24.794034957885742 8.807929039001465 43.01694107055664 255 255 255
-27.972919464111328 8.70055103302002 41.09629440307617 255 255 255
-48.374916076660156 4.536813259124756 52.307586669921875 255 255 255
-33.266117095947266 6.667613983154297 43.59644317626953 255 255 255
-56.822349548339844 8.764002799987793 58.02336120605469 255 255 255
-28.09444808959961 9.2249116897583 47.017574310302734 255 255 255
-19.26999855041504 7.913812637329102 42.82571029663086 255 255 255
-27.115345001220703 5.841184616088867 37.38152313232422 255 255 255
-27.080276489257812 6.2377471923828125 39.114601135253906 255 255 255
-25.960647583007812 8.990504264831543 44.35187530517578 255 255 255
-29.0648193359375 9.211028099060059 45.22880554199219 255 255 255
-31.764997482299805 9.514749526977539 46.89454650878906 255 255 255
-32.33808517456055 -2.2121145725250244 89.03740692138672 255 255 255
-31.852800369262695 3.0833568572998047 55.178890228271484 255 255 255
-32.319705963134766 9.797786712646484 49.593505859375 255 255 255
-36.130775451660156 8.341029167175293 57.21957015991211 255 255 255
-30.124631881713867 6.993283271789551 41.174285888671875 255 255 255
-26.91609001159668 9.07216739654541 44.10041809082031 255 255 255
-27.668087005615234 9.385086059570312 44.98365783691406 255 255 255
-29.291418075561523 9.30338191986084 43.914066314697266 255 255 255
-30.50147819519043 6.738983631134033 40.956783294677734 255 255 255
-24.103599548339844 8.338422775268555 40.68069839477539 255 255 255
-23.764938354492188 3.4439852237701416 42.29338073730469 255 255 255
-26.26542091369629 9.132318496704102 44.77854919433594 255 255 255
-26.575464248657227 8.42269229888916 41.63228988647461 255 255 255
-31.374706268310547 5.579711437225342 41.194358825683594 255 255 255
-21.04625129699707 4.522851467132568 42.743473052978516 255 255 255
-30.254962921142578 9.107569694519043 41.634010314941406 255 255 255
-23.159090042114258 8.559054374694824 42.66144561767578 255 255 255
-26.732624053955078 6.708199977874756 38.84394073486328 255 255 255
-28.018173217773438 8.723359107971191 41.13242721557617 255 255 255
-27.517162322998047 8.801490783691406 41.4307746887207 255 255 255
-23.534725189208984 4.386301517486572 43.34728240966797 255 255 255
-24.62291145324707 8.562426567077637 41.2780876159668 255 255 255
-28.848875045776367 6.201153755187988 39.6899528503418 255 255 255
-28.794286727905273 7.42941951751709 39.70980453491211 255 255 255
-27.34267234802246 6.604689598083496 38.38230895996094 255 255 255
-26.827028274536133 6.573680400848389 38.202125549316406 255 255 255
-32.1054573059082 8.971919059753418 42.54934310913086 255 255 255
-22.174057006835938 8.132843017578125 46.504764556884766 255 255 255
-26.222610473632812 7.298125267028809 37.23528289794922 255 255 255
-28.811260223388672 5.796873092651367 38.15089797973633 255 255 255
-21.913713455200195 8.681679725646973 42.38847732543945 255 255 255
-22.093473434448242 7.9861578941345215 44.840179443359375 255 255 255
-31.283769607543945 5.612076282501221 41.233924865722656 255 255 255
-27.680908203125 6.749015808105469 38.570587158203125 255 255 255
-32.956302642822266 9.807344436645508 47.922142028808594 255 255 255
-37.86912536621094 4.246469974517822 43.56496047973633 255 255 255
-21.626930236816406 5.06216287612915 43.89894104003906 255 255 255
-29.969118118286133 6.981525897979736 41.11341857910156 255 255 255
-20.818939208984375 4.939860820770264 42.05177688598633 255 255 255
-28.203231811523438 8.947701454162598 43.016239166259766 255 255 255
-20.97166633605957 5.265204429626465 41.820133209228516 255 255 255
-26.507814407348633 9.098919868469238 44.535438537597656 255 255 255
-29.443620681762695 6.8353729248046875 40.780303955078125 255 255 255
-25.330387115478516 8.15107250213623 45.341087341308594 255 255 255
-29.444446563720703 9.40004825592041 46.36787414550781 255 255 255
-26.970848083496094 6.732168674468994 38.98257827758789 255 255 255
-26.87030029296875 6.725828647613525 38.94224166870117 255 255 255
-26.356969833374023 6.213489055633545 38.60466384887695 255 255 255
-27.63083839416504 7.266221523284912 39.22174072265625 255 255 255
-28.716291427612305 8.554630279541016 40.24817657470703 255 255 255
-29.342594146728516 9.617664337158203 48.4093132019043 255 255 255
-24.952394485473633 9.088258743286133 45.25313186645508 255 255 255
-27.300668716430664 6.762078285217285 39.13112258911133 255 255 255
-29.361186981201172 6.162213325500488 39.95729446411133 255 255 255
-30.76783561706543 6.739718914031982 41.085479736328125 255 255 255
-30.515506744384766 8.730466842651367 49.35886001586914 255 255 255
-31.586986541748047 7.1981306076049805 43.01694107055664 255 255 255
-30.91853141784668 7.279201984405518 42.024112701416016 255 255 255
-30.97522735595703 7.27987003326416 42.0484619140625 255 255 255
-29.88382339477539 9.363471031188965 44.71591567993164 255 255 255
-29.292232513427734 9.600408554077148 48.36168670654297 255 255 255
-29.474807739257812 9.453134536743164 46.476680755615234 255 255 255
-29.780576705932617 8.86142349243164 49.52037048339844 255 255 255
-27.246353149414062 8.831868171691895 45.600425720214844 255 255 255
-31.31439208984375 9.708382606506348 48.035560607910156 255 255 255
-34.70650863647461 9.544639587402344 45.35879898071289 255 255 255
-27.917173385620117 3.212008237838745 58.09897232055664 255 255 255
-35.68406677246094 7.889518737792969 45.223289489746094 255 255 255
-36.65734100341797 9.406363487243652 45.0234375 255 255 255
-31.093597412109375 9.220559120178223 53.411476135253906 255 255 255
-32.1394157409668 9.282909393310547 52.21235275268555 255 255 255
-30.24424934387207 7.839620113372803 51.68334197998047 255 255 255
-34.90409469604492 9.517826080322266 45.79630661010742 255 255 255
-30.855655670166016 7.278690338134766 41.989585876464844 255 255 255
-26.94114875793457 6.724818229675293 38.95616912841797 255 255 255
-36.95424270629883 10.749818801879883 45.07992935180664 255 255 255
-27.832670211791992 9.143856048583984 43.803226470947266 255 255 255
-21.81599235534668 5.707334518432617 42.56092834472656 255 255 255
-36.96244812011719 7.617834568023682 45.849151611328125 255 255 255
-31.019561767578125 8.555098533630371 41.71319580078125 255 255 255
-26.842164993286133 9.278818130493164 45.01382064819336 255 255 255
-27.690336227416992 8.63444709777832 40.92143249511719 255 255 255
-29.216272354125977 6.1833109855651855 39.77788543701172 255 255 255
-28.830446243286133 6.18725061416626 39.633026123046875 255 255 255
-28.53558349609375 6.202040672302246 39.529052734375 255 255 255
-30.84173583984375 5.928011894226074 63.031761169433594 255 255 255
-33.287208557128906 9.377979278564453 45.04833221435547 255 255 255
-28.505979537963867 8.496384620666504 47.655391693115234 255 255 255
-31.542882919311523 9.474884986877441 46.78349304199219 255 255 255
-35.71379089355469 9.83456802368164 48.6572151184082 255 255 255
-30.444747924804688 8.690141677856445 49.28056335449219 255 255 255
-36.809391021728516 10.312399864196777 51.985740661621094 255 255 255
-37.569698333740234 10.527491569519043 52.66973114013672 255 255 255
-36.418731689453125 10.199798583984375 51.629852294921875 255 255 255
-30.713590621948242 10.078060150146484 52.0325813293457 255 255 255
-30.895503997802734 9.565022468566895 47.59437942504883 255 255 255
-31.57843017578125 7.3299560546875 42.99142837524414 255 255 255
-33.46003341674805 9.417820930480957 45.135337829589844 255 255 255
-31.940963745117188 9.335646629333496 45.74260711669922 255 255 255
-28.496755599975586 8.865553855895996 43.55296325683594 255 255 255
-26.15565299987793 6.362092018127441 51.49561309814453 255 255 255
-30.032520294189453 9.108170509338379 43.53327178955078 255 255 255
-29.610258102416992 6.600192546844482 40.361907958984375 255 255 255
-34.01369094848633 6.933559894561768 44.14741516113281 255 255 255
-29.8677921295166 5.746981143951416 40.769893646240234 255 255 255
-31.158769607543945 7.202938556671143 42.86519241333008 255 255 255
-31.985267639160156 8.219513893127441 42.381591796875 255 255 255
-28.94369125366211 6.186375141143799 39.668888092041016 255 255 255
-31.466468811035156 7.212489604949951 42.99699020385742 255 255 255
-27.25641441345215 6.740132808685303 39.0797233581543 255 255 255
-29.9741153717041 6.981683254241943 41.11314392089844 255 255 255
-35.49782180786133 9.735089302062988 47.521480560302734 255 255 255
-44.72824478149414 0.18400435149669647 44.97307205200195 255 255 255
-26.964290618896484 3.695632219314575 54.98493194580078 255 255 255
-35.769432067871094 -0.7338570356369019 88.04316711425781 255 255 255
-28.964021682739258 7.458099365234375 40.476295471191406 255 255 255
-29.283132553100586 6.780628681182861 40.351200103759766 255 255 255
-38.27906036376953 4.451147079467773 44.198795318603516 255 255 255
-30.041553497314453 9.19577407836914 43.87445831298828 255 255 255
-30.120952606201172 9.1379976272583 43.605316162109375 255 255 255
-29.389509201049805 9.38388442993164 46.26703643798828 255 255 255
-30.374225616455078 6.268556594848633 40.83607482910156 255 255 255
-27.222265243530273 8.60754108428955 42.26042556762695 255 255 255
-31.732763290405273 8.961331367492676 42.30009078979492 255 255 255
-34.00046157836914 9.439688682556152 43.30160140991211 255 255 255
-32.50118637084961 6.304238796234131 43.0240478515625 255 255 255
-25.273462295532227 6.039425373077393 46.76512145996094 255 255 255
-38.85276794433594 4.9150919914245605 76.13794708251953 255 255 255
-36.060787200927734 10.851760864257812 47.57909393310547 255 255 255
-28.900484085083008 10.339225769042969 49.567832946777344 255 255 255
-29.343822479248047 9.428154945373535 46.634090423583984 255 255 255
-43.6733283996582 11.599059104919434 49.76500701904297 255 255 255
-26.306406021118164 10.129071235656738 48.285972595214844 255 255 255
-29.993459701538086 5.7419304847717285 40.81051254272461 255 255 255
-30.0567569732666 7.188183784484863 41.62678146362305 255 255 255
-43.76817321777344 13.606162071228027 85.55767059326172 255 255 255
-26.668991088867188 9.227462768554688 46.05995559692383 255 255 255
-35.228939056396484 5.003544807434082 66.64066314697266 255 255 255
-29.956539154052734 1.3044394254684448 59.18853759765625 255 255 255
-25.240154266357422 3.4519360065460205 52.05507278442383 255 255 255
-29.751155853271484 9.435588836669922 45.855445861816406 255 255 255
-28.978696823120117 9.23275375366211 45.814476013183594 255 255 255
-31.834243774414062 7.221400737762451 43.163246154785156 255 255 255
-30.917789459228516 10.197604179382324 48.999839782714844 255 255 255
-48.814208984375 12.710200309753418 51.013187408447266 255 255 255
-29.417522430419922 9.650480270385742 48.54852294921875 255 255 255
-29.140275955200195 9.257743835449219 45.340267181396484 255 255 255
-29.239856719970703 9.333172798156738 46.135353088378906 255 255 255
-31.635848999023438 7.203938007354736 43.03541946411133 255 255 255
-31.318204879760742 9.402868270874023 46.55534362792969 255 255 255
-25.491697311401367 7.787384510040283 47.165958404541016 255 255 255
-31.04628562927246 7.193938255310059 42.81924057006836 255 255 255
-31.86025047302246 9.082715034484863 43.230010986328125 255 255 255
-30.14603614807129 9.057384490966797 50.36171340942383 255 255 255
-31.640666961669922 9.865543365478516 49.72124481201172 255 255 255
-28.7532958984375 5.552763938903809 55.63645553588867 255 255 255
-36.58319854736328 7.797391891479492 46.1570930480957 255 255 255
-31.394908905029297 7.204892158508301 42.971675872802734 255 255 255
-31.21839714050293 9.35980224609375 46.553714752197266 255 255 255
-31.46527862548828 9.789398193359375 48.19253921508789 255 255 255
-36.14649963378906 9.32407283782959 44.92719650268555 255 255 255
-31.142765045166016 5.594314098358154 51.53052520751953 255 255 255
-37.08576202392578 9.708454132080078 45.86393737792969 255 255 255
-35.4044189453125 9.713630676269531 47.43809127807617 255 255 255
-34.67160415649414 9.199270248413086 44.46793746948242 255 255 255
-31.678321838378906 9.911961555480957 49.79997634887695 255 255 255
-34.402557373046875 9.14004898071289 44.043006896972656 255 255 255
-33.431941986083984 6.683539390563965 43.17902755737305 255 255 255
-29.402250289916992 8.19147777557373 49.715965270996094 255 255 255
-31.62214469909668 9.877026557922363 49.71628189086914 255 255 255
-30.629314422607422 7.2322235107421875 41.82611083984375 255 255 255
-35.359188079833984 9.661876678466797 47.24021911621094 255 255 255
-28.928468704223633 9.273571968078613 51.92727279663086 255 255 255
-30.986549377441406 10.744335174560547 51.61967849731445 255 255 255
-34.75993728637695 9.4905366897583 45.73250198364258 255 255 255
-31.914857864379883 8.977861404418945 51.982505798339844 255 255 255
-34.26359176635742 9.774496078491211 55.43737030029297 255 255 255
-36.637542724609375 10.381749153137207 58.86393356323242 255 255 255
-25.410457611083984 6.601306438446045 46.45713424682617 255 255 255
-34.448814392089844 9.15041446685791 44.075862884521484 255 255 255
-32.13449478149414 7.212616920471191 43.20124435424805 255 255 255
-28.357200622558594 9.059102058410645 47.67164611816406 255 255 255
-28.401832580566406 9.088976860046387 47.7542610168457 255 255 255
-35.62150192260742 9.726387977600098 47.4073600769043 255 255 255
-32.51427459716797 9.862160682678223 49.83393478393555 255 255 255
-32.745849609375 3.8410162925720215 56.51605987548828 255 255 255
-27.36840057373047 9.088536262512207 47.93325424194336 255 255 255
-27.979284286499023 9.449676513671875 49.19540023803711 255 255 255
-32.16140365600586 9.525091171264648 46.5336799621582 255 255 255
-27.78944206237793 9.335397720336914 48.84564971923828 255 255 255
-30.760339736938477 9.57126235961914 55.85420227050781 255 255 255
-32.47138977050781 9.700211524963379 47.26682662963867 255 255 255
-34.295379638671875 9.45163345336914 45.18544387817383 255 255 255
-34.749114990234375 9.195408821105957 44.45169448852539 255 255 255
-33.70071792602539 7.376020431518555 44.360191345214844 255 255 255
-32.550052642822266 9.4967622756958 46.683692932128906 255 255 255
-32.068904876708984 9.101018905639648 51.84800338745117 255 255 255
-29.78437042236328 6.965733528137207 51.20399856567383 255 255 255
-35.15291976928711 9.296806335449219 44.566619873046875 255 255 255
-35.53178024291992 8.39969539642334 62.44230651855469 255 255 255
-35.146392822265625 9.6361665725708 47.305416107177734 255 255 255
-28.47308921813965 9.130951881408691 47.89388656616211 255 255 255
-29.377870559692383 9.643142700195312 48.49754333496094 255 255 255
-32.3041877746582 9.427926063537598 45.975914001464844 255 255 255
-31.44434356689453 9.729469299316406 57.3068962097168 255 255 255
-34.199729919433594 6.678285121917725 43.466339111328125 255 255 255
-30.586328506469727 1.8929954767227173 62.80830764770508 255 255 255
-32.96084976196289 8.8909912109375 51.610591888427734 255 255 255
-41.58914566040039 10.112771987915039 46.3499641418457 255 255 255
-36.50701904296875 10.047076225280762 50.09804153442383 255 255 255
-39.18412780761719 9.842588424682617 47.38908386230469 255 255 255
-36.177398681640625 10.279766082763672 51.997886657714844 255 255 255
-36.66411209106445 10.280935287475586 51.89039993286133 255 255 255
-41.381954193115234 8.875916481018066 46.98061752319336 255 255 255
-31.078842163085938 8.385241508483887 48.351844787597656 255 255 255
-33.3288688659668 8.946221351623535 51.95175552368164 255 255 255
-34.62797546386719 9.567801475524902 47.93090057373047 255 255 255
-33.55085754394531 9.444173812866211 45.158233642578125 255 255 255
-32.93902587890625 7.4220499992370605 44.20752716064453 255 255 255
-31.210397720336914 9.698173522949219 47.93605422973633 255 255 255
-32.753719329833984 9.966032028198242 50.09187698364258 255 255 255
-30.0438289642334 9.441080093383789 49.663063049316406 255 255 255
-29.320905685424805 8.782449722290039 49.570919036865234 255 255 255
-34.27853012084961 9.450608253479004 45.19351577758789 255 255 255
-31.223167419433594 9.360766410827637 46.55337905883789 255 255 255
-31.139223098754883 8.887656211853027 52.452659606933594 255 255 255
-29.522647857666016 9.516128540039062 48.857749938964844 255 255 255
-29.111570358276367 8.70298957824707 48.653541564941406 255 255 255
-32.18658447265625 8.675165176391602 50.17447280883789 255 255 255
-29.427574157714844 7.019769668579102 50.25265121459961 255 255 255
-35.49256134033203 9.418058395385742 45.243385314941406 255 255 255
-30.61181640625 7.621068954467773 51.338287353515625 255 255 255
-35.811920166015625 9.586382865905762 46.25333786010742 255 255 255
-29.269393920898438 9.316892623901367 49.28937530517578 255 255 255
-29.512609481811523 9.688202857971191 49.47880935668945 255 255 255
-34.87697982788086 10.039349555969238 49.645721435546875 255 255 255
-36.06650161743164 9.496626853942871 55.563175201416016 255 255 255
-37.53055191040039 9.70605182647705 46.091041564941406 255 255 255
-33.41072463989258 9.377199172973633 51.25004196166992 255 255 255
-32.48283386230469 9.10839557647705 50.08848571777344 255 255 255
-34.75552749633789 10.044456481933594 49.58884811401367 255 255 255
-34.38358688354492 9.904783248901367 49.267860412597656 255 255 255
-32.33265686035156 8.704120635986328 50.42029571533203 255 255 255
-35.378082275390625 9.729673385620117 47.471866607666016 255 255 255
-31.09093475341797 6.934933662414551 50.811309814453125 255 255 255
-32.67068862915039 8.776135444641113 50.82774353027344 255 255 255
-34.5141487121582 8.005096435546875 44.83420944213867 255 255 255
-28.80729103088379 9.255853652954102 48.607513427734375 255 255 255
-28.37785530090332 8.095858573913574 46.212059020996094 255 255 255
-37.15515899658203 9.673707962036133 46.791812896728516 255 255 255
-35.513031005859375 9.7454195022583 48.41395568847656 255 255 255
-34.63454818725586 9.451883316040039 47.57951736450195 255 255 255
-37.93578338623047 10.404088020324707 49.95388412475586 255 255 255
-34.5555534362793 10.173857688903809 51.0999755859375 255 255 255
-68.44330596923828 7.508235931396484 56.071720123291016 255 255 255
-37.762447357177734 10.339648246765137 51.83012771606445 255 255 255
-36.91029739379883 2.119337320327759 70.16094207763672 255 255 255
-38.7451286315918 7.684554576873779 47.2592658996582 255 255 255
-36.52498245239258 9.691617965698242 47.353843688964844 255 255 255
-36.97400665283203 9.588201522827148 46.48395919799805 255 255 255
-35.71910858154297 9.838943481445312 48.67550277709961 255 255 255
-36.01751708984375 10.267691612243652 56.7889518737793 255 255 255
-35.98408508300781 10.257040023803711 56.739444732666016 255 255 255
-37.096649169921875 10.626687049865723 58.46286392211914 255 255 255
-37.09703826904297 9.605599403381348 46.507225036621094 255 255 255
-37.03154754638672 6.8442254066467285 45.23698425292969 255 255 255
-31.680339813232422 7.763228893280029 52.15335464477539 255 255 255
-31.77206039428711 7.777218818664551 52.38431930541992 255 255 255
-29.36798667907715 9.613537788391113 49.223567962646484 255 255 255
-35.705238342285156 11.691636085510254 56.85701370239258 255 255 255
-31.551607131958008 6.769323825836182 52.97454833984375 255 255 255
-36.4764518737793 9.60828685760498 46.1368293762207 255 255 255
-32.32664108276367 8.701945304870605 50.41857147216797 255 255 255
-38.52626037597656 7.392416477203369 65.88220977783203 255 255 255
-38.8322639465332 4.814342975616455 62.806121826171875 255 255 255
-40.521881103515625 4.489206790924072 63.88906478881836 255 255 255
-36.65523910522461 7.803144931793213 46.16117477416992 255 255 255
-39.22883987426758 9.838851928710938 47.986351013183594 255 255 255
-36.71559143066406 10.351961135864258 52.2311897277832 255 255 255
-36.07848358154297 10.141210556030273 51.61961364746094 255 255 255
-35.01278305053711 8.53335952758789 53.624420166015625 255 255 255
-42.306705474853516 10.053947448730469 48.90470886230469 255 255 255
-39.979366302490234 10.522012710571289 53.29623031616211 255 255 255
-39.72615051269531 10.459181785583496 53.10358428955078 255 255 255
-37.75720977783203 10.3580322265625 51.82937240600586 255 255 255
-38.113304138183594 10.286978721618652 52.49491882324219 255 255 255
-42.18483352661133 10.030327796936035 48.88309860229492 255 255 255
-41.86261749267578 12.605610847473145 59.97752380371094 255 255 255
-39.72490310668945 9.922708511352539 49.269710540771484 255 255 255
-47.4731330871582 11.217037200927734 62.71262741088867 255 255 255
-41.93893814086914 10.136466979980469 50.102298736572266 255 255 255
-50.602378845214844 9.69494342803955 66.123046875 255 255 255
-34.9080810546875 10.241623878479004 51.28384017944336 255 255 255
-37.71820068359375 10.211366653442383 49.51588821411133 255 255 255
-35.358314514160156 8.856006622314453 53.479949951171875 255 255 255
-35.2368049621582 8.84891414642334 53.31076431274414 255 255 255
-34.35396957397461 10.154275894165039 51.119468688964844 255 255 255
-38.315895080566406 9.551974296569824 45.97880935668945 255 255 255
-34.673980712890625 8.061057090759277 56.31290817260742 255 255 255
-36.49473571777344 10.413066864013672 52.33113479614258 255 255 255
-43.29993438720703 13.673888206481934 61.745574951171875 255 255 255
-36.0338134765625 9.917341232299805 48.862125396728516 255 255 255
-34.00511932373047 10.141860008239746 50.96419906616211 255 255 255
-33.40229034423828 9.907461166381836 50.269439697265625 255 255 255
-34.167449951171875 9.076103210449219 51.96366882324219 255 255 255
-47.09772491455078 5.249288082122803 82.89212799072266 255 255 255
-35.915836334228516 9.851966857910156 48.67088317871094 255 255 255
-42.880367279052734 14.061807632446289 64.67269897460938 255 255 255
-38.321475982666016 12.17400074005127 58.41980743408203 255 255 255
-35.05033493041992 10.720569610595703 53.864253997802734 255 255 255
-38.049400329589844 12.038687705993652 57.90109634399414 255 255 255
-32.504859924316406 7.925860404968262 52.43321228027344 255 255 255
-31.07282829284668 7.873021602630615 50.31134033203125 255 255 255
-32.847599029541016 8.826752662658691 51.19480895996094 255 255 255
-37.66395568847656 7.6523356437683105 46.44141387939453 255 255 255
-38.19480895996094 9.462678909301758 45.9568977355957 255 255 255
-30.877655029296875 8.693093299865723 50.023292541503906 255 255 255
-36.28672409057617 4.933227062225342 56.326141357421875 255 255 255
-32.337684631347656 8.70881175994873 50.45722198486328 255 255 255
-39.88210678100586 10.345338821411133 51.84275817871094 255 255 255
-36.6367301940918 7.336098670959473 57.76314926147461 255 255 255
-35.94341278076172 6.767911911010742 56.39555740356445 255 255 255
-35.60669708251953 7.402397632598877 55.644046783447266 255 255 255
-35.36501693725586 5.736719131469727 55.73038101196289 255 255 255
-145.11080932617188 0.9279657602310181 -24.37152099609375 255 255 255
-39.50189208984375 7.89772891998291 47.14324188232422 255 255 255
-42.19328689575195 3.708242654800415 66.96685791015625 255 255 255
-41.492393493652344 10.068367004394531 49.995689392089844 255 255 255
-37.031898498535156 5.090135097503662 57.68709945678711 255 255 255
-36.635555267333984 5.245210647583008 57.01610565185547 255 255 255
-34.9460563659668 8.784032821655273 52.917816162109375 255 255 255
-33.4219970703125 9.764143943786621 52.28448486328125 255 255 255
-36.58143615722656 10.25316047668457 51.825504302978516 255 255 255
-35.992164611816406 9.392303466796875 54.72880172729492 255 255 255
-37.271278381347656 10.642147064208984 55.019676208496094 255 255 255
-36.80469512939453 10.462075233459473 54.43640899658203 255 255 255
-38.62421417236328 7.184736728668213 46.9338493347168 255 255 255
-36.86474609375 10.148720741271973 50.352787017822266 255 255 255
-36.94892883300781 10.16049861907959 50.3829345703125 255 255 255
-36.840675354003906 10.504618644714355 52.641971588134766 255 255 255
-40.192352294921875 9.853954315185547 47.10020446777344 255 255 255
-40.55015563964844 9.915177345275879 47.17420959472656 255 255 255
-37.00484848022461 9.795918464660645 47.5096549987793 255 255 255
-37.77621841430664 10.005509376525879 48.41277313232422 255 255 255
-38.180301666259766 5.940431118011475 59.21382522583008 255 255 255
-40.280662536621094 10.106980323791504 50.56035614013672 255 255 255
-37.62087631225586 7.091611385345459 59.22892379760742 255 255 255
-37.14817428588867 5.497463226318359 59.208187103271484 255 255 255
-37.56863784790039 7.130337715148926 59.14521789550781 255 255 255
-36.39232635498047 5.38075590133667 58.802310943603516 255 255 255
-34.862159729003906 6.992961406707764 55.47846984863281 255 255 255
-41.51700973510742 6.621342658996582 64.31050872802734 255 255 255
-62.40449523925781 5.228950500488281 49.32202911376953 255 255 255
-36.2371826171875 7.6896586418151855 56.7172737121582 255 255 255
-34.77711868286133 8.732812881469727 52.9871940612793 255 255 255
-32.59951400756836 8.762005805969238 50.724212646484375 255 255 255
-32.643714904785156 8.834371566772461 51.07053756713867 255 255 255
-53.00862503051758 6.582594394683838 50.088905334472656 255 255 255
-42.05394744873047 7.91863489151001 57.27251434326172 255 255 255
-40.915794372558594 5.126239776611328 54.46852493286133 255 255 255
-42.359195709228516 10.594956398010254 54.03422546386719 255 255 255
-42.102718353271484 7.901111602783203 57.32159423828125 255 255 255
-50.32542037963867 9.302977561950684 60.526336669921875 255 255 255
-51.642784118652344 3.2171237468719482 62.723548889160156 255 255 255
-58.293582916259766 0.39895859360694885 61.04780960083008 255 255 255
-48.97587585449219 11.054851531982422 56.0145149230957 255 255 255
-49.42285919189453 10.789258003234863 54.01784896850586 255 255 255
-46.58106231689453 9.666888236999512 49.018043518066406 255 255 255
-45.92404556274414 10.657891273498535 55.68095016479492 255 255 255
-38.92013168334961 9.339054107666016 53.143646240234375 255 255 255
-42.0797233581543 10.0173921585083 48.86342239379883 255 255 255
-40.30927276611328 8.054829597473145 47.596946716308594 255 255 255
-42.90785217285156 9.179569244384766 47.74077606201172 255 255 255
-45.52757263183594 3.226987600326538 55.01351547241211 255 255 255
-49.759029388427734 3.1692588329315186 52.33799743652344 255 255 255
-46.850738525390625 4.729367256164551 57.88737106323242 255 255 255
-36.7579231262207 6.328324794769287 57.0046501159668 255 255 255
-37.015995025634766 5.0711493492126465 57.60512924194336 255 255 255
-36.030433654785156 5.4588518142700195 55.98195266723633 255 255 255
-41.557525634765625 9.930216789245605 47.859580993652344 255 255 255
-40.75299835205078 10.333656311035156 50.92518997192383 255 255 255
-36.817752838134766 5.223761558532715 57.406612396240234 255 255 255
-43.172454833984375 5.709106922149658 66.03941345214844 255 255 255
-44.1009407043457 10.917930603027344 55.164161682128906 255 255 255
-39.869075775146484 6.993976593017578 62.66230010986328 255 255 255
-41.74915313720703 10.284843444824219 51.88544845581055 255 255 255
-42.63494873046875 9.800651550292969 47.738948822021484 255 255 255
-54.747615814208984 0.7158790230751038 64.11722564697266 255 255 255
-44.324676513671875 9.678064346313477 60.164764404296875 255 255 255
-48.081356048583984 10.781414985656738 49.15163040161133 255 255 255
-40.63202667236328 6.546546459197998 54.07661056518555 255 255 255
-68.8034896850586 18.01209831237793 79.30047607421875 255 255 255
-59.98567199707031 15.688236236572266 71.63082885742188 255 255 255
-37.38691329956055 8.878957748413086 53.05399703979492 255 255 255
-43.828495025634766 10.089733123779297 48.6054573059082 255 255 255
-47.027137756347656 10.265813827514648 50.5229606628418 255 255 255
-45.52390670776367 10.569263458251953 55.41737365722656 255 255 255
-46.90143966674805 10.859868049621582 72.90398406982422 255 255 255
-45.22367477416992 5.470846176147461 56.551963806152344 255 255 255
-43.21015167236328 9.231407165527344 47.778587341308594 255 255 255
-42.501766204833984 7.965724468231201 48.17825698852539 255 255 255
-46.06549835205078 3.880038261413574 59.89453125 255 255 255
-39.76600646972656 11.036781311035156 55.187217712402344 255 255 255
-41.778011322021484 7.913473606109619 56.951053619384766 255 255 255
-42.262977600097656 9.952875137329102 64.47563934326172 255 255 255
-43.5911979675293 3.27034592628479 57.66160202026367 255 255 255
-47.95864486694336 2.31498646736145 54.56474685668945 255 255 255
-52.09601974487305 11.262688636779785 64.33163452148438 255 255 255
-40.2806396484375 8.054876327514648 47.59564971923828 255 255 255
-44.07927322387695 7.377871990203857 59.23585891723633 255 255 255
-45.36491012573242 3.8745667934417725 55.74319839477539 255 255 255
-41.27812957763672 10.17484188079834 51.64040756225586 255 255 255
-46.922061920166016 3.7441771030426025 51.94108581542969 255 255 255
-46.880672454833984 3.7568576335906982 51.915279388427734 255 255 255
-45.10190963745117 10.770441055297852 54.639957427978516 255 255 255
-42.314937591552734 10.768987655639648 56.49769592285156 255 255 255
-43.03474426269531 10.779178619384766 54.48579406738281 255 255 255
-40.271636962890625 8.064499855041504 47.60041046142578 255 255 255
-44.955509185791016 10.397679328918457 53.47412109375 255 255 255
-46.794761657714844 3.1093997955322266 56.35664367675781 255 255 255
-38.65305709838867 10.354677200317383 52.55052185058594 255 255 255
-43.49604034423828 9.224665641784668 47.79420852661133 255 255 255
-40.92703628540039 10.244257926940918 50.83074951171875 255 255 255
-47.514869689941406 3.5150866508483887 52.280845642089844 255 255 255
-49.992156982421875 10.508338928222656 50.00953674316406 255 255 255
-41.88255310058594 9.645074844360352 55.31564712524414 255 255 255
-42.385868072509766 10.203221321105957 50.24873352050781 255 255 255
-43.398197174072266 9.235774040222168 47.788108825683594 255 255 255
-44.40222930908203 14.279502868652344 69.54680633544922 255 255 255
-44.74406814575195 10.081912994384766 48.93063735961914 255 255 255
-48.69540786743164 11.118939399719238 75.80712890625 255 255 255
-46.66157913208008 1.7829399108886719 58.945533752441406 255 255 255
-49.591426849365234 3.8076770305633545 51.534149169921875 255 255 255
-48.5785026550293 3.905629873275757 51.4565544128418 255 255 255
-49.484554290771484 10.290538787841797 57.250335693359375 255 255 255
-45.15827178955078 4.694762706756592 51.078128814697266 255 255 255
-49.286441802978516 3.3701794147491455 52.25658416748047 255 255 255
-45.44661331176758 10.229032516479492 49.726131439208984 255 255 255
-47.13615798950195 5.0706024169921875 57.79776382446289 255 255 255
-49.87885665893555 3.904824733734131 55.58583450317383 255 255 255
-47.74087142944336 10.490856170654297 51.84733581542969 255 255 255
-43.74881362915039 10.544769287109375 55.077232360839844 255 255 255
-42.89613723754883 10.733031272888184 54.39575958251953 255 255 255
-56.94260025024414 5.8054327964782715 63.34784698486328 255 255 255
-45.51628875732422 4.429314613342285 56.18235397338867 255 255 255
-45.3888053894043 4.178203105926514 55.83243942260742 255 255 255
-46.85325241088867 5.576260566711426 60.74734115600586 255 255 255
-46.42980194091797 8.558664321899414 56.74287796020508 255 255 255
-41.105369567871094 5.014011859893799 65.21379089355469 255 255 255
-39.8861083984375 10.219539642333984 51.25880813598633 255 255 255
-52.28226089477539 10.90518856048584 53.15907287597656 255 255 255
-45.14596939086914 3.9853808879852295 55.58848571777344 255 255 255
-47.2847785949707 10.969748497009277 55.582252502441406 255 255 255
-44.41007995605469 6.6636481285095215 57.20621109008789 255 255 255
-47.32668685913086 4.393378257751465 58.819828033447266 255 255 255
-49.13187026977539 11.044341087341309 57.16265869140625 255 255 255
-49.49881362915039 6.310857772827148 57.31571578979492 255 255 255
-43.726341247558594 2.8519129753112793 62.33200454711914 255 255 255
-45.6240119934082 2.3828790187835693 55.476680755615234 255 255 255
-77.10140228271484 20.341644287109375 87.16849517822266 255 255 255
-46.92232894897461 10.928730010986328 55.87868118286133 255 255 255
-46.746795654296875 4.788573265075684 57.795494079589844 255 255 255
-45.34646987915039 10.116353034973145 49.151371002197266 255 255 255
-43.6390380859375 8.226781845092773 48.47693634033203 255 255 255
-45.357177734375 8.428877830505371 59.70307540893555 255 255 255
-48.2527961730957 4.534012794494629 67.22968292236328 255 255 255
-45.94772720336914 4.260357856750488 56.82381820678711 255 255 255
-68.98558044433594 6.038930892944336 75.02730560302734 255 255 255
-46.186344146728516 3.7355449199676514 58.2125129699707 255 255 255
-45.89458465576172 5.203014850616455 63.72569274902344 255 255 255
-44.23948287963867 8.432746887207031 58.42531204223633 255 255 255
-44.55025100708008 8.497560501098633 48.852439880371094 255 255 255
-43.492496490478516 6.210808753967285 57.08042526245117 255 255 255
-53.98825454711914 12.379715919494629 57.875892639160156 255 255 255
-43.591121673583984 7.752183437347412 57.50590896606445 255 255 255
-48.236793518066406 6.3977484703063965 48.474815368652344 255 255 255
-43.56265640258789 5.804202079772949 54.74869155883789 255 255 255
-50.04242706298828 2.2561302185058594 56.63288879394531 255 255 255
-46.726627349853516 4.272324085235596 55.547271728515625 255 255 255
-47.82840347290039 10.28981876373291 49.70153045654297 255 255 255
-38.762542724609375 9.763163566589355 52.94150161743164 255 255 255
-42.417396545410156 7.651957035064697 48.046478271484375 255 255 255
-42.30878448486328 10.0603609085083 48.89900207519531 255 255 255
-42.85790252685547 8.404457092285156 57.92771530151367 255 255 255
