-311.49609375 -18.375762939453125 -81.57772827148438 255 255 255
-271.6423645019531 -7.827114582061768 -95.6801528930664 255 255 255
-310.0849304199219 -18.995718002319336 -79.02782440185547 255 255 255
-313.8284606933594 -9.943588256835938 -100.83714294433594 255 255 255
-302.6203308105469 -18.411985397338867 -101.84210968017578 255 255 255
-296.4578857421875 -13.928744316101074 -83.03731536865234 255 255 255
-303.7102966308594 -15.398390769958496 -86.38743591308594 255 255 255
-303.19012451171875 -13.290010452270508 -86.20354461669922 255 255 255
-303.4372863769531 -13.917011260986328 -85.60465240478516 255 255 255
-199.2455596923828 -8.63136100769043 -70.06610870361328 255 255 255
-240.88177490234375 -6.175688743591309 -78.61250305175781 255 255 255
-240.91073608398438 -10.819330215454102 -77.78080749511719 255 255 255
-241.51048278808594 -5.601644039154053 -73.36750793457031 255 255 255
-210.6265411376953 -4.4762372970581055 -70.00384521484375 255 255 255
-234.35903930664062 -10.953353881835938 -78.22126770019531 255 255 255
-240.28985595703125 -5.660842418670654 -74.77291870117188 255 255 255
-237.76939392089844 -5.949113368988037 -75.01933288574219 255 255 255
-240.37527465820312 -9.703094482421875 -76.05646514892578 255 255 255
-203.3827667236328 -3.2022957801818848 -51.20713424682617 255 255 255
-303.5948486328125 -13.976253509521484 -86.03700256347656 255 255 255
-303.9687805175781 -14.206520080566406 -86.5596694946289 255 255 255
-300.27886962890625 -15.74221420288086 -85.6688003540039 255 255 255
-311.59716796875 -9.530426979064941 -85.48767852783203 255 255 255
-309.63531494140625 -14.590741157531738 -89.26596069335938 255 255 255
-305.1817321777344 -16.55413055419922 -80.21537780761719 255 255 255
-310.2685546875 -14.454980850219727 -87.56070709228516 255 255 255
-319.8035583496094 -9.534723281860352 -99.8818359375 255 255 255
-277.09564208984375 -14.623400688171387 -101.21330261230469 255 255 255
-28.346149444580078 -6.906891345977783 -123.04830169677734 255 255 255
-35.958641052246094 -6.874509334564209 -122.03569030761719 255 255 255
1.9060308933258057 -16.634113311767578 -99.46774291992188 255 255 255
156.457763671875 -30.878768920898438 220.05958557128906 255 255 255
-244.06826782226562 -13.872964859008789 -81.20982360839844 255 255 255
-261.99053955078125 -6.520955562591553 -73.0313949584961 255 255 255
-281.17742919921875 -14.030086517333984 -78.26934814453125 255 255 255
-231.8511962890625 -5.418415546417236 -73.87751007080078 255 255 255
-195.8050079345703 -10.568218231201172 -45.81586456298828 255 255 255
-214.64010620117188 -8.734940528869629 -55.01918411254883 255 255 255
-224.9937286376953 -9.785481452941895 -56.819366455078125 255 255 255
-282.23541259765625 -12.91185474395752 -80.37027740478516 255 255 255
-281.5883483886719 -12.651267051696777 -82.01448059082031 255 255 255
-256.3106384277344 -8.178203582763672 -92.93878936767578 255 255 255
-288.5526428222656 -8.749765396118164 -95.08567810058594 255 255 255
18.888763427734375 -20.389055252075195 -108.31874084472656 255 255 255
-19.78717041015625 -12.65827465057373 -116.5038833618164 255 255 255
-31.135061264038086 -6.788573265075684 -122.3407211303711 255 255 255
-268.1986389160156 -13.517364501953125 -88.98131561279297 255 255 255
-258.99267578125 -11.10761547088623 -72.94282531738281 255 255 255
-262.5152282714844 -8.315877914428711 -90.15235900878906 255 255 255
-266.68817138671875 -7.435552597045898 -83.32048034667969 255 255 255
-259.3927001953125 -11.293181419372559 -74.79410552978516 255 255 255
-262.213134765625 -6.576126575469971 -73.99960327148438 255 255 255
-33.39421844482422 -6.677775859832764 -92.53288269042969 255 255 255
-281.9735412597656 -13.269256591796875 -80.38804626464844 255 255 255
-281.4888000488281 -13.927092552185059 -78.50890350341797 255 255 255
-70.55355834960938 -6.229881763458252 -122.10386657714844 255 255 255
-69.36624908447266 -6.322128772735596 -116.71751403808594 255 255 255
-65.40441131591797 -6.750093936920166 -126.02589416503906 255 255 255
-70.26197052001953 -6.1836113929748535 -122.32087707519531 255 255 255
-293.89910888671875 -13.40271282196045 -83.1778564453125 255 255 255
-295.2085876464844 -13.504150390625 -84.96471405029297 255 255 255
-164.59909057617188 -5.121271133422852 -75.56632995605469 255 255 255
-147.00808715820312 -14.606551170349121 -82.74291229248047 255 255 255
-161.22293090820312 -6.585936069488525 -77.69225311279297 255 255 255
-287.3768615722656 -14.35069751739502 -80.1143569946289 255 255 255
-305.8927001953125 -12.35793399810791 -87.90922546386719 255 255 255
-292.3175354003906 -11.307549476623535 -102.32371520996094 255 255 255
-296.80743408203125 -14.023980140686035 -85.49315643310547 255 255 255
-291.7048034667969 -13.230252265930176 -96.93417358398438 255 255 255
-271.1031494140625 -7.857941150665283 -88.39769744873047 255 255 255
-280.77655029296875 -8.214234352111816 -88.37537384033203 255 255 255
-263.07122802734375 -7.391945838928223 -81.11455535888672 255 255 255
-295.91015625 -8.731393814086914 -84.26510620117188 255 255 255
-294.9582214355469 -9.626007080078125 -99.0518798828125 255 255 255
-276.67279052734375 -23.346271514892578 -100.05086517333984 255 255 255
-298.9254150390625 -13.810458183288574 -85.39617919921875 255 255 255
-244.16444396972656 -24.377195358276367 -99.63741302490234 255 255 255
-287.84515380859375 -11.323493957519531 -101.14185333251953 255 255 255
-300.5959777832031 -12.64781379699707 -85.49563598632812 255 255 255
-309.6812744140625 -14.57891845703125 -89.2651596069336 255 255 255
-289.7884216308594 -8.965091705322266 -103.33221435546875 255 255 255
-300.4752502441406 -13.749129295349121 -101.22257232666016 255 255 255
-239.523193359375 -8.446502685546875 -77.45116424560547 255 255 255
-240.6209716796875 -8.935370445251465 -77.865966796875 255 255 255
-242.62335205078125 -10.366265296936035 -78.10043334960938 255 255 255
-246.10885620117188 -6.537625789642334 -80.97003173828125 255 255 255
-245.66061401367188 -11.917553901672363 -70.8344497680664 255 255 255
-169.78717041015625 -13.272420883178711 -13.812444686889648 255 255 255
-241.71414184570312 -10.16289234161377 -77.9276351928711 255 255 255
-244.45614624023438 -10.910333633422852 -80.0484848022461 255 255 255
-244.4551544189453 -10.693450927734375 -78.34769439697266 255 255 255
-36.26961135864258 -12.268562316894531 -97.44157409667969 255 255 255
-12.669877052307129 -15.140960693359375 -98.65750885009766 255 255 255
-30.43817901611328 -5.6760573387146 -112.28687286376953 255 255 255
-238.45913696289062 -5.737490653991699 -75.40478515625 255 255 255
69.90986633300781 -37.713497161865234 -171.5364532470703 255 255 255
-240.2462921142578 -9.99886703491211 -76.76896667480469 255 255 255
-240.09088134765625 -10.102537155151367 -77.46699523925781 255 255 255
-241.69544982910156 -5.479547023773193 -74.11808776855469 255 255 255
-201.87779235839844 -12.150500297546387 -68.47740173339844 255 255 255
-187.9247283935547 -12.986490249633789 -22.875213623046875 255 255 255
-282.7082824707031 -26.930397033691406 -105.23583221435547 255 255 255
-253.16189575195312 -8.524134635925293 -65.9551773071289 255 255 255
-308.5776062011719 -15.184651374816895 -85.0859603881836 255 255 255
-303.99664306640625 -12.667778968811035 -83.70667266845703 255 255 255
-296.58795166015625 -9.426968574523926 -102.6861572265625 255 255 255
-56.565940856933594 -11.186838150024414 -122.15682220458984 255 255 255
7.449857711791992 -22.844831466674805 -111.52620697021484 255 255 255
-147.76974487304688 -6.277082443237305 -55.71260452270508 255 255 255
-163.3812713623047 -7.965007781982422 -59.2802848815918 255 255 255
-120.67715454101562 -13.487919807434082 -89.6863021850586 255 255 255
-156.54566955566406 -4.741902828216553 -81.33192443847656 255 255 255
-142.31649780273438 -14.795790672302246 -73.37673950195312 255 255 255
-142.45457458496094 -16.701358795166016 -73.94977569580078 255 255 255
-154.65872192382812 -3.581477642059326 -57.60057830810547 255 255 255
-301.00701904296875 -13.287997245788574 -85.91394805908203 255 255 255
-58.811866760253906 -9.431035995483398 -129.0487060546875 255 255 255
-54.31235885620117 -6.886610984802246 -126.68306732177734 255 255 255
-31.564157485961914 -11.491846084594727 -130.81394958496094 255 255 255
-303.2974853515625 -15.931078910827637 -84.99635314941406 255 255 255
-271.8712158203125 -21.211347579956055 -101.23511505126953 255 255 255
-311.66778564453125 -19.481136322021484 -80.1286849975586 255 255 255
-247.9063720703125 -11.10390853881836 -79.81419372558594 255 255 255
-221.51992797851562 -29.53094482421875 -99.58544158935547 255 255 255
-306.5838623046875 -13.732975006103516 -84.7426528930664 255 255 255
-319.9764099121094 -9.542696952819824 -94.22261810302734 255 255 255
-253.02008056640625 -23.747650146484375 -100.66685485839844 255 255 255
-299.94580078125 -16.438756942749023 -79.48875427246094 255 255 255
-311.810791015625 -9.531749725341797 -85.63213348388672 255 255 255
-234.72732543945312 -28.487770080566406 -94.14142608642578 255 255 255
-136.23077392578125 -15.487051963806152 -41.50981521606445 255 255 255
-274.3683166503906 -12.866600036621094 -79.22669982910156 255 255 255
-274.55865478515625 -12.75515079498291 -79.22174072265625 255 255 255
-33.57048416137695 -9.87411880493164 -113.15828704833984 255 255 255
-36.30339050292969 -7.293059349060059 -130.11900329589844 255 255 255
-41.53472900390625 -7.224945068359375 -129.78863525390625 255 255 255
-2.6644461154937744 -12.862690925598145 -170.13853454589844 255 255 255
-38.067928314208984 -9.223467826843262 -142.90646362304688 255 255 255
-35.69883346557617 -8.692461013793945 -142.6239776611328 255 255 255
-300.2959289550781 -8.762832641601562 -88.76400756835938 255 255 255
-275.23797607421875 -14.847451210021973 -101.98323822021484 255 255 255
-295.9742126464844 -9.32232666015625 -98.24566650390625 255 255 255
-289.59844970703125 -13.094513893127441 -83.06279754638672 255 255 255
-232.45701599121094 -5.471477031707764 -75.39523315429688 255 255 255
-300.62127685546875 -12.661157608032227 -99.93358612060547 255 255 255
-291.1806945800781 -8.708847045898438 -96.70801544189453 255 255 255
-304.1918640136719 -13.593454360961914 -85.88440704345703 255 255 255
-304.4316101074219 -13.69389533996582 -85.24781036376953 255 255 255
-270.2027893066406 -19.813383102416992 -99.57698822021484 255 255 255
-287.08978271484375 -8.55371379852295 -93.18254089355469 255 255 255
-278.980712890625 -10.842507362365723 -93.8908462524414 255 255 255
-227.4519500732422 -12.056960105895996 -69.97211456298828 255 255 255
-257.4864501953125 -11.796526908874512 -74.03325653076172 255 255 255
-273.43634033203125 -8.043493270874023 -90.7523422241211 255 255 255
-278.9237060546875 -13.811302185058594 -79.96472930908203 255 255 255
-281.02685546875 -8.076268196105957 -87.07733917236328 255 255 255
-276.17584228515625 -7.836536884307861 -91.19104766845703 255 255 255
-273.9006652832031 -7.002435207366943 -71.44916534423828 255 255 255
-263.9661560058594 -11.319452285766602 -89.45220947265625 255 255 255
-245.97052001953125 -5.745198726654053 -74.56005096435547 255 255 255
-243.7731170654297 -10.473121643066406 -78.358642578125 255 255 255
-239.8959197998047 -5.793271064758301 -75.373291015625 255 255 255
-245.44346618652344 -10.565732955932617 -80.2855224609375 255 255 255
-127.06788635253906 -11.777463912963867 -15.080924034118652 255 255 255
-193.989501953125 -9.128678321838379 -67.9265365600586 255 255 255
-191.11715698242188 -3.597980499267578 -62.244041442871094 255 255 255
-290.00006103515625 -13.040114402770996 -83.89564514160156 255 255 255
-289.2637023925781 -12.926899909973145 -84.28964233398438 255 255 255
-279.87310791015625 -14.322824478149414 -78.92227935791016 255 255 255
-281.45977783203125 -13.391966819763184 -80.0135269165039 255 255 255
-30.106565475463867 -6.766153335571289 -120.56785583496094 255 255 255
-32.47856903076172 -5.956712245941162 -118.04917907714844 255 255 255
-253.85874938964844 -11.3191499710083 -73.33287048339844 255 255 255
-259.0910949707031 -13.923069953918457 -88.98065185546875 255 255 255
-283.390625 -29.5327091217041 -104.6736068725586 255 255 255
-312.6047668457031 -11.89495849609375 -79.79043579101562 255 255 255
-321.85467529296875 -9.606992721557617 -94.08562469482422 255 255 255
-297.40887451171875 -13.572908401489258 -105.21569061279297 255 255 255
-274.95947265625 -9.652572631835938 -71.60305786132812 255 255 255
-91.17037963867188 -14.870378494262695 -129.92347717285156 255 255 255
-98.58892059326172 -14.395645141601562 -117.09351348876953 255 255 255
-98.5889663696289 -14.567939758300781 -116.75548553466797 255 255 255
-98.00408935546875 -14.87888240814209 -115.49317169189453 255 255 255
-311.60546875 -19.343042373657227 -81.16816711425781 255 255 255
-57.300010681152344 -6.7561798095703125 -126.01439666748047 255 255 255
-55.48580551147461 -7.682065486907959 -133.48263549804688 255 255 255
-55.01856994628906 -7.611055374145508 -134.0673065185547 255 255 255
-32.287132263183594 -8.610047340393066 -131.13534545898438 255 255 255
-124.57918548583984 -15.759584426879883 -10.077232360839844 255 255 255
-182.10873413085938 -4.067721843719482 -65.89169311523438 255 255 255
-298.8382873535156 -19.496896743774414 -104.76726531982422 255 255 255
-296.7512512207031 -10.473908424377441 -102.40699005126953 255 255 255
-300.0267639160156 -23.062393188476562 -104.2176284790039 255 255 255
-278.9906005859375 -12.179322242736816 -100.65731048583984 255 255 255
-303.403564453125 -15.810702323913574 -85.07811737060547 255 255 255
-297.20465087890625 -11.859604835510254 -104.70442962646484 255 255 255
-161.05230712890625 -3.8938817977905273 -62.412044525146484 255 255 255
-161.35171508789062 -4.231014728546143 -71.68032836914062 255 255 255
-150.76194763183594 -13.921929359436035 -80.01687622070312 255 255 255
-190.42135620117188 -55.60362243652344 -49.5552978515625 255 255 255
-252.16806030273438 -13.69189453125 -72.89463806152344 255 255 255
-247.42245483398438 -13.466917991638184 -67.10054779052734 255 255 255
-247.5643310546875 -13.924102783203125 -71.0608139038086 255 255 255
-254.76356506347656 -6.68280029296875 -81.17295837402344 255 255 255
-13.389626502990723 -12.402453422546387 -98.76097106933594 255 255 255
-34.52262878417969 -10.983729362487793 -90.15768432617188 255 255 255
-11.354917526245117 -15.613940238952637 -99.3885726928711 255 255 255
-27.078948974609375 -5.409328460693359 -108.99771881103516 255 255 255
-236.9169464111328 -5.79484748840332 -76.46073913574219 255 255 255
-239.07626342773438 -5.124587535858154 -67.47746276855469 255 255 255
-187.02911376953125 -6.516522407531738 -69.07405090332031 255 255 255
-198.9375 -3.759044647216797 -63.70724105834961 255 255 255
-131.3568572998047 -11.267523765563965 -65.37328338623047 255 255 255
-193.009521484375 -9.044732093811035 -67.62461853027344 255 255 255
-299.9906311035156 -14.487353324890137 -103.17631530761719 255 255 255
-293.8577880859375 -23.85724639892578 -105.05145263671875 255 255 255
-321.4012756347656 -9.553287506103516 -94.00059509277344 255 255 255
-248.818115234375 -20.971513748168945 -99.2821044921875 255 255 255
-303.29803466796875 -12.890687942504883 -82.69284057617188 255 255 255
-312.7021789550781 -9.633045196533203 -79.46710205078125 255 255 255
-288.8086853027344 -8.902665138244629 -99.66878509521484 255 255 255
-250.74720764160156 -15.589753150939941 -75.54351043701172 255 255 255
-207.8211212158203 -9.686724662780762 -88.13682556152344 255 255 255
-244.75482177734375 -5.936846733093262 -71.47987365722656 255 255 255
-257.7505187988281 -15.023222923278809 -74.33921813964844 255 255 255
-244.1848907470703 -11.959078788757324 -71.62413787841797 255 255 255
-286.2463684082031 -8.524516105651855 -93.60330200195312 255 255 255
-278.231689453125 -12.060284614562988 -93.09239196777344 255 255 255
-200.17926025390625 -27.709077835083008 -93.5477523803711 255 255 255
3.2460005283355713 -2.556217670440674 0.9727030396461487 255 255 255
11.092741012573242 -32.60059356689453 170.39756774902344 255 255 255
-19.216768264770508 -12.041346549987793 33.273677825927734 255 255 255
-295.68951416015625 -9.299782752990723 -101.14705657958984 255 255 255
-293.53460693359375 -8.607680320739746 -89.7876968383789 255 255 255
-280.72235107421875 -13.23940372467041 -80.59254455566406 255 255 255
-162.90811157226562 -6.048214435577393 -59.680381774902344 255 255 255
-202.13824462890625 -4.180800914764404 -67.97334289550781 255 255 255
-199.78492736816406 -7.2405009269714355 -71.21955871582031 255 255 255
-160.6061553955078 -1.2223187685012817 -38.886959075927734 255 255 255
-191.17532348632812 -6.151075839996338 -74.853515625 255 255 255
-127.28227233886719 -2.28220272064209 -6.806738376617432 255 255 255
-189.3349609375 -9.952692031860352 -51.83399200439453 255 255 255
-128.87440490722656 -12.455825805664062 -28.591102600097656 255 255 255
-164.71905517578125 -9.542563438415527 -45.929115295410156 255 255 255
-190.04733276367188 -48.14348220825195 -57.8415412902832 255 255 255
-296.9800109863281 -13.977672576904297 -85.59658813476562 255 255 255
-293.9075927734375 -9.951228141784668 -97.5712890625 255 255 255
-296.4471130371094 -13.778270721435547 -85.27396392822266 255 255 255
-292.7507629394531 -13.428476333618164 -86.04598999023438 255 255 255
-263.51275634765625 -9.131453514099121 -94.55833435058594 255 255 255
-296.47308349609375 -13.525894165039062 -84.91168975830078 255 255 255
-24.836942672729492 -13.096736907958984 -146.68585205078125 255 255 255
-294.7411804199219 -14.11195182800293 -84.21865844726562 255 255 255
-296.70953369140625 -12.73451042175293 -84.43863677978516 255 255 255
-288.012939453125 -13.862236022949219 -82.70530700683594 255 255 255
-93.88398742675781 -26.686279296875 -70.8600082397461 255 255 255
-59.910804748535156 -11.421629905700684 -128.60780334472656 255 255 255
-61.095367431640625 -9.575194358825684 -129.3958740234375 255 255 255
-60.16289520263672 -7.505295276641846 -130.53726196289062 255 255 255
-290.8099365234375 -8.11788558959961 -84.18585205078125 255 255 255
-274.79547119140625 -12.401954650878906 -79.42689514160156 255 255 255
-278.8731994628906 -12.961885452270508 -80.45401000976562 255 255 255
-266.67022705078125 -9.685990333557129 -91.21533966064453 255 255 255
-266.56512451171875 -8.696488380432129 -92.95711517333984 255 255 255
-288.7815246582031 -13.538293838500977 -84.27354431152344 255 255 255
-244.97958374023438 -7.5211029052734375 -82.24434661865234 255 255 255
-244.55838012695312 -13.43908405303955 -68.72584533691406 255 255 255
-286.599609375 -8.478043556213379 -91.01827239990234 255 255 255
-290.05615234375 -12.379782676696777 -83.79017639160156 255 255 255
-290.5677795410156 -8.482537269592285 -83.06411743164062 255 255 255
-292.6748046875 -8.516043663024902 -87.2060546875 255 255 255
-256.2861633300781 -8.421828269958496 -70.0431137084961 255 255 255
-275.375 -12.36730670928955 -77.7284164428711 255 255 255
-259.3303527832031 -10.636279106140137 -74.74667358398438 255 255 255
-277.76727294921875 -13.555408477783203 -92.6798095703125 255 255 255
-290.6163024902344 -12.858051300048828 -96.14617156982422 255 255 255
-290.84112548828125 -13.629752159118652 -82.72367858886719 255 255 255
-283.2792663574219 -8.151515007019043 -81.14018249511719 255 255 255
-303.2612609863281 -12.899075508117676 -82.64468383789062 255 255 255
-286.170654296875 -8.311688423156738 -82.77405548095703 255 255 255
-17.435367584228516 -14.688248634338379 -107.42875671386719 255 255 255
-33.598209381103516 -6.69188117980957 -126.42902374267578 255 255 255
-23.038000106811523 -9.584935188293457 -113.81559753417969 255 255 255
-20.016382217407227 -13.374916076660156 -114.14643859863281 255 255 255
-31.55010414123535 -7.233953952789307 -124.85833740234375 255 255 255
2.268747329711914 -5.846835613250732 -70.00220489501953 255 255 255
-36.149269104003906 -11.382304191589355 -96.90695190429688 255 255 255
-36.21670913696289 -10.701953887939453 -96.12557983398438 255 255 255
-280.27734375 -8.021950721740723 -86.20745849609375 255 255 255
-228.9304962158203 -5.4940643310546875 -73.20325469970703 255 255 255
-276.3105773925781 -12.506861686706543 -77.5696792602539 255 255 255
-286.22821044921875 -8.484016418457031 -92.99629974365234 255 255 255
-286.0826416015625 -8.443175315856934 -94.7658462524414 255 255 255
-281.0937194824219 -14.084641456604004 -80.6777572631836 255 255 255
-273.34954833984375 -9.9778413772583 -96.57721710205078 255 255 255
-254.2876434326172 -13.086647987365723 -76.012939453125 255 255 255
-253.70135498046875 -15.264518737792969 -75.73200988769531 255 255 255
-245.3629608154297 -13.245697975158691 -66.86976623535156 255 255 255
-2.118771553039551 -2.322901964187622 5.452197551727295 255 255 255
-246.71385192871094 -9.353200912475586 -70.55781555175781 255 255 255
-248.25637817382812 -12.276941299438477 -72.96989440917969 255 255 255
-244.28048706054688 -11.851317405700684 -79.52643585205078 255 255 255
-6.3000168800354 0.806191623210907 15.430999755859375 255 255 255
-250.04180908203125 -12.81845760345459 -74.17485809326172 255 255 255
-253.0037384033203 -7.3196821212768555 -87.54973602294922 255 255 255
-0.8997361660003662 1.2970455884933472 -0.9769816398620605 255 255 255
-11.61564826965332 16.957515716552734 91.79290008544922 255 255 255
3.793933868408203 -3.48203444480896 2.391923666000366 255 255 255
-143.15467834472656 -17.323949813842773 -73.87763977050781 255 255 255
-122.98654174804688 -20.461156845092773 -87.88829803466797 255 255 255
-323.740478515625 -9.546833038330078 -93.65635681152344 255 255 255
-306.7250061035156 -15.440896987915039 -84.28600311279297 255 255 255
-282.5335388183594 -27.074098587036133 -101.85103607177734 255 255 255
-304.8384704589844 -13.889599800109863 -83.9886703491211 255 255 255
-135.63973999023438 -10.546188354492188 -16.68159294128418 255 255 255
-135.11981201171875 -2.778531551361084 -9.646446228027344 255 255 255
-289.65179443359375 -8.884851455688477 -77.3922119140625 255 255 255
-281.47412109375 -8.42381763458252 -91.63424682617188 255 255 255
-264.9974670410156 -7.938318252563477 -90.06475830078125 255 255 255
-254.88966369628906 -14.578299522399902 -74.22200012207031 255 255 255
-272.4378662109375 -7.807845592498779 -86.73455810546875 255 255 255
-276.3282470703125 -10.774752616882324 -79.30329132080078 255 255 255
-252.34494018554688 -11.583592414855957 -67.3615493774414 255 255 255
-247.09152221679688 -14.360177040100098 -70.83818054199219 255 255 255
-228.90170288085938 -7.948440074920654 -76.7434310913086 255 255 255
-300.6177673339844 -15.986590385437012 -101.44319915771484 255 255 255
-203.91209411621094 -5.083924770355225 -70.71055603027344 255 255 255
-294.6059265136719 -11.522882461547852 -96.94677734375 255 255 255
-268.0128479003906 -8.918437957763672 -82.50658416748047 255 255 255
-271.595458984375 -9.572171211242676 -92.5703125 255 255 255
-284.7646484375 -8.54118537902832 -88.05306243896484 255 255 255
-235.22000122070312 -28.711244583129883 -98.39456176757812 255 255 255
-260.03387451171875 -13.1608247756958 -73.99270629882812 255 255 255
-243.8553466796875 -5.948462963104248 -77.12098693847656 255 255 255
-245.977294921875 -11.509322166442871 -69.74119567871094 255 255 255
-246.18356323242188 -12.731270790100098 -82.52911376953125 255 255 255
-324.06207275390625 -13.519070625305176 -85.15364074707031 255 255 255
-295.9766845703125 -13.631937980651855 -85.13550567626953 255 255 255
-236.4388427734375 -5.31716775894165 -71.69244384765625 255 255 255
-200.22323608398438 -10.366016387939453 -54.28175354003906 255 255 255
-219.1395721435547 -3.765861749649048 -62.01560592651367 255 255 255
-179.72137451171875 -7.238152027130127 -6.113680839538574 255 255 255
-282.11053466796875 -13.49320125579834 -78.5051040649414 255 255 255
-278.44000244140625 -8.486214637756348 -94.78124237060547 255 255 255
-272.3373718261719 -9.951445579528809 -96.79119110107422 255 255 255
-280.9501953125 -8.26855182647705 -89.12865447998047 255 255 255
-275.09393310546875 -13.2361478805542 -79.27538299560547 255 255 255
-290.5000305175781 -11.978618621826172 -84.12763977050781 255 255 255
-296.0794677734375 -9.365947723388672 -98.22672271728516 255 255 255
-285.19671630859375 -8.828593254089355 -97.99920654296875 255 255 255
-292.81817626953125 -13.224786758422852 -80.17431640625 255 255 255
-294.02178955078125 -8.928107261657715 -97.76142883300781 255 255 255
-301.43414306640625 -22.207571029663086 -105.20023345947266 255 255 255
-301.1987609863281 -21.506690979003906 -103.39307403564453 255 255 255
-2.150928258895874 1.677672266960144 3.5297274589538574 255 255 255
-2.541532516479492 -9.44360637664795 13.41184139251709 255 255 255
1.8451730012893677 1.778389573097229 4.9425458908081055 255 255 255
-309.86517333984375 -19.206575393676758 -80.91439056396484 255 255 255
-296.39239501953125 -20.582595825195312 -104.84871673583984 255 255 255
-306.05615234375 -16.715951919555664 -82.84345245361328 255 255 255
-303.06243896484375 -18.52376937866211 -103.76261901855469 255 255 255
-312.02197265625 -18.5845947265625 -80.25662994384766 255 255 255
-310.08892822265625 -9.824834823608398 -101.08209991455078 255 255 255
-319.2850341796875 -9.191872596740723 -85.996337890625 255 255 255
-22.45147132873535 -12.944173812866211 -138.06707763671875 255 255 255
-17.74304962158203 -7.953670024871826 -129.38368225097656 255 255 255
-274.125732421875 -7.963090419769287 -87.19014739990234 255 255 255
-246.14808654785156 -13.204936981201172 -82.24771118164062 255 255 255
-246.37701416015625 -13.012982368469238 -70.1181640625 255 255 255
-244.3184356689453 -11.885000228881836 -79.75579833984375 255 255 255
-246.51158142089844 -13.34674072265625 -80.9504165649414 255 255 255
-245.9711456298828 -11.072075843811035 -81.61347961425781 255 255 255
-250.9755096435547 -9.654027938842773 -71.67623138427734 255 255 255
-246.2341766357422 -12.709357261657715 -69.57706451416016 255 255 255
-296.8923645019531 -9.349128723144531 -101.47262573242188 255 255 255
-267.48211669921875 -7.4091925621032715 -80.61872863769531 255 255 255
-297.1744384765625 -9.367944717407227 -98.88817596435547 255 255 255
-277.1140441894531 -13.660606384277344 -100.65283203125 255 255 255
-286.8874206542969 -11.821916580200195 -80.06625366210938 255 255 255
-298.11376953125 -11.673227310180664 -105.05670166015625 255 255 255
-278.7928466796875 -14.607786178588867 -99.51399993896484 255 255 255
-239.91627502441406 -5.559257984161377 -72.74165344238281 255 255 255
-239.69131469726562 -5.628057956695557 -75.24591064453125 255 255 255
-224.18865966796875 -9.565998077392578 -57.540809631347656 255 255 255
-236.18325805664062 -4.757246494293213 -65.87581634521484 255 255 255
-209.1109619140625 -3.7945408821105957 -53.0482063293457 255 255 255
-195.29440307617188 -4.771721839904785 -22.783233642578125 255 255 255
-229.42147827148438 -9.450440406799316 -56.4260139465332 255 255 255
-164.11521911621094 -5.873359203338623 -56.276702880859375 255 255 255
-278.25604248046875 -14.558914184570312 -78.67529296875 255 255 255
-279.9066162109375 -14.093192100524902 -79.46529388427734 255 255 255
-275.1094665527344 -12.262624740600586 -77.72140502929688 255 255 255
-277.766357421875 -12.455753326416016 -92.85078430175781 255 255 255
-274.4468078613281 -11.735624313354492 -91.5549545288086 255 255 255
-271.9426574707031 -7.3231329917907715 -79.9780044555664 255 255 255
-43.997535705566406 -6.979490280151367 -126.91908264160156 255 255 255
-28.566125869750977 -16.290233612060547 -152.62747192382812 255 255 255
16.348957061767578 -22.231176376342773 -137.00015258789062 255 255 255
-11.523798942565918 -8.596660614013672 -128.25384521484375 255 255 255
-222.67526245117188 -4.977874755859375 -67.09541320800781 255 255 255
-224.40541076660156 -4.816640853881836 -66.895263671875 255 255 255
-308.8172912597656 -14.907148361206055 -84.6512222290039 255 255 255
-309.0197448730469 -12.614286422729492 -85.15446472167969 255 255 255
-300.6091613769531 -12.6627197265625 -85.52519989013672 255 255 255
-311.5474548339844 -19.50381851196289 -78.17758178710938 255 255 255
-311.4010314941406 -19.499683380126953 -78.0677490234375 255 255 255
-310.4194641113281 -17.42928123474121 -82.72789764404297 255 255 255
-265.2342834472656 -8.052645683288574 -90.92784118652344 255 255 255
-265.5306396484375 -8.035228729248047 -80.1604995727539 255 255 255
-261.41278076171875 -12.297540664672852 -71.39234161376953 255 255 255
-35.73252868652344 -9.515987396240234 -132.756591796875 255 255 255
-140.8169403076172 -8.546737670898438 -85.72085571289062 255 255 255
-122.21072387695312 -13.154212951660156 -91.07299041748047 255 255 255
-138.19728088378906 -6.678947448730469 -93.29010772705078 255 255 255
-140.703125 -7.538234233856201 -93.17240142822266 255 255 255
-141.31716918945312 -7.476363658905029 -92.46517944335938 255 255 255
-109.70001983642578 -8.091022491455078 -111.25772094726562 255 255 255
-325.8863220214844 -9.16435432434082 -88.67835998535156 255 255 255
-308.4580993652344 -17.923599243164062 -81.3722152709961 255 255 255
-302.80303955078125 -15.858933448791504 -102.76547241210938 255 255 255
-320.5643310546875 -9.663444519042969 -100.14266967773438 255 255 255
-313.4912109375 -9.63408374786377 -102.29145812988281 255 255 255
-105.26567840576172 -9.685147285461426 -99.04743194580078 255 255 255
-293.03131103515625 -8.175063133239746 -84.61975860595703 255 255 255
-288.2714538574219 -10.134742736816406 -83.24205780029297 255 255 255
-276.6597900390625 -23.417118072509766 -99.99327850341797 255 255 255
-139.2543487548828 -5.633760929107666 -91.9836654663086 255 255 255
-141.73739624023438 -4.846324920654297 -86.73987579345703 255 255 255
-141.78582763671875 -5.206411361694336 -89.15605163574219 255 255 255
-112.82782745361328 -5.648179054260254 -90.18705749511719 255 255 255
-100.8263168334961 -5.925077438354492 -98.53059387207031 255 255 255
-320.99847412109375 -12.528396606445312 -95.6881103515625 255 255 255
-266.3164367675781 -12.67072868347168 -89.80432891845703 255 255 255
-280.84130859375 -7.994601726531982 -85.0694580078125 255 255 255
-278.91497802734375 -13.290417671203613 -79.04969024658203 255 255 255
-275.74627685546875 -12.228398323059082 -78.04544067382812 255 255 255
-185.1373291015625 -8.736323356628418 -67.50037384033203 255 255 255
-157.82472229003906 -8.18666934967041 -43.72408676147461 255 255 255
-187.2633514404297 -8.972085952758789 -67.90049743652344 255 255 255
-191.7676544189453 -4.120052814483643 -68.83869171142578 255 255 255
-266.3724060058594 -7.883423328399658 -81.43598175048828 255 255 255
-289.5090637207031 -8.963720321655273 -99.82609558105469 255 255 255
-290.975830078125 -10.555459022521973 -101.76546478271484 255 255 255
-227.6591033935547 -10.060956001281738 -72.25694274902344 255 255 255
-240.34652709960938 -10.25217342376709 -77.9929428100586 255 255 255
-169.85366821289062 -14.53343677520752 11.343697547912598 255 255 255
-10.438876152038574 -2.0468556880950928 -56.36265563964844 255 255 255
-3.9345755577087402 -6.192442417144775 -54.435272216796875 255 255 255
-297.59710693359375 -9.230634689331055 -98.6602554321289 255 255 255
-17.313232421875 -9.549922943115234 -113.51919555664062 255 255 255
-35.21049880981445 -6.280117034912109 -96.6633071899414 255 255 255
-208.17332458496094 -4.905369758605957 -60.983070373535156 255 255 255
-264.5990905761719 -11.867340087890625 -88.72454833984375 255 255 255
-303.26226806640625 -17.544511795043945 -103.96961975097656 255 255 255
-299.8516540527344 -14.230873107910156 -103.54767608642578 255 255 255
-311.52398681640625 -19.479148864746094 -79.65360260009766 255 255 255
-32.6408805847168 -9.279613494873047 -112.44029998779297 255 255 255
-11.45634651184082 -15.665791511535645 -99.40572357177734 255 255 255
-15.504389762878418 -12.710508346557617 -95.15445709228516 255 255 255
-274.7665710449219 -12.380179405212402 -79.47089385986328 255 255 255
-262.26092529296875 -8.290997505187988 -91.07574462890625 255 255 255
-266.6643371582031 -13.80489730834961 -90.05352783203125 255 255 255
-281.44708251953125 -13.483641624450684 -79.171142578125 255 255 255
-283.9764709472656 -11.644113540649414 -83.30632781982422 255 255 255
-325.5872802734375 -14.50348949432373 -100.91506958007812 255 255 255
-283.2862243652344 -12.776627540588379 -82.48743438720703 255 255 255
-330.04766845703125 -9.64127254486084 -92.54662322998047 255 255 255
-299.39215087890625 -12.043551445007324 -108.60852813720703 255 255 255
-328.9216003417969 -9.289831161499023 -86.65931701660156 255 255 255
-314.65911865234375 -20.54221534729004 -73.03411102294922 255 255 255
-244.38893127441406 -12.846749305725098 -71.06211853027344 255 255 255
-244.9227752685547 -10.305850982666016 -80.60840606689453 255 255 255
-142.1288604736328 -17.67603302001953 -74.0696792602539 255 255 255
-141.48098754882812 -17.778820037841797 -74.13443756103516 255 255 255
-297.356201171875 -16.182405471801758 -80.61045837402344 255 255 255
-303.7867736816406 -14.737003326416016 -104.03031158447266 255 255 255
-323.51031494140625 -10.23188591003418 -80.33911895751953 255 255 255
-243.12161254882812 -10.144680976867676 -78.54235076904297 255 255 255
-241.7997283935547 -5.989420413970947 -79.46661376953125 255 255 255
-180.7585906982422 -7.077313423156738 34.09787368774414 255 255 255
-234.84603881835938 -5.366848945617676 -73.58519744873047 255 255 255
-277.94818115234375 -20.906991958618164 -100.11334991455078 255 255 255
-303.957763671875 -14.791909217834473 -87.11629486083984 255 255 255
-282.30084228515625 -18.859329223632812 -104.18756866455078 255 255 255
-294.0788269042969 -15.325090408325195 -97.7857894897461 255 255 255
-324.766357421875 -9.291339874267578 -86.55546569824219 255 255 255
-331.97320556640625 -9.843420028686523 -98.10820770263672 255 255 255
-317.65777587890625 -10.150452613830566 -96.91909790039062 255 255 255
-116.70012664794922 -49.92165756225586 -76.89759063720703 255 255 255
-296.9440612792969 -12.022777557373047 -77.71446990966797 255 255 255
-279.8427429199219 -8.392749786376953 -76.68423461914062 255 255 255
-316.8311767578125 -18.756135940551758 -80.84358215332031 255 255 255
-329.8499755859375 -8.929883003234863 -87.57891845703125 255 255 255
-240.6894073486328 -24.869659423828125 -100.00001525878906 255 255 255
-332.5658874511719 -9.556757926940918 -90.0105209350586 255 255 255
-303.9478454589844 -16.206043243408203 -81.27635192871094 255 255 255
3.1603944301605225 1.440051794052124 2.562425136566162 255 255 255
13.425433158874512 -3.441798686981201 21.957592010498047 255 255 255
10.414525032043457 -3.4888625144958496 14.592283248901367 255 255 255
-299.7125244140625 -14.046262741088867 -103.75996398925781 255 255 255
-331.2936096191406 -9.508143424987793 -90.6006851196289 255 255 255
-300.491943359375 -10.43122673034668 -94.28176879882812 255 255 255
-211.59201049804688 -5.590859413146973 -57.431190490722656 255 255 255
-188.09864807128906 -5.830221176147461 -72.9144287109375 255 255 255
-166.2222442626953 -14.00062370300293 -74.22684478759766 255 255 255
-149.94989013671875 -11.347143173217773 2.6075260639190674 255 255 255
-239.87852478027344 -24.789213180541992 -100.11871337890625 255 255 255
-277.15533447265625 -18.08063507080078 -100.646728515625 255 255 255
-102.33351135253906 -12.025626182556152 -92.89865112304688 255 255 255
-102.31147766113281 -12.573543548583984 -97.1067886352539 255 255 255
-102.08334350585938 -5.9147772789001465 -97.14118957519531 255 255 255
-147.50291442871094 -4.608371734619141 -79.7597427368164 255 255 255
-149.91082763671875 -5.495031833648682 -70.87528228759766 255 255 255
-134.73345947265625 -15.514180183410645 -80.48783874511719 255 255 255
-151.6813201904297 -4.6063971519470215 -81.7853012084961 255 255 255
-97.47460174560547 -24.202531814575195 -61.30167007446289 255 255 255
-145.59449768066406 -4.497422218322754 -67.45632934570312 255 255 255
-201.77261352539062 -3.142050266265869 -47.779052734375 255 255 255
-218.10545349121094 -4.35407829284668 -55.71774673461914 255 255 255
-212.14181518554688 -3.624983549118042 -54.01356506347656 255 255 255
-202.5833740234375 -3.927260160446167 -64.87193298339844 255 255 255
-218.7594451904297 -8.387468338012695 -58.42185974121094 255 255 255
-12.380102157592773 -11.625381469726562 -96.90177917480469 255 255 255
-25.44243049621582 -7.459370136260986 -112.66533660888672 255 255 255
-273.1075744628906 -8.034734725952148 -91.00210571289062 255 255 255
-247.7125244140625 -13.563529014587402 -81.94410705566406 255 255 255
-271.99261474609375 -8.114521026611328 -92.78057098388672 255 255 255
-306.7082824707031 -16.008249282836914 -83.04421997070312 255 255 255
-297.7900390625 -11.95434856414795 -78.02416229248047 255 255 255
-308.243896484375 -9.768874168395996 -97.30330657958984 255 255 255
-188.35792541503906 -7.677195072174072 -79.424072265625 255 255 255
-300.59320068359375 -15.665350914001465 -105.03345489501953 255 255 255
-320.7605285644531 -9.650618553161621 -99.66952514648438 255 255 255
-244.32916259765625 -10.803089141845703 -80.72276306152344 255 255 255
-244.64913940429688 -10.75510311126709 -79.31248474121094 255 255 255
-228.88372802734375 -4.4820427894592285 -68.77271270751953 255 255 255
-311.32861328125 -18.858333587646484 -79.82772827148438 255 255 255
-157.93296813964844 -4.190318584442139 -73.93403625488281 255 255 255
-154.90411376953125 -11.606940269470215 -83.92186737060547 255 255 255
-114.55980682373047 -10.511153221130371 -59.0599250793457 255 255 255
-158.5980987548828 -4.560985565185547 -78.57549285888672 255 255 255
-139.22476196289062 -15.164018630981445 -80.81466674804688 255 255 255
-126.36551666259766 -8.247838973999023 -75.94268798828125 255 255 255
-160.94931030273438 -4.188861846923828 -70.27747344970703 255 255 255
-143.0033416748047 -15.23253345489502 -75.68888092041016 255 255 255
-142.7794647216797 -5.466062545776367 -70.5920181274414 255 255 255
-141.3494110107422 -15.899185180664062 -72.90771484375 255 255 255
-255.4676971435547 -12.481690406799316 -72.72588348388672 255 255 255
-245.36026000976562 -13.866080284118652 -70.98979949951172 255 255 255
-250.69268798828125 -11.833888053894043 -71.50559997558594 255 255 255
-246.6337127685547 -13.593670845031738 -80.99311065673828 255 255 255
-258.5873718261719 -10.348371505737305 -74.02999877929688 255 255 255
-277.8913269042969 -10.894990921020508 -94.04228973388672 255 255 255
-282.4804992675781 -12.640323638916016 -79.80718231201172 255 255 255
-274.68017578125 -11.81621265411377 -78.62366485595703 255 255 255
-257.4809265136719 -12.291068077087402 -77.09321594238281 255 255 255
-221.321533203125 -23.715662002563477 -93.19428253173828 255 255 255
-281.7931823730469 -13.535305976867676 -78.35991668701172 255 255 255
-260.53350830078125 -14.422414779663086 -70.2020034790039 255 255 255
-284.8775329589844 -8.495216369628906 -87.1790542602539 255 255 255
-202.62838745117188 -16.641069412231445 -75.27179718017578 255 255 255
-230.6365509033203 -6.517663478851318 -69.7412338256836 255 255 255
-278.1344299316406 -12.066085815429688 -93.0997314453125 255 255 255
-278.25726318359375 -7.825812339782715 -89.11637878417969 255 255 255
-278.3437194824219 -11.578704833984375 -93.37174224853516 255 255 255
-268.1165771484375 -13.339378356933594 -89.43488311767578 255 255 255
-260.9091491699219 -11.873815536499023 -72.10061645507812 255 255 255
-257.83306884765625 -10.630029678344727 -71.31068420410156 255 255 255
-300.8418884277344 -13.936792373657227 -101.33992004394531 255 255 255
-286.5551452636719 -9.858159065246582 -76.10749816894531 255 255 255
-283.1527099609375 -18.58774185180664 -102.69940185546875 255 255 255
-285.0802307128906 -8.61070442199707 -74.91532897949219 255 255 255
-242.98333740234375 -10.157479286193848 -78.52450561523438 255 255 255
-245.59109497070312 -13.799758911132812 -68.2292709350586 255 255 255
-156.29458618164062 -7.488845348358154 -44.823081970214844 255 255 255
-252.32044982910156 -12.135151863098145 -67.02427673339844 255 255 255
-294.4388122558594 -8.99372673034668 -97.28915405273438 255 255 255
-164.48944091796875 -4.300910949707031 -70.49808502197266 255 255 255
-163.677490234375 -4.991423606872559 -76.56409454345703 255 255 255
-176.85540771484375 -4.130871772766113 -67.29082489013672 255 255 255
-184.74220275878906 -3.543480157852173 -76.29298400878906 255 255 255
-239.9727783203125 -5.442030429840088 -71.28563690185547 255 255 255
-212.5817413330078 -4.43485164642334 -69.63804626464844 255 255 255
-243.4509735107422 -9.6883544921875 -78.47078704833984 255 255 255
-236.83154296875 -5.233064651489258 -70.67292785644531 255 255 255
-205.91554260253906 -14.111773490905762 -69.94174194335938 255 255 255
-170.23948669433594 -9.246817588806152 12.084744453430176 255 255 255
-165.02447509765625 -9.52531909942627 18.164216995239258 255 255 255
-169.56784057617188 -11.765728950500488 -23.765336990356445 255 255 255
-142.18356323242188 -4.791273593902588 -76.43084716796875 255 255 255
-125.83255767822266 -7.501529693603516 -74.24300384521484 255 255 255
-146.25135803222656 -4.396310329437256 -74.12554931640625 255 255 255
-141.61544799804688 -12.958970069885254 -80.79740142822266 255 255 255
-305.3154296875 -14.647987365722656 -87.08628845214844 255 255 255
-304.4203796386719 -15.742652893066406 -83.55789184570312 255 255 255
-301.1351013183594 -12.024145126342773 -82.7890396118164 255 255 255
-135.73634338378906 -20.85746955871582 -74.48997497558594 255 255 255
-249.22296142578125 -10.405156135559082 -81.82177734375 255 255 255
-56.629737854003906 -10.849552154541016 -123.40179443359375 255 255 255
-143.41079711914062 -4.955698490142822 -86.84185791015625 255 255 255
-305.9745788574219 -12.3732271194458 -81.54275512695312 255 255 255
-311.7017517089844 -22.318944931030273 -66.8252944946289 255 255 255
-330.31744384765625 -13.92416000366211 -86.37936401367188 255 255 255
-298.7699890136719 -12.249135971069336 -106.21611785888672 255 255 255
-328.8411560058594 -9.448942184448242 -91.93612670898438 255 255 255
-252.46588134765625 -16.540691375732422 -74.14929962158203 255 255 255
-313.61676025390625 -18.965721130371094 -79.59710693359375 255 255 255
-330.4642333984375 -12.503863334655762 -86.89522552490234 255 255 255
-329.2387390136719 -14.152509689331055 -82.97677612304688 255 255 255
-318.8603820800781 -9.895212173461914 -101.59445190429688 255 255 255
-207.67213439941406 -7.357712745666504 -92.46443176269531 255 255 255
-298.8998107910156 -12.519482612609863 -78.4813232421875 255 255 255
-314.4580383300781 -21.35114860534668 -69.34159851074219 255 255 255
-300.53009033203125 -12.579609870910645 -79.29609680175781 255 255 255
-56.92655944824219 -10.700003623962402 -123.83894348144531 255 255 255
-60.44318771362305 -6.961898326873779 -129.834716796875 255 255 255
-55.764442443847656 -7.262689113616943 -121.05913543701172 255 255 255
-60.39155960083008 -7.323178291320801 -130.28359985351562 255 255 255
-56.918357849121094 -8.740920066833496 -121.10392761230469 255 255 255
-30.636699676513672 -12.89840316772461 -131.59054565429688 255 255 255
-34.100120544433594 -11.571816444396973 -130.5426025390625 255 255 255
-22.343246459960938 -6.980137348175049 -150.23646545410156 255 255 255
-226.72039794921875 -9.117083549499512 -55.74081802368164 255 255 255
-266.8282165527344 -9.100724220275879 -91.27506256103516 255 255 255
-251.83985900878906 -14.55336856842041 -74.77136993408203 255 255 255
-259.0684509277344 -7.7637176513671875 -79.28229522705078 255 255 255
-300.0365295410156 -9.386238098144531 -96.1145248413086 255 255 255
-236.6324005126953 -26.937829971313477 -97.09810638427734 255 255 255
-273.1070861816406 -11.528604507446289 -91.40214538574219 255 255 255
-275.0054931640625 -23.914772033691406 -100.26912689208984 255 255 255
-285.5536193847656 -12.254270553588867 -81.8913345336914 255 255 255
-290.19329833984375 -11.751086235046387 -98.52772521972656 255 255 255
-292.7109680175781 -15.182205200195312 -97.9534912109375 255 255 255
-312.4989318847656 -15.884483337402344 -84.44517517089844 255 255 255
-277.6764221191406 -18.2430419921875 -100.51447296142578 255 255 255
-300.4103088378906 -19.100048065185547 -102.30693817138672 255 255 255
-328.23095703125 -9.586837768554688 -93.08568572998047 255 255 255
-312.0599060058594 -19.988201141357422 -78.70133972167969 255 255 255
-59.30415344238281 -14.821797370910645 -181.608154296875 255 255 255
-130.8526153564453 -4.367862701416016 -85.70045471191406 255 255 255
-126.5290298461914 -4.833596229553223 -84.51698303222656 255 255 255
-132.30580139160156 -4.596035003662109 -83.65007781982422 255 255 255
-121.7121353149414 -5.4882683753967285 -83.82515716552734 255 255 255
-48.55860137939453 -19.73073959350586 -173.26644897460938 255 255 255
-93.90149688720703 -8.747700691223145 -111.06172943115234 255 255 255
-117.0435791015625 -5.726911544799805 -91.1248779296875 255 255 255
-198.62692260742188 -10.871597290039062 -51.80392837524414 255 255 255
-204.87274169921875 -12.876289367675781 -65.99459075927734 255 255 255
-270.2882385253906 -9.864903450012207 -92.24893951416016 255 255 255
-262.74737548828125 -11.527725219726562 -76.54240417480469 255 255 255
-271.2284240722656 -11.553083419799805 -74.78659057617188 255 255 255
-262.9445495605469 -8.039565086364746 -90.06021118164062 255 255 255
-282.85711669921875 -8.513236999511719 -90.73125457763672 255 255 255
-9.587323188781738 -7.438689231872559 16.70379638671875 255 255 255
-2.9557178020477295 -5.832798004150391 17.588407516479492 255 255 255
-0.4998180866241455 -7.828856468200684 20.040119171142578 255 255 255
-1.3578423261642456 1.5717259645462036 4.187799453735352 255 255 255
-245.64466857910156 -13.984997749328613 -71.42118835449219 255 255 255
-281.14727783203125 -14.44585132598877 -79.64359283447266 255 255 255
-244.5587158203125 -13.588804244995117 -69.63433837890625 255 255 255
-172.449462890625 -22.48142433166504 -77.98413848876953 255 255 255
-187.77865600585938 -10.425783157348633 -71.98037719726562 255 255 255
-269.8702087402344 -7.874763011932373 -87.8456802368164 255 255 255
-252.16891479492188 -15.947656631469727 -75.05044555664062 255 255 255
-132.9615478515625 -2.693740129470825 -14.608567237854004 255 255 255
-188.45248413085938 -3.8396553993225098 -64.24735260009766 255 255 255
-183.4319610595703 -4.831907272338867 -69.18073272705078 255 255 255
-184.33653259277344 -4.338048934936523 -69.25054931640625 255 255 255
-278.4110107421875 -13.162681579589844 -79.8613052368164 255 255 255
-257.9435729980469 -11.125701904296875 -68.17916870117188 255 255 255
-324.7958068847656 -10.901018142700195 -102.1719741821289 255 255 255
-327.8304138183594 -15.112396240234375 -100.85438537597656 255 255 255
-336.01849365234375 -9.564933776855469 -92.08676147460938 255 255 255
-312.0376281738281 -9.31258773803711 -75.26461029052734 255 255 255
-325.3227844238281 -10.060296058654785 -101.89187622070312 255 255 255
-323.4717102050781 -10.811634063720703 -102.16944122314453 255 255 255
-77.0996322631836 -9.341578483581543 -118.87859344482422 255 255 255
-78.89991760253906 -9.431597709655762 -120.64620208740234 255 255 255
-79.1103744506836 -9.728555679321289 -116.90630340576172 255 255 255
-310.53656005859375 -10.439361572265625 -74.11155700683594 255 255 255
-324.59124755859375 -9.627615928649902 -93.77336120605469 255 255 255
-163.01202392578125 -6.0346293449401855 -55.922000885009766 255 255 255
-185.82009887695312 -8.847590446472168 -67.8088150024414 255 255 255
-165.81100463867188 -8.8159818649292 -56.92094421386719 255 255 255
-191.48489379882812 -8.116345405578613 -68.56449890136719 255 255 255
-185.22079467773438 -8.970601081848145 -68.05393981933594 255 255 255
-186.33665466308594 -9.542562484741211 -67.90618133544922 255 255 255
-247.18431091308594 -7.162998676300049 -79.36421966552734 255 255 255
-304.6507568359375 -13.745665550231934 -85.57149505615234 255 255 255
