188.30137820750147 -26.345133902325077 -331.16570424349396 98 97 114 
182.9720081499336 -22.93721683815645 -340.51374512509034 42 40 56 
186.2804916306847 -24.1879787655436 -328.4324431533432 57 77 83 
192.99295417854975 -24.18539241557944 -332.2389415150479 217 215 216 
193.2592410348891 -24.209653132222765 -332.1918716437412 175 175 177 
191.73229826596602 -24.064177394579513 -331.76729550399494 191 191 193 
192.73573940120008 -24.282842724061812 -332.29306004523045 36 46 58 
193.41564601231022 -24.013900628656135 -332.21779515988703 41 39 40 
191.73039480394132 -24.147558082637385 -331.77051445221633 200 199 205 
184.053062373812 -24.479120341789002 -335.42144406930754 206 202 203 
186.0843847403883 -23.928295559163406 -328.74964211729326 219 219 219 
191.60984945511126 -24.10896771012779 -331.75340575974354 87 88 92 
185.31287756385416 -24.074928272304938 -330.52412821524223 64 73 75 
193.27270925603148 -23.981504882496868 -332.3296290042939 97 97 99 
183.71539869984295 -23.22756354163954 -336.12936968789916 177 177 177 
186.58141626554107 -24.236073999068797 -327.1835897367751 139 151 151 
186.07773297477362 -24.866557115341482 -330.4080756334881 205 203 204 
186.48754581205748 -25.608769712351663 -330.66233354730093 191 193 200 
187.47871637421224 -24.72963210085416 -329.0013497985646 60 58 63 
185.7409071258095 -24.129952529939704 -330.2335072270158 49 67 69 
186.11614636534298 -25.456207791262397 -330.41780242514216 219 223 226 
192.82243274940805 -24.136345400540012 -332.2738697094812 95 91 93 
188.77357377071345 -26.089859727734922 -331.34476783086876 98 107 115 
187.40352676004198 -24.880756197354053 -328.98499906218166 237 236 242 
189.39249481143503 -24.085177766498607 -331.2925785653247 230 226 228 
187.4284166993439 -24.826763010920214 -330.81952961644083 196 194 196 
184.79261226811602 -26.115048803540777 -333.37874876058464 126 124 134 
186.54976535603842 -24.274584366993587 -327.20740708632053 93 102 102 
186.34379678054572 -23.800426268985728 -326.40164029416314 230 237 62 
186.32990845415318 -23.828289010864797 -326.41086335739624 45 39 47 
186.4278831749285 -24.383364693011853 -327.11613082093874 69 73 77 
186.3015286181803 -24.02802071106251 -328.0110882046974 95 93 93 
187.4147855574944 -24.83477813897382 -330.8534746249686 62 62 65 
187.98293483376554 -26.01394837129537 -331.0515679151255 173 180 188 
185.8781297597485 -24.055078731188114 -330.2766529170599 216 215 223 
185.8781297597485 -24.055078731188114 -330.2766529170599 216 215 223 
185.97478285045597 -24.819621603992456 -330.36770964874296 236 234 236 
186.04787531584435 -24.78407258131448 -330.384757448914 55 57 72 
185.90156925690528 -24.77359394306496 -330.28998259726495 58 58 69 
185.9009764082225 -24.772845710882038 -330.2873929557527 58 58 69 
187.64344669177297 -24.086787542547903 -330.8020346499001 203 207 212 
185.92379990440145 -23.926444384866507 -329.05544761140897 218 217 222 
185.9244125719173 -23.925793990960194 -329.0601728330871 218 217 222 
186.09261530574562 -23.983370352027322 -328.7199568350537 92 79 90 
187.35593189171945 -25.142427788626755 -327.5889275629534 85 92 84 
185.70308995890227 -23.59174861430913 -325.996667787564 75 75 77 
186.5754858113771 -24.250551599402698 -327.1878796447162 87 96 99 
185.98418356382894 -24.01395749993971 -329.08026656202924 124 123 131 
186.33793293463293 -23.643865152231317 -326.3707790413534 63 64 73 
186.40098135756503 -24.040966956808514 -327.6991041906306 109 104 111 
185.98109476671905 -23.603022728144506 -326.12063078417776 87 86 102 
185.69508473358655 -23.580736245833084 -325.97353991378344 231 230 232 
185.49291346084226 -23.535048210849098 -326.49324056905215 169 168 172 
185.5281992094196 -23.584937918664703 -326.43523937424436 84 84 91 
185.35873756872857 -23.54268613327609 -326.8698989822868 210 206 182 
185.4700235153786 -23.508812642061752 -326.56081896546755 170 169 174 
185.52517244486182 -23.5710570355936 -326.46797464688234 187 187 197 
185.94023218490807 -24.483129500660493 -330.2460263606095 65 73 85 
185.6306162083977 -24.056881150632815 -330.42152718355175 189 193 198 
185.4409544817504 -24.056955778693673 -330.48393442164263 186 191 197 
186.35285020618878 -23.86044991687316 -326.39410548220485 230 234 67 
186.1030464385113 -24.310081736737157 -328.36643814360497 64 83 85 
186.0555819190806 -24.334343242148346 -328.3735635053275 61 80 85 
187.37848986115094 -24.8102178116849 -330.83550946934 58 65 66 
187.42992808567683 -24.697486758458158 -330.827256129536 77 77 85 
185.63046112478142 -24.05758609341445 -330.4322342037481 189 193 198 
185.77644165902535 -24.058713696440865 -330.214898032704 211 209 212 
185.52827744595479 -24.054041687943315 -330.44633011537263 191 194 199 
185.52827744595479 -24.054041687943315 -330.44633011537263 191 194 199 
186.26361382351973 -24.186340261027382 -328.4806109823606 117 135 139 
187.87783440584218 -25.20760179195121 -327.57558895873336 145 152 145 
187.65831852314864 -24.83615762710168 -330.8284567928151 57 54 63 
185.72914059309795 -24.05976169468789 -330.2179606024187 119 118 122 
187.3698500549439 -24.72162107586549 -328.9171312217088 64 63 69 
185.4977544813157 -24.02932998276746 -330.45250155191064 184 189 193 
185.90322404812164 -24.083968825578268 -330.284371130724 214 218 223 
186.0214711654747 -24.830282297310344 -330.3912990517293 202 202 208 
185.6574209937631 -24.08102525991524 -330.43137738653775 187 193 197 
185.86551605347242 -23.562253716109574 -326.73002806731756 234 224 234 
186.5597693384746 -24.25401898475113 -327.203810911628 144 146 151 
186.21150522999238 -24.01979107210408 -328.30409451522746 155 151 160 
186.35427504764743 -23.885916746638078 -326.4231062970365 205 214 118 
185.95296196608618 -23.907218879244446 -329.0402062233743 78 77 82 
185.7135442498711 -23.60419760549985 -325.9884524274408 247 247 249 
186.0886823522456 -24.160470619138817 -328.93025674239436 111 118 124 
193.20478024391838 -24.227736473290733 -332.2278050134164 118 122 131 
185.27943795446438 -23.747606274732714 -328.4212963004466 169 169 89 
186.61982684981507 -25.212146539600965 -328.3288870924766 112 123 118 
186.65028823212143 -25.396983317817675 -330.55912942819145 232 228 229 
186.64301515508632 -25.43272885212805 -330.6158164882006 213 207 210 
185.50283697792736 -24.073093388316913 -330.4489132587771 190 192 198 
187.350613627425 -24.70320860211847 -328.8980476347511 221 220 229 
187.5033748887077 -24.048847399438326 -330.7891019996409 207 205 210 
185.4757301836997 -24.00605982685621 -330.4161808940155 74 79 83 
186.22230888848694 -25.437648659828046 -330.4648502384166 119 113 117 
185.4787485968903 -24.049534715721858 -330.46923263521256 91 94 99 
185.47828041978565 -24.048997926667212 -330.4691996788816 91 94 99 
186.11641057218492 -25.457051542396904 -330.41158921084474 214 216 221 
186.68472289744093 -25.47897108289344 -330.6028181169008 223 221 231 
185.35248175672848 -23.464221340514076 -328.03545774719925 80 83 90 
185.27961984575836 -23.747149496699755 -328.42177721321644 169 169 89 
185.3139712205937 -24.024118051396023 -330.5508993865087 172 176 180 
185.3149560656337 -24.024134948266923 -330.54959204512716 172 176 180 
185.74826656756963 -24.085843615682638 -330.1955788619984 206 206 211 
187.34607049699355 -24.70228156982614 -328.89094531003803 209 208 216 
186.023720655262 -24.829895283827828 -330.4001223192356 201 200 205 
186.76402573588283 -25.178034980680547 -328.26803040824046 107 118 108 
185.6667142582638 -23.609971963012665 -325.99273855328823 42 44 57 
186.50307699136292 -24.079629544581714 -327.3591218774858 170 166 179 
186.33755217559195 -23.657765468902845 -326.3945535551515 165 167 179 
185.26921246893963 -23.721809992504365 -328.4030110370513 41 37 26 
186.16053429608965 -24.342585954084786 -327.99379625282415 104 124 125 
185.62395394124752 -23.568737871517648 -325.97581402594955 63 65 78 
185.44622644492338 -23.54582110561163 -326.6276606179492 73 80 58 
187.4195407492563 -24.661197363948997 -330.80456671243917 34 34 45 
186.65056722932945 -25.41844479841965 -330.610782570298 224 218 220 
186.03377212818307 -24.336435849611988 -328.4084224891225 140 158 162 
185.69749847056974 -24.124522320212392 -330.16626787042196 98 120 121 
185.56383467018532 -24.102315414513157 -330.5539060766191 49 62 66 
185.8336719256438 -25.68209264229425 -330.2697604853821 191 189 192 
186.20405804161734 -25.532847136219303 -330.51126829180015 98 109 115 
185.08130502304653 -23.979289300407054 -332.5175034649518 184 186 191 
185.2777244802426 -24.042549981058507 -330.55089182108645 191 192 197 
186.39413034930843 -23.753238436567305 -326.15147330271515 60 58 58 
185.33757655155608 -23.461852984787697 -328.14240512719255 109 111 123 
186.6369811727327 -25.56759208925203 -330.62201873788007 149 157 164 
185.6583169284931 -23.56817393362346 -326.29728698936157 59 63 68 
185.86484913132162 -25.41420586984061 -330.30154118200267 140 138 139 
185.07990668285322 -24.733334958050197 -332.3898892134446 78 78 80 
185.0822377387101 -24.733021180994093 -332.39734364586195 78 78 80 
186.05048280025227 -24.41582297788659 -327.0049616391432 169 181 182 
185.86195301455976 -23.870164922404417 -330.22959029894486 195 194 196 
185.48359256560565 -24.27451377833958 -330.03122112658997 67 87 86 
185.07224829325028 -24.75474465989159 -332.3857891077147 187 187 189 
186.28950361140937 -23.84538935641375 -326.43601550136395 57 60 70 
185.27302771131215 -23.51355963907251 -327.15783864280263 63 65 77 
185.2731797662126 -23.511964058538084 -327.15713584385594 63 65 77 
186.30636955492093 -23.705289871720225 -326.44507303700044 219 222 116 
185.95492154726637 -24.368402455564777 -328.312928786126 94 107 108 
186.0463459376441 -24.064136389651683 -328.79074495739957 209 208 218 
185.68238024016534 -23.582222605674072 -326.2805211008618 67 68 73 
185.0192996144217 -23.662308628221762 -328.17461325498994 201 203 207 
185.4156547257968 -23.54431499547996 -326.8864746930487 207 205 174 
185.92713296025468 -23.61690471478992 -326.1219861814582 238 238 247 
185.9252618686011 -23.61802549557362 -326.11759093621527 238 238 247 
186.08294716682104 -24.181337371641646 -328.9147373753666 65 72 78 
186.11942722667183 -24.29115535745895 -328.35551532310797 59 80 82 
187.5861180720997 -24.739554510837923 -330.75766816333487 210 213 220 
187.29709029127773 -26.007667457661807 -330.9766257434296 188 197 206 
185.93247940669232 -24.761549121909642 -330.331489963491 62 75 84 
185.458117188707 -24.18672655011338 -330.49378086226193 52 71 73 
185.58632360135803 -24.117397561612368 -330.5486503130138 95 113 115 
185.31063092436446 -23.44175311063143 -328.0643927547591 148 151 158 
186.17991476417396 -24.02008038249171 -328.4625305367381 119 118 126 
185.96773527675353 -24.019584052485254 -329.1527362401553 87 89 98 
186.0462127624216 -25.455440749990732 -330.3958013938689 218 225 229 
185.6919956121241 -24.157877845029745 -330.0928394517633 128 154 153 
185.51200984813622 -24.202690734281727 -330.48619188373266 122 145 145 
185.6804059147788 -24.171562599564034 -330.19307900063467 69 92 92 
186.0324006009941 -24.628046506825417 -330.1352891220168 89 98 115 
187.27358821734245 -24.71224551240172 -331.0358968097258 73 87 98 
185.8132285546778 -24.496264852332537 -330.33492743076476 218 216 217 
185.71215325567815 -24.20259377106682 -330.090617229028 132 153 154 
187.61595801070422 -24.893885929968597 -330.7364963399722 237 235 236 
185.27925604415657 -24.042655137776755 -330.55394382324977 193 193 201 
185.87208915003 -25.480446563699292 -330.2976575860772 129 129 141 
187.5832360181959 -24.11302000290867 -330.80117222618844 61 64 71 
186.05952048347885 -24.324474762363167 -328.37630596731293 62 82 89 
186.38933102034616 -24.235050454855628 -327.12209721465206 72 81 84 
185.31863610702422 -23.453581147991336 -328.0693875502027 121 123 130 
185.26574951721574 -24.100926734127576 -330.5410365603448 119 124 131 
186.24471175428496 -24.03624688550046 -328.2055939618447 89 79 85 
185.90458906037887 -24.085070393880944 -330.289768016223 203 209 218 
185.09675769986058 -24.538861935354163 -332.40590353409254 147 149 157 
185.68401685133048 -23.565375603437456 -326.26765802516076 239 232 242 
184.94089726530333 -23.484086159778087 -328.111905141522 167 171 178 
185.46442581674643 -23.514606713902662 -326.61339435887595 106 107 108 
186.09778724201902 -24.004569069198908 -326.9236851255502 43 44 48 
186.26533900322116 -24.321234347180003 -327.9598296306167 110 124 126 
185.92197283704985 -23.629516098212022 -326.12265620605666 119 119 131 
186.46750244727625 -23.6126133218854 -326.2110173049135 201 203 215 
193.31164164387323 -23.986214587739866 -332.4289412373411 92 92 94 
185.17410187205238 -24.461256145556717 -332.2427342419314 217 217 219 
185.17410187205238 -24.461256145556717 -332.2427342419314 217 217 219 
184.9594623304919 -25.39653431776402 -332.8623274275934 122 123 136 
184.86862664958412 -25.359289115448437 -333.28329158360486 106 107 113 
184.86809837489272 -25.35929127715979 -333.28148320823715 106 107 113 
185.367543932401 -24.281823863517236 -330.44776120959506 135 153 153 
188.9099963854318 -24.77725766883599 -328.5697320276636 220 223 229 
185.33081904040205 -24.041703347089918 -330.55263112524347 86 86 94 
187.70969876046348 -24.055762628478465 -330.86708273464217 73 73 76 
187.70969876046348 -24.055762628478465 -330.86708273464217 73 73 76 
186.40909919085553 -26.031654621004964 -330.5986855084372 97 105 115 
186.67211847792944 -25.178097871617815 -328.35606294535035 77 86 88 
185.97870204837318 -24.33413571300901 -328.79600526705406 130 149 148 
184.93277554769412 -23.45885784446907 -328.10215468750835 63 66 73 
185.9427245934916 -24.00116306988471 -329.18653311290643 119 119 128 
187.3557517775236 -25.553852857242 -330.8683194180851 91 90 100 
187.3604067875226 -25.55398790000797 -330.8772472971014 91 90 100 
186.3203526833905 -25.45985247565527 -330.4661264955599 226 226 235 
185.68284086841345 -23.582885515886677 -326.28224291345396 59 58 64 
185.11913218788396 -23.589410335033765 -328.28139656589616 220 220 143 
186.55621064860202 -24.255711154200483 -327.1999857028401 147 147 152 
187.39201651505743 -25.47930138495134 -330.83422933310953 107 106 104 
184.41762157322123 -23.587939946643157 -332.04847836631814 153 155 162 
185.85665316691185 -25.462499122308287 -330.2980570461222 157 157 167 
181.85787114514565 -23.6787363771752 -328.1305431678771 76 77 136 
185.96194400486445 -23.609916962272596 -326.09788966461787 83 85 97 
181.88823039817558 -23.992589740369088 -328.15248125636595 191 199 244 
185.30323865362163 -23.522768797609988 -326.94356608034445 178 175 186 
186.2894319187578 -23.746985237253778 -326.4273672351665 67 65 61 
186.36050719354415 -23.736039867036656 -326.3988024298236 217 218 216 
185.68234199140073 -23.56633354186692 -326.26583734322656 232 228 236 
185.7942731025377 -23.512101927932623 -327.67419357141074 65 68 73 
186.1099081549505 -23.960649897677566 -326.7064072312673 240 239 233 
185.23156065428478 -23.743285359122225 -328.40093783145574 245 250 178 
185.34682748263475 -23.530409869368423 -327.18252682595255 232 235 242 
185.7078948902401 -23.58651988254848 -326.2458107434389 239 233 243 
185.7078948902401 -23.58651988254848 -326.2458107434389 239 233 243 
186.11625415788765 -23.96206734860597 -326.68201135869555 86 84 85 
185.46257356088722 -23.49244692787074 -326.6669401770103 103 104 109 
186.3556336011483 -23.827519237735718 -326.34328226309975 109 107 56 
185.441410854568 -23.54616919320184 -326.89826934878727 211 208 184 
186.20145783464108 -23.696966729927077 -327.1579374081034 117 117 106 
185.9351668595843 -24.76393415509377 -330.33545679428454 64 72 84 
184.01116101734092 -23.849846599548105 -336.1217136933353 192 188 189 
186.40267656348612 -24.05746874101303 -327.70252740738874 98 96 101 
186.2977165677025 -24.01627450950219 -328.05579099908493 141 126 133 
186.03533682832042 -24.786189236299975 -330.38085845788726 59 60 68 
186.6134991861097 -25.510581783839093 -330.6317975251862 113 122 133 
185.66355220111663 -23.512893763457527 -328.2600593368389 117 119 131 
187.56347391285527 -23.97998918214227 -330.74934508081134 96 96 96 
187.0240549801097 -25.62768480754227 -330.7342390573195 173 182 189 
185.6444370840772 -24.223488692096563 -330.0776653522499 145 162 164 
184.9117100269795 -25.440222421349088 -333.1319238052855 169 171 184 
187.3467687154497 -25.67396489661149 -331.002930549066 191 201 204 
187.3470079707975 -25.434533593131356 -330.83903396570275 220 219 217 
186.624991688837 -25.477882068524206 -330.6004937284912 220 226 234 
186.69830010583442 -25.483523538188308 -330.6433345189893 210 214 222 
185.1025218308395 -24.72010626291934 -332.3582072392057 205 203 206 
186.74166329103417 -25.667548481321163 -330.7422610167844 154 158 170 
185.4769943479015 -24.297400663635724 -330.09540547587335 137 149 150 
185.82924157063442 -25.44243298603245 -330.3008677129092 230 229 238 
187.12900716257022 -24.961751959485035 -329.2780713214268 234 234 242 
185.70395812840414 -24.049560923426522 -330.31108981772945 111 110 118 
186.69811498718653 -25.23165945623692 -328.34403729499473 121 128 133 
186.92254790649542 -25.61209721293395 -330.8150485766433 156 158 171 
186.2798594166166 -24.03484155579194 -328.1416770327012 136 130 134 
185.49944081340416 -24.027952294253545 -330.4650225947197 172 171 179 
186.43362611157235 -24.044861602869915 -327.5432401157687 104 95 100 
187.62066049196534 -25.49929106518885 -330.81270242152544 211 214 221 
184.27570257439015 -23.430722590028278 -331.7606482719351 190 189 195 
185.98607803937261 -24.040198673290814 -329.0651196954975 81 83 87 
185.5112253611863 -23.70504472936487 -326.5234002423311 147 140 115 
185.89041522159837 -24.1337202699339 -329.7146690751231 107 126 130 
185.50654305417368 -23.670294842595318 -326.5168615178728 222 220 215 
184.3395737662248 -25.507802076793865 -335.5928831668341 214 214 216 
185.81199833925962 -23.611360515645668 -326.0693116414031 240 242 240 
186.15922341845214 -23.61482957409708 -326.6663252890783 238 237 244 
185.37649828411645 -23.534450948556223 -326.64936810489644 184 187 189 
185.79555010260384 -23.5110070204363 -327.6757973006767 59 62 67 
186.1891911938403 -24.36181095805305 -327.9399489594403 126 143 143 
185.3504438501019 -23.530452586853183 -327.19206903697767 233 236 241 
185.65661194686203 -23.59628188964058 -325.9736099309532 236 237 239 
185.4794008981535 -24.125889878796695 -330.59401259049474 48 68 67 
185.68947209007857 -24.151345740204867 -330.1620770589694 61 78 81 
186.63379413629445 -25.48119779552469 -330.6164770383376 220 226 234 
186.47397319010656 -24.043300879200714 -327.4774715967462 102 87 100 
184.89180216370707 -25.75248505215004 -333.0675303859013 161 165 176 
187.6639938614059 -24.034728062269238 -330.82047356723734 200 205 211 
184.02063154724988 -23.281024685705614 -333.28391606227063 119 119 121 
186.25176648553935 -24.03043395325059 -328.1812597101411 133 127 131 
186.26401205348793 -24.02861184102864 -328.2067200805754 133 127 131 
185.9276295314231 -24.006317299590652 -329.2633724439362 122 121 125 
187.67813376075432 -24.782254437886234 -330.8580551608791 65 69 82 
184.06028394188672 -23.29620714523055 -333.2200324029992 179 179 181 
184.05915027277447 -23.29793253897232 -333.2174104633594 179 179 181 
184.90283600202972 -23.43196707103833 -328.5599244888262 60 61 66 
184.034437119677 -23.2965254296186 -333.25224760256555 122 122 124 
184.49990403443525 -24.877636784388066 -334.0845234609852 177 177 179 
184.5691201462839 -24.902865516005992 -334.16363927371754 169 169 171 
187.13974277156092 -25.728417346757965 -330.8209679133984 182 186 195 
184.1371513630178 -23.296897365954724 -333.1624098416709 108 108 110 
186.14009685888055 -24.171787105434206 -329.9035391640876 141 159 161 
186.58498785818753 -26.022786783204207 -330.6234371810301 182 188 200 
184.0171604809598 -23.27811992060322 -333.28604909582344 117 117 119 
186.19105536502283 -25.564534957602724 -330.5583975892006 185 189 193 
185.7103718286784 -24.122839375279536 -330.198227723621 104 115 119 
184.95247221866643 -23.503567219786596 -328.1217117646672 75 78 83 
185.46704518564525 -23.556226763015307 -326.524471841541 52 51 65 
185.42108010436866 -23.548959616271315 -327.2929879790567 207 210 215 
185.70817492096268 -23.546576054050433 -326.2344332376058 52 57 66 
184.8327379797313 -23.407948122761063 -329.4337611795031 161 161 169 
184.9300371490707 -23.415748062319967 -329.6052167932365 34 35 35 
185.45526014920614 -23.52610534892435 -326.64245781361774 142 148 133 
186.45407988077133 -24.07546051927256 -327.4312175640884 138 131 142 
186.1588074062755 -23.604156193034026 -326.61931329556296 224 223 229 
184.2203414105509 -23.43013767445249 -333.15678656970584 124 122 123 
185.06231707520462 -24.17655142738812 -331.76847849339913 111 131 132 
184.87419527107792 -25.38512366716582 -333.2246273947113 123 126 135 
185.91283240632305 -24.0311577472427 -330.30430598369793 190 188 200 
184.65993201224305 -24.6030465994261 -332.27655226959035 178 178 184 
188.48736265124836 -26.29577963475284 -331.24558656220387 100 104 117 
184.68380597312748 -24.383892068707638 -333.90220277637155 195 196 201 
185.8933621587705 -23.91917566931775 -329.03104826007785 207 206 214 
185.70733377346772 -24.09628526172411 -330.2133966656121 54 60 66 
184.7084044295528 -24.497384380421188 -333.61579978209863 104 107 114 
186.3605967190496 -24.05619177013574 -327.80281221100495 98 92 96 
184.2978432565804 -23.588356079639954 -333.2944150770587 127 124 125 
184.67307068414246 -24.946213254975618 -333.3484465115183 220 220 222 
186.96348126541827 -25.58862525010165 -330.8176749470802 126 132 145 
186.6229040976006 -25.594618514209042 -330.71284303531155 116 126 136 
187.40399349375826 -24.62034495105448 -330.88553362137213 39 48 57 
186.25875363499836 -25.55919139447884 -330.5220725457739 192 195 200 
186.33096894926206 -25.462211633415336 -330.4912036810767 224 225 232 
183.95724577129945 -24.810215768561278 -334.03287580855766 191 191 193 
186.32915632526067 -24.338763932343504 -327.4995477921505 66 80 80 
184.98040079279406 -23.47632428446044 -328.5625372731814 187 190 195 
186.62269323243356 -24.624941435108735 -330.59490891867745 32 45 61 
186.39535670702813 -25.662563221965016 -330.6040185636113 194 199 202 
186.20989253457273 -25.52690318936651 -330.52550215048956 108 115 118 
185.03335635892714 -23.447627567461222 -328.1764691709421 127 131 140 
186.42026071619975 -24.211003220795526 -327.9779077388507 111 130 129 
185.47405357519506 -24.216087794577085 -330.45653606460854 120 140 143 
186.17450610173958 -25.58667107871632 -330.6680308250958 193 194 200 
186.3520776566348 -24.19930608153256 -327.9836194519528 76 96 101 
185.33679074664693 -24.25760396673377 -330.47751861161214 66 81 84 
186.13780512017806 -24.370147277224767 -327.90656117979125 123 137 138 
188.51364631468803 -26.31458060267002 -331.21669694354586 186 187 202 
185.68443547238783 -23.574543679001682 -326.2444755424441 114 111 120 
184.94865154638447 -23.492576382158344 -328.55641268991076 174 177 181 
184.9561166222377 -23.48851324528496 -328.5802922906314 174 177 181 
185.18827463581627 -23.936208407468918 -328.6290395775797 38 36 41 
187.35088563857917 -25.44990552404809 -330.8184683447938 199 198 196 
185.29274585657313 -24.06165311060372 -330.54078218041013 199 199 207 
185.01415930520932 -23.62969606966853 -329.9120676875748 116 119 126 
184.1446557051814 -24.53235705522539 -335.62504629374104 178 172 176 
186.20910273261646 -25.49950811362272 -330.5089510229651 117 120 125 
187.6815922611304 -24.091436955812906 -330.8200156361183 78 86 97 
185.0303335557576 -24.596657420109484 -332.56810045902245 143 147 156 
181.8761597440551 -23.556583672685733 -328.1265849015766 200 202 250 
183.97748821385406 -24.27322521258838 -336.28720472604806 210 204 206 
187.74422697676695 -24.715950777591214 -330.66130666490557 89 97 109 
187.36104702145636 -25.591947668436244 -330.90907748364606 100 106 116 
187.27567463366617 -25.496269270247318 -330.7522636288092 235 232 241 
184.53604819489692 -24.907380080842245 -334.1507733201035 216 216 218 
183.95732006476652 -24.850505233513964 -334.0280429544741 147 147 149 
187.0183985160421 -25.36679415244412 -328.0249872325093 79 90 89 
184.26510895478498 -24.573249668736782 -333.5502292874183 112 107 111 
184.89100187951342 -25.823115335371412 -333.05391213024393 90 94 105 
184.68102861950408 -24.654936344878628 -332.36025291759483 178 179 184 
183.9205464037547 -24.841755780168132 -334.11270296544853 139 139 141 
185.77056220934813 -23.88428962949482 -329.0240691884554 220 220 222 
186.87181267403972 -25.396765155390266 -328.47869164661165 106 116 116 
187.0308287865366 -25.385429866447975 -327.9182914207729 127 141 137 
186.10819559200402 -24.17115397870938 -328.9072177996555 111 121 128 
185.38255876837246 -24.045632786764862 -330.5782899651403 189 195 199 
185.8637493192459 -23.852049335082413 -329.0198227048376 82 82 82 
185.09453823174778 -23.543723367214763 -331.65453421568964 44 45 49 
185.0325246654127 -24.348003206531885 -332.7352064462368 87 90 95 
186.87074363445095 -25.371569621056693 -328.163079358088 94 105 98 
186.04759846245418 -25.4500545234614 -330.39781730621934 223 224 231 
185.06658680307655 -23.566952147728536 -331.71416940196366 56 57 61 
185.56719268295828 -23.495272186959276 -328.19418207344364 98 102 108 
186.95525640758254 -25.405217408514677 -328.12662034196916 103 114 110 
185.47075793344806 -24.10569476892454 -330.5089442309446 107 123 123 
185.409931621967 -23.999920089245972 -330.6094970566839 75 74 79 
184.84890026593712 -23.399739280489428 -330.27466108714975 57 60 69 
184.91176109795413 -23.406989513934487 -329.58677707044995 59 62 69 
186.3653219935303 -24.05843709704806 -327.65094543606364 90 84 88 
185.6607413177083 -23.66221399681759 -326.9199811506414 237 237 170 
184.98877387165362 -23.491925817209456 -328.569862763145 54 57 62 
185.54133328290214 -23.553843323715462 -326.8676424653523 214 219 186 
188.45104535979877 -26.207982359140683 -331.2164505157738 80 84 96 
187.674794549452 -25.4089569080911 -330.8978652756256 227 225 230 
185.12106254312332 -24.66016029500385 -332.3412167619711 214 214 216 
185.36141019033533 -24.047791390214734 -330.5245235942572 193 196 203 
185.85933278651916 -25.492973014480466 -330.30802605508643 127 128 132 
185.9774204050405 -23.92103398995582 -329.04844968133233 219 217 223 
184.98740259372374 -25.463094674099253 -332.6752389649206 223 222 227 
184.00807098603642 -24.853954420593798 -333.8585411880938 175 175 177 
184.3015715308577 -23.587235098503786 -333.3053755256096 129 124 125 
184.33227338429043 -24.44773864440067 -334.81128874249634 122 114 119 
183.77887808016015 -23.213082930319146 -336.2021910627874 50 48 49 
184.28345534187503 -24.515894434195346 -333.48319654330584 168 163 168 
187.56229278408645 -25.498959568084786 -330.79247204796064 228 227 230 
185.92009994546086 -24.098190568956454 -330.2696039870814 46 60 64 
189.31455423218281 -24.109825922929584 -331.2449847785688 196 196 199 
183.94100295972802 -23.2649900962664 -333.89412662878124 141 139 140 
187.64753374264558 -25.48265350783216 -330.87827877072385 106 107 109 
187.69664188717826 -25.51439552765436 -330.91170482058936 218 223 226 
184.9588060783225 -25.881063749597594 -332.77897335766414 126 129 138 
184.27128972820992 -23.463218491169325 -333.30858251457863 177 175 176 
186.99712769931938 -25.10568195409346 -328.9435660260646 56 64 76 
184.94452891009598 -23.502022194321068 -329.6823457102993 79 82 87 
186.17097784485836 -25.503892004398466 -330.51739724067147 127 135 141 
185.98886984623599 -24.11092557184616 -329.83085108930123 48 66 73 
185.9587914692424 -23.696315228117328 -327.76322153279955 65 59 63 
184.15521928412574 -23.294765979726353 -333.23444536637027 107 105 106 
185.8764715403967 -25.478925282889374 -330.30504527286416 131 131 135 
186.8772860993386 -25.39549766666777 -328.16350072296393 139 149 147 
186.89149645333072 -25.485648793904712 -328.3529306973836 98 108 99 
185.12969461403088 -24.20524820765998 -331.3399647055162 75 95 91 
185.16016197228817 -23.374493682687284 -331.6685490162642 56 59 68 
185.37705785002782 -23.517168740337944 -326.8761109991904 143 143 141 
184.91683180508386 -23.43080005341892 -329.5772229758928 40 42 46 
184.97819041001608 -25.4394997811641 -332.72717146317814 118 117 125 
181.89336336746683 -23.838696772794414 -328.1426813473704 201 211 246 
189.12126826072526 -24.14756619114005 -331.26289517409833 70 75 81 
181.92363878467165 -23.628437635383815 -328.14153001007065 200 207 236 
187.6550027112949 -24.83284152841243 -330.82545357115237 57 55 64 
187.43976208771468 -24.733213894809207 -330.8254339616705 175 176 185 
183.07511375967687 -22.934783359509186 -340.67421104375 70 66 73 
184.77003566605006 -24.019870754919125 -333.5300285198475 138 136 139 
185.21826345386677 -24.171090755017875 -330.94254938395835 114 135 136 
186.57475809479536 -25.404012905922716 -330.61791735657596 231 229 232 
187.89878411005702 -26.04576841955648 -331.03699824282774 59 65 74 
187.88983556665858 -26.030389311299782 -331.1037115180039 196 205 212 
185.08213261898516 -24.219706658444085 -331.38342998947604 72 84 84 
187.6338781961491 -25.478029464793927 -330.85536750339134 106 107 109 
189.3477456831659 -24.157882280731318 -331.3379947325465 202 206 213 
189.26513148498353 -24.147988845115506 -331.33794937166306 154 159 165 
185.50135495942172 -24.194353916571263 -330.0541275375571 128 154 151 
186.08159973636535 -24.366699014749983 -327.87289518459517 61 70 72 
187.64990484241554 -25.54936658318744 -330.870912452581 121 126 129 
187.64185414099427 -25.54655502099406 -330.8600632278393 121 126 129 
187.61740676576562 -26.01510201334028 -330.86258814409587 79 81 91 
187.61573363884338 -26.015525850920067 -330.86082087152204 79 81 91 
188.35477760241562 -26.284527828346025 -331.157400601903 183 188 203 
185.0939556154827 -24.23392195974044 -329.96353779016886 57 71 71 
185.94785527888095 -24.717670344396677 -330.24752790055334 73 79 91 
185.78352915114235 -25.047269617787865 -330.27049174382137 205 203 204 
185.78352915114235 -25.047269617787865 -330.27049174382137 205 203 204 
186.20058402826893 -24.321190428452987 -327.9124755495488 53 71 75 
185.9123034362052 -24.274466265319912 -328.76987445331343 120 131 134 
185.98275119117469 -23.89015552763964 -328.9824601092294 219 219 223 
187.80152948825437 -25.49422551060531 -330.96555118230685 122 122 125 
187.3219861592693 -26.074589150451896 -330.9572479289901 128 130 149 
187.60193451744126 -25.388296145653186 -330.7876710567977 226 225 223 
187.54156621910246 -24.554776704719995 -330.7657813348736 108 107 108 
184.76381702804022 -24.01781644723492 -333.49619440682216 138 136 139 
181.91379550683135 -24.041026682154538 -328.1646863056532 192 203 234 
184.88925309567645 -25.95646480859409 -333.141840162233 139 144 156 
181.53494270463364 -24.596841265465528 -329.37415383968266 46 55 63 
184.82990077834123 -26.07672940830553 -333.2891975558467 74 78 89 
187.09175792058443 -25.023143363007865 -329.2491753302931 77 82 88 
187.56173271738652 -26.285828846897864 -330.8294614228857 234 233 238 
183.95534693154138 -23.83349858720422 -336.3026905972874 195 190 192 
186.50036724591274 -25.589015960052386 -330.6659413649291 190 194 201 
184.0862790582464 -23.336839873474087 -333.13324112060906 123 122 125 
186.07584563126136 -24.8634643142385 -330.406247008671 204 203 206 
182.1541464296784 -23.4817692654275 -340.1646618178626 42 44 65 
187.90371063209707 -26.036509350668222 -331.12869545620737 196 205 212 
182.63644463815865 -23.157404026270914 -340.764366925433 124 126 138 
181.94823300342065 -23.396823118447493 -340.5117020484355 68 70 82 
185.95017672351466 -24.033204607989738 -329.202354298698 81 81 89 
181.74143566182968 -24.534546658932594 -329.31839357415714 42 51 66 
184.85919183145796 -25.842362021161644 -333.30397112647523 91 94 103 
185.86635235248238 -24.42974277398839 -330.27984186450595 227 225 232 
185.91876501183745 -24.42353089328828 -330.2802560272449 74 77 88 
188.27024235316316 -26.12928726102487 -331.18567489994274 185 194 202 
184.3111279496181 -23.46088033553993 -333.2675999194131 109 107 108 
188.35155326074448 -26.135330640708908 -331.216012621789 96 105 110 
188.33199133869394 -26.134421584688734 -331.18944350520115 100 109 116 
184.1807968312735 -24.549297511097144 -335.61964852706205 109 101 103 
184.6126894871917 -23.546628884813906 -334.0749629252228 116 115 115 
186.8941774067419 -25.41520941620227 -328.3900962900315 85 96 97 
186.14743814562377 -25.77088104650055 -330.5216867460685 220 221 230 
185.43199686221868 -23.937239140855915 -327.3689600221315 54 52 57 
184.63603167922201 -24.457105606501635 -334.10841678901375 192 191 196 
187.1315285269974 -25.907757305616766 -330.8286895058211 180 189 196 
184.66311426411107 -24.633105002506298 -332.1325154874762 192 193 197 
185.87450448126367 -24.157783537751936 -328.85729277971296 100 111 117 
186.98868761830428 -25.97965118955494 -330.7550628878329 181 190 199 
186.32880708324754 -24.0323996752464 -327.76507450729446 91 85 89 
189.26358876140924 -24.148555814509894 -331.24125403082763 221 223 229 
185.65234507638004 -24.31889517885125 -328.7633202387877 75 78 83 
185.39455000315854 -23.972005779321044 -327.3746469629683 55 56 61 
186.1462916180382 -24.351047786255933 -327.9161784951997 47 60 66 
182.57444932410706 -23.372288148089602 -328.22333324283915 248 248 248 
181.81152540240072 -24.35929198615766 -329.40574763577723 36 44 55 
184.1930772367052 -23.490221902272044 -333.33220413470787 188 184 185 
185.01752319616446 -24.483356570683764 -332.7276165615802 73 80 86 
185.02245396190375 -23.900545144950122 -331.95915172156197 110 109 114 
184.27273417113457 -23.439439489882464 -333.27237752446655 115 113 114 
185.35502152692408 -23.925887471671473 -328.56474940785625 218 216 221 
184.91488128921733 -23.453100000642916 -328.5573341954169 57 59 71 
185.04747103755406 -23.469496650827008 -328.220344562489 139 141 153 
185.47661733962107 -23.713994010779288 -327.38323574992955 60 60 63 
185.69850811870253 -23.72369873435214 -326.9574635420095 227 231 162 
185.48121563604727 -23.679229105008297 -327.38694366962227 246 248 251 
187.6804486400032 -25.657096752741655 -330.8787770660885 184 189 195 
185.20657388288075 -23.929091709784316 -328.6034712772837 59 57 62 
182.0616307769471 -23.474531474674766 -328.16462388530994 67 63 157 
181.5365281082874 -25.139553534216034 -329.53611338377 87 96 103 
181.55173220942444 -24.772455300866582 -329.3914908979202 44 57 64 
189.4638721633236 -24.14939554567281 -331.3594916332958 215 215 223 
186.20605356281595 -24.01973429524607 -328.2972433741617 152 144 158 
185.67678029442865 -24.151896971957814 -330.1903275323718 107 130 131 
186.198852110207 -25.225739505739597 -329.39839979063663 209 204 212 
182.46189548649724 -23.42080126982602 -328.2386981603824 237 237 237 
181.90144622198008 -23.561173711495254 -328.1344190201897 210 213 251 
185.80256267408197 -24.013460915411056 -329.5848956159748 80 81 92 
189.1431829385514 -24.110705938049858 -331.2538776793956 67 66 73 
182.8556854489407 -23.49415488445679 -340.9572315838991 31 33 45 
186.80494563763378 -25.1245930448655 -330.65582741509496 237 235 238 
188.95116035340084 -24.78593294722746 -331.2269486344603 83 91 102 
186.86821724672845 -25.38817185206602 -328.4740836126737 114 123 128 
184.00099892053709 -24.840990732820725 -334.0013882356351 167 165 168 
185.41373741655735 -24.232941707550022 -330.55297756116204 64 79 80 
188.42021249930107 -26.138516868339003 -331.2349247221637 213 219 231 
185.94613513205022 -24.33577429842351 -328.2933022324862 134 145 151 
188.52065485652784 -26.318798569321558 -331.22838722140784 186 187 202 
188.37677589957661 -26.178309221672148 -331.1961415383983 162 168 180 
187.93180974016198 -25.524013442608094 -330.98631170797927 207 207 220 
187.65981229134846 -24.706985024338266 -330.82107101564884 74 85 97 
187.31173886481514 -26.106149879477403 -331.02664681505104 172 178 198 
184.68693957174978 -24.51425490333316 -333.60248584002636 194 200 203 
185.34321908120762 -24.042516437092676 -330.57956571444566 72 77 83 
188.4025944072727 -26.085994789221726 -331.2040675419822 108 114 126 
184.27318510082074 -24.46073005674846 -333.3505268332887 104 100 109 
186.5830194242299 -25.957103482916562 -330.676448251483 126 136 146 
185.30591056844358 -23.53373626865118 -326.85355907571665 53 51 64 
184.91205590877613 -26.065457638906988 -332.85208556361573 72 71 91 
184.91205590877613 -26.065457638906988 -332.85208556361573 72 71 91 
185.0612290709109 -23.889484994190365 -332.3232139732139 103 103 106 
186.93153457264106 -25.99083175349821 -330.765376332446 117 123 135 
184.512047573653 -23.52188186805027 -333.8682593526587 181 177 178 
184.98349493427975 -23.9284050524671 -333.23329460385145 137 148 149 
186.22200945079354 -24.19227543339574 -328.4190217714754 117 135 142 
184.31047587323803 -23.336291687712205 -332.1917085986003 106 104 107 
181.88508862428677 -24.466596082769264 -329.3485006430745 46 56 65 
186.78281633092962 -25.335074103199922 -328.19343565196374 115 125 129 
186.0251493546419 -24.13999651006548 -329.332409043603 54 65 72 
186.63989152345692 -25.956605165319132 -330.6623140413085 166 173 184 
186.3769084546699 -24.091927305612305 -330.6509725081955 56 62 74 
185.35753204760962 -23.3783214909313 -331.82202863222614 108 112 115 
183.84089696407702 -24.81536421018656 -334.52192559349936 136 134 137 
184.97194985611938 -25.93906040271307 -332.9525004289498 142 140 153 
186.2644923295776 -24.018380866118406 -327.99091423443025 130 128 131 
181.58748770510743 -25.00146766635429 -329.5300311536339 60 70 89 
181.87455862072844 -24.013037811316718 -328.13608425008164 71 77 133 
181.58509124997104 -24.61671301044066 -329.39143644561096 80 91 91 
181.78461985203194 -24.443437145066444 -329.37273797371523 38 48 60 
181.69788288060417 -25.039584702293862 -329.5988743854803 57 69 80 
181.73214771508728 -24.88873968524576 -329.4835961095731 58 69 76 
181.74941608605567 -24.924728855072505 -329.4999310008745 94 106 107 
181.90292901670952 -23.562585254586388 -328.12995846850464 200 202 245 
182.02681988000595 -23.563472909994033 -328.17840679434335 199 202 246 
181.95090951744987 -23.56343136409393 -328.14926410481723 167 170 215 
181.4046774929946 -24.560566482959672 -329.38151576189716 71 83 84 
181.44799857760063 -24.668694152874206 -329.4134790573087 43 53 63 
181.298621096339 -24.72366258612312 -329.43729614625414 47 59 72 
181.39986952513854 -24.634896662615713 -329.4220013306793 43 52 69 
181.33891978991753 -24.31485671451959 -329.3133631850641 38 46 59 
181.87152741782577 -24.010800993588337 -328.1545033109655 71 77 133 
181.7386250148735 -24.422619113736115 -329.33376783802834 61 69 78 
181.71617073912725 -24.645183502589756 -329.33241042157874 47 58 62 
181.68711578532702 -24.41708943792029 -329.2911645864284 42 51 59 
181.35166483391998 -24.542564779462452 -329.4080847228917 38 47 62 
181.57514408999427 -25.038522201444184 -329.50963031540243 60 68 86 
181.6406201688968 -24.51411367217988 -329.3189428537265 43 53 58 
181.3610285599021 -24.73916778569647 -329.44659888549705 48 60 72 
181.51646186795594 -24.530150019926143 -329.3449772913366 72 85 92 
181.49494865594284 -24.60629205209516 -329.35475744027656 70 81 87 
181.5958479951654 -24.800145639267953 -329.4152299441953 85 98 104 
181.918818532745 -23.474690143403258 -328.1410728464357 204 209 238 
184.97584005494792 -23.738055176565602 -331.78209055397633 149 150 154 
186.6144282821375 -24.80016410201912 -330.5825676663157 52 59 69 
186.52996078375648 -26.032523973566963 -330.6299876871731 209 215 227 
186.4527172815905 -26.02871016041902 -330.61323213628486 193 199 211 
184.7464612831909 -23.719340526788752 -333.6300888602641 186 185 185 
185.67981040986513 -23.950617990710157 -330.2635438095255 95 94 102 
184.63522344939466 -24.56345878476659 -333.5075376603939 162 165 172 
181.8389320080785 -23.449812616001466 -328.1162508318311 66 63 154 
181.82518848217816 -23.632137803729865 -328.11493077342107 60 64 157 
184.89251350495758 -23.59816835609643 -331.4452593584182 48 52 55 
185.03784935606038 -23.42222461322834 -329.6072095157495 105 106 108 
186.17572890963064 -25.97150250817953 -330.51916975620884 97 105 117 
186.3176316764897 -26.01741274936374 -330.53214764930533 183 191 201 
185.93623497167195 -24.27443241998168 -328.807857159684 113 131 135 
181.58605212633674 -23.405509675546742 -327.90911587037783 89 83 83 
181.85811700811317 -23.988523073616616 -328.20793829142025 183 184 243 
185.1574491426675 -23.89551778132421 -328.6198960400589 57 57 59 
184.94258711395588 -23.40339725028275 -329.8555959085243 70 71 76 
181.3232908733571 -24.50165237067886 -329.4137885084772 68 78 92 
181.8998431485628 -23.625594136835208 -328.14709088647095 204 210 243 
186.5020302040869 -25.23539071182319 -328.3807275852042 129 140 135 
184.79923900982075 -24.06477603468492 -333.64078569465045 123 121 122 
181.9867442670712 -24.025144071432905 -328.1835189109275 208 212 253 
185.5574332826727 -24.340888061771487 -328.4452038393808 79 90 95 
189.1509347058088 -24.850479062604975 -331.30238590267 76 76 87 
185.25465986807922 -23.49788926426233 -328.12046456476736 84 87 96 
181.56277067924344 -23.419780978720347 -327.9981892722831 63 57 58 
181.472517078078 -23.425516284878064 -327.89810052157435 46 40 40 
181.81170871928887 -23.73560731683794 -328.13326396983734 68 65 154 
181.3627044005135 -23.39577486059032 -327.887190992957 75 70 64 
181.81607893404544 -24.039936390384323 -328.1655992375882 182 185 227 
182.14432490383095 -23.386403956985575 -328.21104451663905 238 235 241 
185.62284806054922 -24.281037378043077 -329.6263378338598 56 71 72 
181.95001031872567 -23.62423022229132 -328.17926217207867 220 225 254 
181.87368562962246 -23.6199869001801 -328.1590934178998 207 212 245 
181.3592622553682 -24.506993392050365 -329.41018087407167 53 62 79 
182.01515565108733 -23.91380964206844 -328.2101415465216 178 179 240 
181.98515025890828 -23.37713560087534 -327.9263461563026 158 155 166 
181.9952629278184 -24.042234850601176 -328.2083864047202 158 162 205 
182.00014196665822 -23.47341682467692 -328.16253959010646 184 181 224 
181.27977294698536 -23.318692366056023 -327.72859329188344 149 150 154 
181.8189595761639 -23.68838139063166 -328.14493906834923 196 200 240 
181.8177422209591 -23.69064021716659 -328.1177742646996 196 200 240 
182.02451862622655 -23.632586994882715 -328.17102565470805 205 205 249 
181.84335133383883 -23.764280452409448 -328.1283369711634 208 209 254 
181.91055890834704 -23.90912941373913 -328.1567768701908 194 193 247 
181.8454178235962 -23.692952104020343 -328.12541114321573 207 212 241 
181.87120186328204 -23.766214735866626 -328.1318837571349 211 218 252 
181.90070475871048 -23.626552681405656 -328.13732935182685 201 206 233 
181.86507347754824 -23.836565562820564 -328.1407201180395 209 212 252 
181.8748486451251 -23.557292157208586 -328.1245828310643 211 213 251 
182.0099955514456 -23.995918994571248 -328.1999589635094 166 168 232 
182.0100227964744 -23.99591126692687 -328.2003141580949 166 168 232 
181.96822638947395 -24.040408828621786 -328.18340755677133 80 83 140 
181.94322168586837 -23.47554061360019 -328.1440533588484 193 188 240 
181.9019451413573 -23.47569877108918 -328.1358103623036 188 186 238 
185.41307636058377 -24.235157823054298 -330.5400200419133 64 79 80 
187.13580743823476 -25.909797766937782 -330.83891122064597 180 189 196 
187.73384344475136 -25.9363622699906 -330.9742998634798 187 189 201 
184.35874042994465 -24.863288349757035 -334.12053121853313 181 181 183 
184.0898724362256 -25.31281821797034 -336.43523299407565 210 208 211 
188.11630428674343 -26.172875844934175 -331.11361166954424 180 186 198 
188.11630428674343 -26.172875844934175 -331.11361166954424 180 186 198 
188.4090997898414 -26.33381675182785 -331.14850670070507 95 96 101 
188.42917783125736 -26.08939321915383 -331.1632685448898 120 129 136 
181.92617482281298 -23.63062396258109 -328.12575657984894 200 207 236 
186.24668281002576 -25.93303480359509 -330.5467325676768 174 183 191 
181.84540396341686 -23.765402853926464 -328.11656919137215 197 206 247 
185.404005873189 -24.306190165758117 -330.01682837450727 86 94 97 
186.5616984287814 -25.216635421642128 -328.31156744004267 104 116 110 
186.89651011028647 -25.47803498743073 -328.5500264953595 95 107 102 
181.3635925335112 -24.69279093858981 -329.4474890106536 45 57 69 
184.79223450024088 -24.511705489286335 -333.5896943367943 143 147 156 
186.49402544547797 -26.08382203391492 -330.62741295778045 204 213 222 
181.49380775358145 -24.910024511554848 -329.42902859239365 56 67 74 
181.82776502655267 -23.987997933416676 -328.1247202329546 178 183 244 
185.01645839602637 -24.250718279209057 -331.3186424753024 102 108 109 
185.83455610331137 -23.954001934846964 -330.2328224141463 93 88 95 
181.35957905136777 -24.82596465825566 -329.49479807868073 42 54 75 
186.20125977360132 -25.767081225232584 -330.6940816950475 196 200 206 
181.7365353266473 -24.422633805952756 -329.3221083936362 61 70 79 
182.00103623375432 -23.472504289791342 -328.15624938501725 184 181 224 
181.65730701396217 -25.187741823081303 -329.5923522908358 102 112 113 
181.9641714494351 -23.583322391113903 -328.17170045013097 77 77 136 
181.94033488661083 -23.910309874151057 -328.1879994929018 212 215 253 
182.00603904721643 -23.567867507531677 -328.1608338361898 201 203 242 
185.4063469291914 -23.73277888222463 -329.96106682959964 148 151 143 
181.8486636713498 -24.009481950322208 -328.128431928228 74 76 136 
181.98341364448578 -24.050034470711147 -328.191043597708 196 199 248 
181.94257288020108 -24.046549758494738 -328.16968809830297 86 89 146 
185.09697518929678 -23.48649654114521 -329.3498380246226 47 50 54 
185.68580701508554 -23.857090591927992 -330.1689765197081 101 99 104 
185.7443009316294 -23.877870026482384 -330.1568597667218 188 186 191 
185.7933017679076 -23.490580046385933 -328.12564203149276 61 64 69 
184.44323508800463 -23.45173074128207 -331.89253286446115 55 57 62 
186.24600090148394 -24.217393153994227 -328.4552923719005 114 135 140 
188.48049314729212 -26.11819673991626 -331.15566225475857 188 196 202 
187.9570981402168 -25.62821467270668 -330.97752503796863 160 163 173 
185.5677889765849 -24.325801435179844 -328.77712203638794 67 81 82 
188.0054599997073 -25.510169000982167 -330.9293167293387 187 188 195 
186.58116507551242 -26.021369210507793 -330.61894617326027 174 182 194 
184.23488167575326 -23.33140453291046 -333.1379067962715 148 148 148 
185.82750630825404 -25.923540837451934 -330.2753997413295 112 118 128 
186.44538610330247 -26.052123346349568 -330.5913501859544 84 90 100 
