496.21462625074867 -47.94923796318059 -243.40035127415524 65 73 85 
504.3748494699893 -64.5983586106704 -249.36542124441655 190 194 201 
495.939798172833 -34.3773398337226 -180.84003162999727 72 74 86 
495.939798172833 -34.3773398337226 -180.84003162999727 72 74 86 
500.6778709869977 -37.90028811768375 -185.78803163062713 63 62 81 
488.3914273623569 -33.127165634992956 -189.4012561943195 40 43 53 
486.38093380364444 -32.79853079373679 -197.34381538700714 59 61 73 
486.31935089595316 -32.86434708346325 -197.13908510635633 59 61 73 
498.7293786272285 -40.31015849901964 -220.96937426044832 84 66 85 
501.30255768037773 -38.13230575192201 -184.80584931097195 235 241 113 
486.6703183670825 -33.01166224935767 -193.8484622058591 176 174 183 
500.7194143176975 -36.47570906458014 -185.65131433354838 63 60 58 
501.36724014463744 -37.27217588701802 -185.1577163611489 224 235 95 
489.41151366949407 -33.21840882577118 -187.12984192539926 169 169 178 
486.4303197364387 -36.106474984796456 -216.39812404581613 45 38 49 
501.8265716001645 -36.25475320629451 -185.29880576623083 215 217 213 
502.41590044616026 -36.484163831807 -181.8256993542048 63 65 73 
491.98201963228513 -33.688954111754114 -183.43915121763425 231 228 233 
491.9842520248651 -33.69018273211091 -183.43398887289942 231 228 233 
493.95972778033723 -33.049864365594715 -204.71567353777894 60 63 68 
498.1361790520155 -39.58728208515673 -189.7542790454545 238 238 232 
492.0130703830129 -33.93863975990271 -178.99507073022255 227 228 231 
502.7911408070147 -36.735283803886645 -183.93030257493598 215 213 210 
501.1217833543174 -37.70684731313911 -185.22901659627755 69 62 51 
499.70672070181234 -40.751788470938266 -216.47963854936518 127 125 136 
481.5099199747531 -32.49860631670517 -211.8028121982381 161 165 170 
489.02013437835456 -32.89621709864751 -188.95614194277323 100 101 103 
487.39119802185655 -33.12883198547962 -197.584980758798 226 229 236 
497.69637629792294 -41.43810700899141 -221.38808677410105 202 206 210 
492.2292545563391 -34.075306167936056 -179.4373195302806 73 74 75 
492.33547165122917 -33.98686944495306 -183.11523402299156 234 230 241 
492.33569750619773 -33.986796777294394 -183.11541039517766 234 230 241 
491.92028825585965 -33.95102092925733 -183.5806658720653 50 50 55 
491.9281198678006 -33.95593884615853 -183.5941169539924 50 50 55 
491.67856442728674 -33.71342708111758 -183.9823398553334 69 70 74 
484.11191539440534 -34.13277180548251 -214.18805701561763 216 215 145 
498.21096900465176 -39.621392060189166 -189.3832082686082 90 88 88 
486.57388090019504 -36.519145694503216 -216.4762748253455 164 170 105 
486.5420090050864 -36.53198034588605 -216.34675492405654 164 170 105 
482.6860632284656 -35.16376266693283 -212.7755055944831 205 206 210 
489.8642984139158 -33.94728243297264 -186.14764698212292 64 65 69 
498.38260202456377 -43.20840842342372 -223.50428380732154 58 72 78 
498.51594214471015 -44.94766547963327 -215.06223081355546 56 80 84 
501.2787448928417 -38.52283316135344 -185.1395821515572 207 205 137 
496.90403737757475 -45.3583598600174 -214.4027922369342 135 153 158 
488.88972508754364 -32.61140919302272 -189.4921426392155 101 102 106 
500.02893631373087 -40.709507557899926 -213.94553943116716 155 149 162 
504.50300964701785 -44.007325313215674 -196.77706192571966 132 141 143 
501.53541389214735 -37.6497058593193 -184.25692899073925 111 112 66 
488.6597321002923 -33.3882641179218 -193.06775692029225 206 203 179 
497.78865276113305 -45.324367858752865 -215.07621387937957 46 70 74 
498.4139245209316 -42.882557972463104 -223.62580594986468 114 123 130 
488.3544805641351 -33.327355851937824 -193.12082616106443 212 209 176 
499.6918697682303 -35.801830176178285 -196.6645082551814 98 98 89 
507.751466216112 -65.6000911484642 -249.83117181725305 154 158 170 
502.62842755076485 -41.1985082831102 -203.7428425188904 90 84 88 
498.8001288961653 -44.67808295644459 -214.88077278056335 48 73 77 
487.5584385711848 -33.32999747377751 -192.89897220843847 185 186 172 
487.2068569797977 -41.8246770174887 -248.7053527018428 58 62 69 
502.7452255721886 -40.958088378959594 -204.86595930520605 98 92 96 
494.2377572458437 -47.96273037401475 -244.5841342869411 222 220 221 
493.18826519323295 -43.75306602708032 -242.21904803846917 137 157 158 
500.9857895568545 -35.84964763879009 -185.9635996468154 212 215 123 
507.8396714121425 -57.928370026567215 -212.89887546279186 107 120 118 
491.862821340858 -41.56430511048562 -246.74767948142926 194 193 201 
491.8457032164246 -41.59874450869609 -246.7324944638188 194 193 201 
506.6022612694212 -57.98335999620425 -214.3862754446177 76 86 86 
494.02843990974856 -41.58042312220793 -243.4718397928434 219 218 219 
490.2708856779952 -41.53024594166419 -246.92106407937683 189 189 197 
490.3680486349824 -41.50762653467258 -247.18775129330174 189 189 197 
486.7174009390661 -41.3020749943985 -249.06769213625523 191 194 201 
486.6908167974466 -41.30301095472741 -248.94114886304243 191 194 201 
494.5053120978993 -62.28805077055034 -244.2314803187084 230 229 238 
495.1923638263343 -62.89711738844858 -244.33287195070812 127 131 147 
492.67623554386756 -41.45598662716671 -244.26639142871596 111 110 118 
507.1357234306886 -58.80197327254788 -214.38042491084695 121 128 133 
510.57119683756827 -64.94401454517755 -251.33269240298313 156 158 171 
501.1369056695901 -35.231676766918994 -184.8190853090191 186 190 199 
500.811579984977 -40.938866511594306 -211.05836881733518 136 130 134 
488.011096194184 -44.874869082041684 -247.22808839719573 136 150 153 
495.63380905773545 -52.23768595405581 -243.96340778943403 69 68 73 
495.58941571461247 -52.17199523018432 -243.80084086703874 69 68 73 
523.3172413321201 -58.048221610112876 -201.812957916002 137 142 149 
490.83682013634376 -42.228863133933324 -248.52484395330669 50 57 62 
504.6875907436357 -43.9634365699256 -196.51964882245477 86 96 98 
524.2561992918304 -61.05538155632541 -203.70041589313365 150 155 159 
495.2265154663861 -34.495950494289836 -180.91516860725875 238 241 247 
495.2839328969347 -34.474744402351675 -180.978771038056 238 241 247 
489.629193038622 -41.426083937927146 -247.52567822546615 91 91 99 
489.6327276413203 -41.41566779809576 -247.537467512205 91 91 99 
500.3664754023588 -62.25557768066376 -246.66300972811138 119 118 123 
501.7736154843657 -62.62818290844905 -246.54493622665893 221 223 231 
497.7663898533021 -52.47315888807677 -245.55081584850114 56 59 65 
502.77719267332867 -45.81668147430024 -195.80982787132285 65 69 76 
495.0273881942983 -61.85947450650881 -244.23243264193292 136 131 137 
492.36265625001346 -34.28130282302295 -179.30432354465285 239 240 240 
491.09913963270833 -42.502532137663266 -248.18429936911917 99 116 118 
516.8600977015194 -51.342148715876135 -222.55246302448086 66 66 68 
502.94104396371085 -41.01174794455514 -202.08619857015697 104 95 100 
471.6920952929175 -32.138825707872 -267.8131305351841 190 189 195 
496.14634795306705 -39.36823868073532 -225.84999025597227 218 217 225 
489.54551025897746 -35.70504261780207 -187.3139710407901 147 140 115 
492.89810825263214 -42.5339910294061 -242.91330780880236 108 119 124 
495.3425205183706 -38.81888747093296 -243.73235685071387 207 207 207 
495.2550665957101 -47.029152976330145 -244.2224637665213 229 227 233 
489.48101745117884 -35.19352637272027 -187.2136485611581 222 220 215 
503.09781613312026 -34.55492263181206 -182.2852815715413 189 192 203 
485.0493660422061 -47.87825724261144 -274.1805255605304 216 216 218 
485.1225856547115 -47.888992464260326 -274.6153280812519 216 216 218 
493.75374200025124 -34.36427558148714 -180.40880939572833 240 242 240 
491.0531672127484 -33.59586931772826 -179.0877486668332 65 65 75 
496.90164115031405 -40.752087010943676 -226.05125057171932 123 121 126 
498.92204573033973 -34.538339588766284 -189.24345841253222 238 237 244 
487.8039909228711 -33.108920607664786 -189.58211996092552 184 187 189 
494.0572214506678 -32.998441695550525 -204.88915615818928 59 62 67 
499.5563764575272 -45.7179481528025 -208.2888711036279 126 143 143 
487.4153788814826 -33.15139281674874 -197.65257799477035 233 236 241 
491.50779129560084 -34.099855635783584 -179.03382416516632 236 237 239 
494.5689345105967 -33.76151743276423 -190.17380922067656 236 236 244 
495.25809782539295 -34.678670838493765 -181.07341364027127 66 68 80 
489.8059633809436 -33.76559004863115 -186.6227972963772 214 215 222 
506.67370492539516 -61.65498559657587 -247.91332055054022 227 225 227 
489.0775920221711 -33.45063299114146 -187.61148009534213 52 51 65 
492.37096185540736 -33.39163171382906 -182.9826651598441 52 57 66 
481.46656147613214 -32.02644223413534 -211.95488410823538 53 53 57 
504.2587009005931 -64.8937579333923 -249.56427578787185 191 194 201 
477.6507315349595 -46.94650754517717 -299.60716740433435 195 196 201 
488.8754459670412 -33.03878337575 -189.2911588250858 142 148 133 
487.7283997929648 -32.1950991871972 -210.82658151516188 78 81 88 
497.9594208260792 -49.92902438758511 -242.34511829215535 70 83 99 
497.6158080681696 -40.293359764060064 -192.34699802491014 44 45 50 
498.96616426183147 -34.3686268731148 -188.6225092609729 224 223 229 
488.8059379720332 -33.30044564003529 -189.19712150213496 73 80 58 
496.121788173051 -39.37252562392626 -225.8196082494335 211 210 218 
489.1877312923819 -32.81495656842985 -188.23596443902045 153 153 163 
521.3160565938595 -54.3761107316967 -250.87379600048428 235 233 236 
481.71864652718915 -62.26643038234103 -283.7984363808809 116 116 125 
519.7900771199292 -41.88418183349327 -251.95315371229782 205 207 210 
517.4433212137546 -59.85371818166152 -204.87772394574048 128 139 135 
495.49858068312534 -41.582778241097394 -244.2033480703123 220 219 226 
480.6249725865904 -67.3811677475949 -287.1829945714677 161 165 176 
517.1734383127125 -66.09679422738364 -254.68163937383537 189 193 203 
521.8175967776119 -41.6119195652033 -251.6344573804572 200 205 211 
467.9028078044204 -30.089188811528658 -291.01113307870963 119 119 121 
521.209081401741 -41.9352015876514 -252.459918279762 115 117 122 
500.6729866499584 -40.867240451326914 -212.17090380673704 133 127 131 
500.7790679414758 -40.86045398021225 -212.3972587333517 133 127 131 
498.92793445738675 -45.41383539402087 -208.79286322889837 95 116 118 
496.2972432169857 -45.794216816366074 -214.24048547601336 90 99 104 
506.4733150394466 -64.20819268694599 -248.82748662305806 151 155 169 
521.2857934303685 -42.5200010230692 -251.01945073286663 203 209 221 
518.0388700794825 -53.47900996918141 -252.00056976694094 54 57 64 
496.2477860667075 -40.63904798015782 -229.20210052963893 122 121 125 
522.1835288343848 -52.779608194126105 -252.5920027368291 65 69 82 
483.6268706355944 -52.01302114736669 -276.44608303871075 88 88 90 
483.6258075710943 -52.01912518036369 -276.53252058855645 88 88 90 
493.30972183318477 -41.62020407270723 -243.45142456303336 121 120 127 
517.7683620743566 -63.10962795834527 -251.91599524617504 109 103 111 
468.4814569276392 -30.319380040745358 -290.0105024445778 179 179 181 
468.4871390311259 -30.31039003128241 -290.0459297205874 179 179 181 
493.5579034327354 -41.95341625102772 -243.11824814932356 196 196 203 
522.1098504620254 -41.9929431296789 -251.62257289904863 77 85 94 
522.1098504620254 -41.9929431296789 -251.62257289904863 77 85 94 
480.99993735401324 -31.76229899368004 -218.71283956790143 60 61 66 
497.2651959961064 -46.246541623669515 -194.14858008313524 161 168 174 
483.8604946853094 -49.087715065913464 -276.67568685690316 144 143 149 
468.11213091200574 -30.28759868605526 -290.6584848337455 122 122 124 
483.7777495177 -52.51091482837897 -278.2358586399965 215 215 217 
518.1127537655623 -50.9046973882255 -251.40281527325715 55 61 70 
497.49886994367046 -53.12850526272747 -245.7574705863869 206 203 207 
499.30943730252125 -43.36349895581289 -238.43840533234572 141 159 161 
495.5275460839542 -41.59061855307067 -244.25643255344835 219 219 222 
497.7858155426043 -45.21068211933392 -215.0242151160013 66 86 92 
496.7821129503715 -40.86971682096034 -227.26975955835633 84 84 89 
496.37419826499917 -40.52687159444592 -227.77352870822932 117 116 121 
500.39583696240464 -45.06204582153906 -208.0208682039185 117 135 135 
504.5681140624214 -44.01341242315453 -196.84192606834557 135 143 145 
496.53876814042724 -39.12274590668138 -225.56415874954786 74 73 81 
492.92364129417336 -42.56468495888903 -242.95316363532083 104 115 119 
495.9073539935798 -41.99065809167465 -244.45411934653532 201 207 212 
495.9267111268522 -41.9805209384238 -244.4747289746881 201 207 212 
484.3712045188121 -50.92965866846372 -276.453111273588 214 214 216 
497.5213936812279 -53.15393247258708 -245.8247622309596 204 202 206 
480.33845368529 -61.568231879448945 -290.03009158941876 105 104 114 
480.33845368529 -61.568231879448945 -290.03009158941876 105 104 114 
480.93900351321423 -62.82473370742824 -287.64235063770695 159 162 171 
500.07970471594365 -63.649118186701585 -247.32209855545136 109 114 118 
481.43900729120134 -31.7157152919381 -234.47941084985564 34 35 35 
500.0727787727102 -63.58890258367944 -247.29516526993774 108 115 118 
487.93444436832243 -41.39503975640688 -248.54454886815 194 197 204 
502.86757233602907 -43.543041869162714 -208.678500819212 111 130 129 
489.7389270513934 -43.90597862086624 -247.71581560829213 120 140 143 
500.88044225375836 -64.11491797949222 -247.46346829905485 195 198 203 
499.0668516230799 -64.20135525114513 -248.05268638503082 193 194 200 
495.66120194661477 -39.280518725224596 -225.44748741946108 207 206 214 
502.1527157650737 -43.35717780235753 -209.2205106273656 76 96 101 
495.52070063888976 -61.3018039628071 -244.1601592341392 224 222 227 
499.84173925159155 -64.27992008937395 -247.96778879070177 181 185 189 
487.5923037040007 -44.55081643863564 -248.13797626937225 66 81 84 
466.6945277686848 -53.376595620275936 -302.70335311055845 191 191 193 
503.35940230704074 -41.452780443517895 -200.61594874435607 138 131 142 
504.88981279938747 -43.66896183786578 -196.6192406896467 116 126 129 
494.91157702073815 -62.57476990099802 -244.18335387142366 128 130 136 
493.0500382879559 -42.84766653551557 -244.35191685219957 111 131 132 
492.3123646188384 -41.91509546076414 -246.91693454906556 164 167 174 
498.8517207207728 -45.82668811791183 -207.8901185206784 123 137 138 
492.45966801735256 -43.260477647420934 -242.74595795548555 63 81 83 
520.5090867267568 -40.815273824606564 -250.99088384249865 88 87 92 
483.8219528412125 -40.762240538135195 -279.65916070969564 191 192 200 
492.1056622653605 -33.779951824964904 -183.18636725526122 107 97 111 
478.0860096044972 -48.665444677389786 -295.15958563567546 104 107 114 
502.19939619261004 -41.18948925852448 -206.43566113256293 98 92 96 
472.04063708657156 -34.77861929032248 -291.04942915770005 127 124 125 
520.7020581463279 -42.39810922374142 -250.83717101740746 118 121 131 
477.4480999900211 -55.39935470081306 -291.0908053569567 220 220 222 
511.1773256002806 -64.65701358126032 -251.43594266611694 126 132 145 
506.00648246429563 -64.59452503884471 -249.63483783804725 116 126 136 
517.8377729439244 -50.292479586866996 -252.50134108165366 39 48 57 
512.3143886044896 -65.35600953430581 -250.59507554376518 178 180 191 
467.83714412768035 -30.07070880772218 -290.7390921476295 117 117 119 
501.82153514653555 -62.65684908804795 -246.66795884034696 224 225 232 
501.5567787703627 -45.30064053453182 -201.7028263762607 66 80 80 
506.34393114127687 -50.21376547955992 -248.43535944282257 32 45 61 
483.95959241658096 -51.7897933664438 -276.2593571544301 198 198 200 
498.7203599046985 -40.384533592825406 -218.83737137711807 134 129 140 
492.66856343328874 -43.020143969970285 -242.48720216355395 66 83 85 
521.4405841206936 -53.482313896433325 -251.35918009589642 55 55 64 
518.5772896229357 -51.482800286131194 -252.3427955066548 74 79 89 
482.207653949532 -32.41517507085422 -218.8121970965979 187 190 195 
502.85244974595537 -65.43322906531849 -248.56808574431756 194 199 202 
516.9414934145677 -64.73331854370723 -252.44728851353557 92 101 110 
482.97461739313945 -50.12888521774772 -280.18462780396806 143 147 156 
471.6193098649274 -48.81503606013776 -293.1716059681618 168 163 168 
496.00665808754155 -52.196163952510915 -244.48391874060212 60 68 76 
496.45389643280276 -45.412151164551844 -221.01723732142995 130 150 150 
489.34479421124416 -40.69100015145011 -245.64017913631307 75 77 84 
511.3976687238524 -60.624412390667786 -209.05435776909647 79 90 89 
471.45522137875713 -49.65779631399294 -295.37175468676026 112 107 111 
540.2229176692977 -52.450916275071386 -218.08704152047773 219 221 226 
482.64231378856897 -34.984696735233456 -238.8540309081962 116 119 126 
498.283576861696 -39.426448410713085 -220.82097796600272 180 180 184 
517.208666612288 -64.2497276637061 -252.4532062976432 83 86 96 
517.2596716059869 -64.24135951385519 -252.501239225709 83 86 96 
496.8901369197541 -52.90127256134099 -245.52115821274128 240 238 241 
480.5508598976767 -68.50081836052775 -286.2957207146378 90 94 105 
522.1037403433572 -42.465782923688984 -251.6457194396299 78 86 97 
489.63698363847266 -42.598700452505284 -249.39793557206775 48 68 67 
469.5799850341446 -49.411600819722935 -325.2409898242289 178 172 176 
487.4935636314609 -41.339974151945164 -248.97183104715197 73 76 83 
500.16222516218045 -63.25811090476101 -247.3081168127727 109 113 117 
475.41176937530366 -54.91158929486936 -303.7131036716826 216 216 218 
483.4787155525594 -41.45536833000524 -274.51964464576315 81 92 96 
464.231594390878 -29.515966048260054 -335.18300447819547 50 48 49 
477.29420160345023 -50.715551462286214 -274.0270311343606 178 179 184 
525.1600898292886 -55.49895093581506 -253.434636960913 210 208 211 
473.8583867372871 -34.502453479930914 -272.605987210392 157 157 160 
466.12506020187635 -53.83286290282238 -303.3591593005719 139 139 141 
466.88316564523603 -38.957801881273085 -336.8107776000918 195 190 192 
466.67126623826533 -53.90455791700274 -301.6963486993819 151 151 153 
492.9576653776939 -42.87245400090835 -242.07466351363826 138 155 157 
467.0383357604699 -45.612115832922 -336.08129746250006 210 204 206 
517.0358621130206 -62.64872304650714 -251.56005706971632 202 196 200 
434.4159042475929 -49.265984751502124 -231.9367885000749 95 106 100 
516.4456703890338 -63.53920312767869 -251.764025223492 235 232 241 
487.2267578012198 -41.03888189686055 -248.9321234499722 189 192 199 
502.41961948688026 -41.21234346546238 -204.34870755479068 97 89 94 
500.4868950787553 -40.964720976569694 -212.47022103599846 89 83 87 
493.67902403533907 -38.76177381499814 -224.9496848050552 220 220 222 
487.1430745608527 -32.974228181235134 -193.03197880509896 49 47 57 
485.7404719151473 -43.26656108576909 -254.79721057780608 114 135 136 
511.6865433679307 -60.908813381386295 -207.63181658605663 127 141 137 
498.6045543335683 -43.0716603303172 -223.0481295759571 111 121 128 
488.18666104413904 -41.36996056116769 -249.16070288799864 189 195 199 
482.86103542408136 -39.3771563833818 -270.6078346955949 107 107 117 
495.26341207855796 -38.27883748286073 -225.32797668641126 82 82 82 
498.4414948445619 -43.27589574620932 -239.09943760176645 108 129 134 
490.57841790149786 -44.36637706982953 -241.43109245956845 83 94 99 
497.78805971624445 -62.5000052401394 -245.73114376334615 223 224 231 
497.76053939805115 -62.51655882294159 -245.76585393560885 223 224 231 
500.92157302892207 -40.82475260921954 -208.99360384055535 92 81 89 
491.0476674351762 -32.71620998837053 -213.35522325169904 98 102 108 
510.52478072990357 -61.22205100919619 -210.6278671680136 103 114 110 
489.41962050576694 -42.28370871507877 -247.83251318513373 107 123 123 
488.6234379933695 -40.69373116582658 -249.70234907846077 75 74 79 
480.56391348082497 -31.407743875451125 -246.0711971507177 57 60 69 
481.23127271254344 -31.521181342187994 -234.47793998975044 59 62 69 
503.77235697281003 -41.258994312749664 -199.89830221434468 115 123 142 
502.2209323423124 -41.21395580029423 -204.0979311778816 90 84 88 
503.4067524703218 -41.01525799825199 -200.9932469101172 97 91 94 
490.0053614041707 -41.78719159030936 -247.23941726847528 170 179 184 
499.35000854127543 -63.22665671428619 -246.89886434385028 127 135 141 
492.1350741332055 -35.06703716424144 -193.72290649369327 237 237 170 
482.445116287118 -32.59867079696862 -219.24813332633806 54 57 62 
519.8837871997949 -63.321017169662625 -250.66815823029674 228 227 230 
496.11000865950825 -42.18200382766529 -244.04055128035964 46 60 64 
493.956868509387 -56.43829242807675 -244.0530275013203 207 205 206 
482.05214278420726 -63.052804122253846 -280.7754445674789 223 222 227 
500.12437759510857 -43.93616533669286 -215.5588512262915 47 69 74 
495.9648037169448 -41.23836165341638 -244.53896015778213 206 204 217 
472.0465006581264 -34.80839586648083 -290.5667459740113 127 124 125 
478.84273514013415 -72.7538095369477 -290.23933442464664 126 124 134 
494.9235415801475 -63.076192557568774 -244.28108958835867 127 128 132 
467.4201293484726 -53.96145608730622 -299.01360127719926 175 175 177 
492.5409204782249 -43.32729036615768 -242.15724830347835 126 145 145 
482.1244893176758 -36.864957917792324 -267.54195373773473 149 150 154 
466.6062925976878 -29.928782052288668 -299.8297455547896 141 139 140 
517.0891974396287 -62.442930352475045 -251.95120226031503 218 215 223 
507.3653356844587 -63.02921709914125 -249.02850583543818 217 216 229 
505.8885065991715 -62.43944640667783 -248.07636097223929 119 117 128 
520.7525775931524 -62.96711568610263 -251.25722883470337 106 107 109 
521.6091291996457 -63.50463391345397 -251.97792603801747 218 223 226 
481.5125142839996 -69.3069956066102 -281.92194398728606 126 129 138 
506.091072908823 -63.470373964033456 -248.88479751977178 135 140 153 
471.6013601298298 -32.869973413469666 -290.9288942592312 177 175 176 
481.7981441301203 -32.61900615867445 -218.93419958452353 174 177 181 
481.78679066928186 -32.6231901410607 -218.89741957948695 174 177 181 
524.7387255801526 -71.33425499890606 -255.35432169244018 196 205 212 
481.94268516065455 -33.00305705240462 -236.63128665921846 79 82 87 
496.6145272601742 -35.74708352929893 -206.35970073718784 65 59 63 
495.25263448618125 -62.9137961419967 -244.38179567711938 131 131 135 
509.86654931045484 -61.26540803646073 -211.81965619934448 139 149 147 
488.31390686736086 -44.22275592451099 -248.02844040336055 61 79 79 
504.71878648644207 -58.62386218909799 -213.39580146182902 104 116 110 
494.64141818326345 -65.98725319344263 -243.94655716595054 191 189 192 
497.188790901507 -42.86665440323024 -230.01933740763792 116 128 137 
493.9569344133823 -56.43837041594749 -244.05338335468502 207 205 206 
487.9585272071925 -32.80417771454089 -193.08815922228393 143 143 141 
496.89513088531396 -41.1428213251597 -225.71582922979337 81 83 88 
521.2869404072189 -63.48934831624899 -251.8142478974438 211 214 221 
467.2565717515286 -53.76693478255457 -300.68995519385345 167 165 168 
451.8242899856046 -25.653015261982272 -406.23129976802943 42 40 56 
505.83210706254926 -61.94542161375011 -249.10219366204268 231 229 232 
500.3975418834132 -43.3139326663243 -216.0137763614755 112 137 140 
518.1420218014125 -51.90591084245955 -251.20075577613676 175 176 185 
472.04291966732734 -47.953685409699794 -311.26941629239985 121 115 116 
525.1359852546825 -71.61391493244122 -254.73803440612517 59 65 74 
491.9827061525872 -43.97795085447857 -241.25438967119447 143 163 162 
526.3441095922824 -71.17188535252208 -254.80374636437233 173 180 188 
525.0005030644888 -71.44558360683041 -255.7166267012252 196 205 212 
483.5839091753513 -44.097475992015596 -261.13403699754014 72 84 84 
520.8564708005495 -62.999533849461244 -251.464046322061 106 107 109 
467.6442465519332 -39.19836028952044 -334.1327865417673 184 182 183 
482.371869946221 -37.56757802145469 -286.5005253421439 72 76 85 
469.873138661459 -30.315214060467582 -289.8238516034047 107 105 106 
490.217835024776 -43.564571895653046 -241.90850815071536 128 154 151 
498.23894230146124 -45.75502828981514 -207.70150574543396 61 70 72 
498.7703214574738 -62.50685719465844 -245.83119152274026 216 217 227 
502.31462309154546 -43.78772595207416 -196.0267545928288 67 80 82 
480.5594344142601 -62.106672365893345 -289.5281993905201 144 147 156 
499.94881983742295 -45.14831292036012 -208.21067322482577 53 71 75 
495.92459671097055 -44.56644991551812 -221.4713695892528 120 131 134 
496.94723583125625 -39.37152476333171 -223.44436241393805 200 199 205 
446.908187170516 -29.284302119868375 -404.62589403296727 123 125 140 
489.6893252780587 -46.20451316103494 -212.04188906692713 71 77 83 
468.8751266065157 -30.893349919476005 -288.9276303564278 122 120 122 
478.961952611914 -41.373021854127465 -293.67423650316084 133 131 136 
517.6705686036894 -61.96371541437435 -251.52725365506308 201 195 199 
499.0202202689381 -45.57080128689784 -208.09557748590294 47 60 66 
439.419406250959 -34.00050495754809 -396.3182492185559 42 44 65 
495.2804164172094 -42.806182684078834 -238.98458805354636 114 134 140 
436.4347284638943 -32.78267825433447 -400.1878200658207 68 70 82 
496.3335300015754 -41.03289853414484 -227.60906473292692 81 81 89 
468.99646059208186 -31.505976546983447 -288.4229930200506 173 167 167 
480.03260244491 -68.82054500187625 -289.9540603164302 91 94 103 
495.8751969603429 -47.01210398589956 -243.8590021431001 74 77 88 
472.27754774957765 -32.79812333862352 -290.8960263018074 109 107 108 
437.7181830422746 -71.21786294443527 -363.76659536112203 192 193 198 
498.37251090682713 -53.70237485069454 -246.12142933555282 204 203 206 
498.4288398802867 -53.74471525044249 -246.21530982742132 204 203 206 
469.97270346690016 -49.648585870295975 -324.9885732503722 109 101 103 
476.740295980686 -34.3087427837637 -302.5398152988934 116 115 115 
509.6125615838779 -61.29474294933009 -216.23421725098746 107 116 122 
516.0255219746684 -70.95976489292468 -253.6113567282967 188 197 206 
499.37921655563184 -67.4479669519669 -247.8689350416069 220 221 230 
520.4284776675795 -52.0457477845203 -250.413202188502 210 213 220 
520.6182964661085 -71.02162456344857 -251.6044998114595 76 77 86 
520.5567315860947 -70.99513587373829 -251.51391465637926 76 77 86 
488.6316455578715 -39.22850000497631 -200.269958581166 54 52 57 
476.7111629734827 -48.04782715736454 -301.59650283006755 192 191 196 
483.2078848698985 -31.87369572328592 -213.3934103830086 123 127 136 
517.97365661818 -53.06449073717678 -251.25215813234445 174 173 173 
477.4843786203871 -50.535528462000656 -273.3640335308432 192 193 197 
511.48547855754606 -70.46385755483156 -250.39677864138218 181 190 199 
501.8285714882237 -40.837104227673116 -205.9727486475706 91 85 89 
492.1780012008254 -45.21663467579465 -221.64600355521566 75 78 83 
488.9746291587213 -41.574639773729196 -247.48799952176103 186 191 197 
488.67228232705986 -44.19890518056959 -248.83059795153127 64 79 80 
488.24769660383316 -39.72550248615267 -200.6643822344356 55 56 61 
485.26975963175335 -39.36457669823688 -219.73339511331818 38 36 41 
487.3807744482041 -41.35625729689304 -248.7289658525358 72 77 83 
435.1575157677945 -49.78917699337732 -232.1380917373902 53 63 64 
436.2185336983714 -48.488645573365574 -232.04854344929447 96 106 103 
434.9127209542835 -49.36594708826159 -232.27597791768454 94 105 101 
440.9906058590516 -30.381739256788116 -217.63619920100592 75 73 74 
438.45084515132874 -30.64728883259631 -213.77759824547752 125 127 131 
478.9545006569371 -41.373952032251836 -293.5580122896461 133 131 136 
481.90461207222785 -62.6866499881483 -281.32562803486667 118 117 125 
545.8717878965039 -43.68121595308876 -258.0710224277321 202 206 213 
480.1876680637984 -60.64022479502357 -289.6418833492626 206 208 216 
474.95903501972305 -54.500399644326414 -303.1796412292876 166 164 167 
496.84566191383414 -39.33534424571335 -225.52644690899058 219 217 223 
521.1480285172693 -64.08650342863089 -251.7239201785436 121 126 129 
496.60036789777615 -42.30120985837901 -236.38147948243903 48 66 73 
531.2321103321615 -72.88733388510346 -256.46103864636655 100 109 116 
531.4398240677078 -72.9633029625265 -256.71336598138856 100 109 116 
477.21837522596076 -49.9758480960537 -274.62744115245926 178 178 184 
520.7901021254867 -61.807746243786845 -251.0191176573909 226 225 223 
505.87679975956274 -58.502623014062706 -213.99734660895842 112 123 118 
463.18569587691974 -29.746395877334997 -333.08198286886153 177 177 177 
509.3877279556187 -57.80027084602001 -249.95147670050164 237 235 238 
470.3924306068084 -33.27570991403691 -291.226672207323 188 184 185 
509.94329743091293 -61.59614431032645 -214.88438470798837 76 85 92 
482.5594485325743 -48.29944054201702 -281.1900638959647 73 80 86 
464.8340814155823 -53.46288919243111 -308.6495422004845 132 130 133 
509.55502333109285 -62.46631860637748 -213.92940271012378 104 115 107 
477.5593856192279 -48.84297783933266 -294.268124604412 194 200 203 
472.7010861425922 -33.96751930941034 -268.9257257891543 68 64 66 
491.88650955997394 -38.768838024903395 -192.92980733452808 121 124 100 
501.84088848388706 -40.828435060263864 -206.00592856988317 86 84 87 
471.5915306097942 -32.537006665364665 -290.056270218215 115 113 114 
487.89610407721744 -39.21442969385482 -218.98980354370758 218 216 221 
481.2753734958916 -32.005772255140954 -218.89939749202898 57 59 71 
482.91790337176883 -32.25951687367318 -213.12819036766746 139 141 153 
489.5945804202142 -35.8463218175322 -200.92680373711187 60 60 63 
492.2364261269453 -36.0420426342206 -193.6839083852651 227 231 162 
489.62690623018113 -35.30206651416251 -200.9199914570715 246 248 251 
437.3210278167351 -49.36134501919855 -234.8654193221072 47 57 62 
485.6020125859866 -39.25522656846298 -219.47481207405082 59 57 62 
437.9871102800775 -31.697111902670464 -214.47681859033196 67 63 157 
438.057219622812 -34.43438099207146 -214.63025132085107 69 67 152 
433.0261610137032 -48.18699246722756 -231.27528663645404 42 51 66 
445.94196513695755 -30.246062166777854 -214.77063905111487 246 246 246 
433.6700485067817 -46.81733285761232 -232.26082333754886 38 48 60 
436.78537924064665 -30.19947338868748 -210.51945701147753 160 159 167 
431.48055367777386 -47.82728815249048 -231.07189826527764 44 54 62 
436.898618832244 -40.50779268236366 -214.49457233942098 170 180 215 
438.3921040362339 -35.15386641859122 -214.8342934445647 222 223 249 
437.0775185330567 -31.7186626808563 -214.11739543155437 190 186 235 
437.0722239304555 -31.71455295098234 -214.16226898371332 190 186 235 
435.8159130161869 -48.10205845162227 -232.6536297053973 60 69 73 
429.5352666859915 -48.12706797135368 -231.641472403445 73 85 83 
436.4769879548072 -33.41491216354547 -214.2214949500413 74 75 137 
435.89541235091997 -34.1296933413149 -213.64793941047049 200 207 236 
434.263751036815 -35.06678923913327 -213.30702718431667 187 194 235 
434.2430797448249 -35.05605809927385 -213.46582700681967 187 194 235 
437.4260429729978 -34.17135639901883 -214.46143157533174 203 208 240 
435.51259414471025 -34.08885764023644 -213.71173501527426 204 208 237 
435.14802662975177 -33.00242876530536 -213.51731831948075 200 202 250 
435.1356803609739 -33.00668293550784 -213.63103979281652 200 202 250 
434.66553161140206 -35.09897633420258 -213.6062471906542 194 199 238 
434.63679828041325 -36.19827989442946 -213.5213612318671 197 206 247 
434.6251000393078 -36.19558046009163 -213.6490744545705 197 206 247 
436.697097831253 -33.11252505484202 -214.1805799243558 221 224 248 
437.1125506338247 -33.1792021448496 -214.1311573665659 184 186 233 
435.0268624434589 -36.21997002559957 -213.74082095806085 195 206 246 
436.0694768578645 -38.45572168187898 -214.24365857132227 186 193 243 
435.6423657749573 -38.423544146555564 -214.0790340830966 190 198 246 
434.95326849425595 -37.31076331059084 -213.80579462830593 203 212 252 
437.1502422369084 -39.785027063106185 -214.68286425616685 170 175 240 
437.15474044090485 -39.78337540053165 -214.6663413807289 170 175 240 
436.5318847625096 -40.46454779977358 -214.20234393035213 78 84 141 
435.57334370934325 -31.77264934962991 -213.7060652880512 184 187 228 
434.8802724930937 -34.90195844606635 -213.35917370039908 82 82 140 
436.2070518109034 -31.76703858295298 -213.91513403998601 202 206 245 
434.55063470936153 -39.510691867843946 -213.2341955760823 90 95 157 
435.552984901732 -33.07607858346588 -213.77371148403267 210 213 251 
487.5366483196229 -32.18673162017737 -212.41311471237583 109 112 121 
500.0120268313624 -40.719005125293 -213.92396774591327 152 144 158 
544.842805462787 -43.60301290377389 -258.2575150432209 176 178 187 
494.3872232946361 -40.781202246288856 -233.9201371730859 80 81 92 
470.9778930914846 -32.24779196066177 -290.3062662979436 124 122 123 
544.6360283749398 -42.97530039849177 -259.1362937099725 67 66 73 
506.4446610792408 -62.20897604010243 -248.42547705484077 202 199 206 
496.3272356213207 -51.55981557165632 -243.58692123613145 73 79 91 
530.6236804577527 -72.98057795326235 -256.8442623356929 181 190 196 
520.872092601216 -64.01018600701309 -251.37633546163005 121 126 129 
509.6030510689226 -61.24404263806254 -216.2048163708473 114 123 128 
496.4081777744363 -45.40454574988767 -214.26588743306075 134 145 151 
523.1907260104778 -63.222363033120644 -252.85244497018482 112 111 123 
525.0901670607183 -63.7117181267803 -253.15153524640795 207 207 220 
521.5118981480612 -51.56293998894285 -251.32189015352293 74 85 97 
516.4528831470968 -72.56501385532673 -254.65744066447292 172 178 198 
517.334484640512 -64.15529907580252 -252.49071394482894 106 104 116 
487.2098887134034 -41.04299952962978 -248.9400194187703 172 173 181 
471.4896008584183 -47.960534583749265 -291.40431000070225 104 100 109 
496.2161282814749 -41.279711010820336 -224.6797872828434 83 89 97 
505.6120596646124 -70.19328752031598 -249.5059730859386 126 136 146 
480.7928913245263 -72.11318404446578 -282.99829895924586 72 71 91 
480.7928913245263 -72.11318404446578 -282.99829895924586 72 71 91 
483.1377974801374 -39.255994319614935 -274.7223025980494 103 103 106 
444.1444482227214 -31.026587718092856 -215.0051565202843 237 237 237 
475.0429621502198 -33.93479755402811 -298.4425545679244 181 177 178 
472.41951184377297 -30.658723635015363 -275.1006550186899 106 104 107 
435.2409952432375 -47.20198198677421 -232.5076196080127 46 56 65 
509.22108870881897 -60.66021649703147 -213.05450042517685 115 125 129 
497.42361254366097 -42.66716764639592 -229.54902864079048 54 65 72 
506.4128202491256 -70.15825378646956 -249.23406742065765 166 173 184 
488.0399020246173 -31.467245859233444 -268.4649870029906 108 112 115 
501.1154655713137 -40.633394803313486 -209.64213022225135 130 128 131 
430.62021903740464 -49.44403972008421 -232.4425633690434 80 91 91 
432.2605411977937 -55.965433210561756 -235.6391691613075 57 69 80 
432.80562029968274 -53.65293781214404 -233.89354510070353 58 69 76 
433.07350239380304 -54.20669595925573 -234.08689654699003 94 106 107 
435.0623602936565 -40.01554872744183 -213.6731456192208 71 77 133 
435.54093616145076 -33.071795114254044 -213.7699889294015 200 202 245 
437.47401215049774 -33.12915246975413 -214.46150144054639 199 202 246 
436.53226344939054 -40.01087833744983 -214.30829537384187 78 86 134 
436.27412281453246 -34.106250540133196 -213.9910716822519 216 223 248 
436.3132837834952 -33.115398997059756 -213.9642545801459 167 170 215 
435.2887760047887 -39.71937807481962 -213.97890478537278 191 199 244 
435.66366947771405 -39.697968456978785 -213.79930839366227 179 187 234 
486.1311692923927 -33.88406837635608 -227.38181772209867 52 55 60 
482.7571399828856 -46.29798765153014 -281.2502090193729 56 56 65 
483.3029212514013 -41.79653821315613 -279.35262616897575 177 189 191 
434.57208536267416 -31.355674433000228 -213.41201545273077 66 63 154 
434.34193150605773 -34.12704743102762 -213.47638113917776 60 64 157 
434.1481650100419 -35.76279660889713 -213.41529240302276 70 70 157 
435.10010843013305 -34.01678120746306 -213.76081088281916 203 210 242 
435.8037519476324 -36.22629074215395 -213.85683657004517 200 204 247 
435.67291732990054 -38.43831883761567 -213.82286412191002 195 198 245 
436.78391877998746 -40.223784906296586 -214.3055332586277 208 212 253 
434.62952688851766 -39.94037396777598 -213.70392777992606 74 76 136 
436.76036015056457 -40.61890717687767 -214.42121208437004 196 199 248 
435.8397585222743 -31.760349531175674 -213.7390742346975 204 209 238 
434.3674745153464 -39.64040233654409 -213.47601471236584 178 183 244 
436.0849559355953 -40.53936083655842 -214.19580043757833 86 89 146 
481.33042636794 -31.859922162600125 -234.43827286402365 40 42 46 
548.2835839306043 -43.20227049765069 -258.0397352928827 79 83 88 
521.7171466272287 -63.5592914254704 -252.24389571279687 215 220 223 
468.74030881658 -49.734925519540624 -313.9868167795098 93 87 87 
427.83524769339414 -48.564865579868375 -232.33697026417116 71 83 84 
546.2268966362047 -42.935852263473194 -257.7741169597047 202 199 205 
548.8511604100484 -43.839375897147804 -258.07158931669454 62 76 78 
516.4424251991177 -72.06833690638346 -253.3535475748492 124 131 141 
482.06840841628326 -40.143597055639084 -288.72283226878614 133 143 146 
477.43679221156737 -49.9456723767951 -273.5873587419603 88 97 100 
521.0569246046407 -61.81614007898304 -251.29034241253044 229 227 228 
435.05114532249604 -40.006542243396055 -213.72953914466729 71 77 133 
473.40946534532225 -30.694390307755572 -270.48286057114535 53 54 59 
492.99196257939747 -42.14893721111433 -243.3968843868364 54 60 66 
510.7378100469065 -70.86638888089323 -252.020300492326 161 167 179 
481.870266017251 -70.36895243328361 -285.16592500769406 142 140 153 
430.5731914170935 -55.37288399180137 -234.6035056706965 60 70 89 
482.62942540458124 -37.3213484312919 -272.8609695668095 166 167 171 
479.6641135140148 -72.42791443227291 -290.1645880283753 74 78 89 
480.54961833816964 -70.57604892770014 -287.63614108987656 139 144 156 
480.47897956848675 -34.730741578142485 -260.88992289354377 48 52 55 
475.4657909502861 -34.26447518934488 -275.6414015121802 72 75 82 
467.51855636007986 -30.71718423481301 -312.55335976474163 174 170 171 
435.88164833486115 -34.12922662800988 -213.70546367248653 200 207 236 
500.3609176773885 -69.70412251331322 -247.25564093920548 174 183 191 
435.37227061854435 -37.33286360012315 -213.86401026093301 201 211 246 
430.280067027688 -48.00649535836515 -231.48908935269935 79 88 94 
505.791306091595 -71.24342581064647 -248.9484069698542 182 188 200 
503.29222132723265 -71.42880649852631 -248.89621421733335 97 105 115 
505.0453163801873 -71.41909955793838 -249.239262529187 209 215 227 
479.1401499118921 -42.067396230741124 -294.4081228086411 121 122 127 
503.7724408644461 -71.31847357072704 -248.793731085636 193 199 211 
486.90559052951244 -41.56898152535702 -248.80813430560943 178 185 191 
428.48693628615104 -50.23372160241362 -232.80896091442645 43 53 63 
426.7348924165529 -44.80864046332073 -232.0077238722282 38 46 59 
432.58185564935945 -49.89346691449609 -231.71597111616433 47 58 62 
430.4140034009447 -55.906879144174496 -234.05443177365635 60 68 86 
427.1840991109852 -51.306489266478295 -233.20088886051144 48 60 72 
429.15787387164966 -49.314458435087516 -232.40737281062252 70 81 87 
426.5829108251982 -47.6617788389653 -232.89077212730945 68 78 92 
429.07398457220864 -54.031839994264885 -233.58206872159434 56 67 74 
484.8190347952611 -38.73898277883235 -219.65257359339722 57 57 59 
430.7419691045851 -52.26194201047396 -232.73610557536801 85 98 104 
438.60596989534434 -48.73185686440583 -237.66965343012538 48 55 61 
430.358390629014 -30.862745945282306 -211.43430222546647 63 57 58 
428.9769822572571 -30.920847268913686 -209.87890940769154 46 40 40 
434.14659593951234 -35.76224354617944 -213.37403524402555 68 65 154 
434.17129542513123 -40.43530847044792 -213.670687275729 182 185 227 
427.2813106429345 -30.444785771695777 -209.7818796680997 75 70 64 
435.51220391827746 -34.08323355247285 -213.75588903854185 196 203 231 
439.3016802584915 -30.47877846543342 -214.52533485346027 238 235 241 
437.2200346071188 -38.54032775386638 -214.62703431349456 178 179 240 
439.1440181926188 -30.728971283441428 -169.24662721338368 152 152 152 
545.2542317152859 -43.54292625197658 -257.4428764979518 221 223 229 
533.2741558824598 -74.18375322290998 -257.21078852184604 80 84 96 
532.3641243993736 -72.97314448314339 -256.89551808715635 213 219 231 
534.2111685199613 -75.73137839903765 -257.2183276485991 186 187 202 
534.2118154321608 -75.78000196133672 -257.23480518654225 186 187 202 
533.658545203998 -75.40937169573458 -257.43133545203324 100 104 117 
531.8152895564068 -72.07954424081639 -256.03524677031805 108 114 126 
492.48906099085065 -32.9735400728138 -214.26451255528724 117 119 131 
468.12621610841916 -48.60297861824482 -322.6635246528384 206 202 203 
531.3863171491147 -76.30553551119758 -256.9065140416233 98 97 114 
532.5176855250795 -75.61707602054102 -257.19294247499494 183 188 203 
495.50681074582866 -42.83517884005102 -223.0138630879236 100 111 117 
468.42448355215623 -61.23500025401294 -337.2159533633344 210 208 211 
514.3638334146162 -69.80589570376571 -252.63528026307358 180 189 196 
511.0738301792315 -70.86140206615487 -251.23164156692997 123 129 141 
429.878252625912 -49.01771888472835 -231.91383674981847 46 55 63 
435.6896626562376 -40.46521746525562 -214.04622788865328 192 203 234 
547.1488818332097 -42.526769350228186 -257.9625433184824 230 226 228 
486.02114707572395 -32.27135636434429 -234.7503249361037 47 50 54 
492.6394560109505 -39.952704237485676 -244.33761004915772 95 94 102 
498.48673828410426 -68.45727531253505 -248.52515909862115 221 221 229 
426.1883832323888 -51.06220747068988 -233.18366507227609 47 59 72 
427.7869729974359 -49.670996154694286 -232.75054378085343 43 52 69 
483.18827502850036 -31.70641302264241 -234.92935231747163 105 106 108 
430.066998146104 -51.849285767073795 -232.47412976682546 44 57 64 
499.6528980042567 -70.42078197232361 -247.41395320380042 97 105 117 
496.35541877746294 -44.58890249234729 -222.14871566147718 113 131 135 
484.81396233941894 -38.734967930958 -219.65347544755633 57 57 59 
481.52190131418985 -31.507903187366466 -238.14182355660688 70 71 76 
427.1604119221454 -47.74010958853086 -232.69026102543313 53 62 79 
484.14571279760355 -43.51787877639376 -269.6379798328623 118 142 142 
491.7016228310176 -45.55491277220819 -218.31299125391308 79 90 95 
493.4701089863673 -42.51281863401661 -242.24526459819987 128 143 148 
486.4593460259024 -32.61890424668984 -212.3714086414301 84 87 96 
427.0181175308214 -48.352466995312845 -233.13930339431357 35 44 59 
425.9821799258281 -29.20020518574872 -207.55108541868455 149 150 154 
423.77047730449175 -29.290438771964737 -204.66377759407362 115 115 115 
542.6219823420067 -43.49264879964722 -257.07304729205543 70 75 81 
484.41369236305366 -43.85647552488866 -261.1138848931587 73 93 94 
532.0450002140881 -73.66490641928044 -256.75090585714537 162 168 180 
500.62129658795953 -43.70257043484855 -216.3123757772609 114 135 140 
479.10330743468694 -49.174902499337804 -292.5572258668164 108 115 126 
529.5947797217748 -74.04380998294411 -257.3961307877434 180 186 198 
529.1750296122208 -73.8658141412474 -256.8848502113321 180 186 198 
522.1727271771592 -65.72226027186719 -252.70997264703448 184 189 195 
533.2198147168335 -76.21781843259126 -256.87403928751536 95 96 101 
532.2385696137999 -72.12304369793176 -255.45503176629143 120 129 136 
534.6299383135315 -73.04197510997989 -257.4068422176324 188 196 202 
472.47784526995315 -54.090760385361826 -301.76250257114805 181 181 183 
488.4436317073461 -45.177428601788655 -240.59356731424145 86 94 97 
500.7809849600753 -41.0775508196168 -211.22869186764973 128 126 129 
478.62817130476407 -36.959425336347536 -295.6092995805439 186 185 185 
483.5148804851277 -39.79095892476887 -277.6155930333176 84 74 87 
510.9717540297514 -62.92964719710826 -218.3379595455608 95 107 102 
491.785197715942 -44.835310451101414 -234.7849582857342 67 81 82 
504.3910431585008 -72.17565111370664 -248.9489185600438 204 213 222 
490.9834195748292 -44.21006860394686 -241.11320869369416 136 150 151 
482.6108579875878 -44.49492941860979 -260.30594643782393 102 108 109 
427.1589141500189 -52.56446111607838 -233.37465907369182 42 54 75 
481.0024686837984 -32.36326482034488 -212.01355431350925 151 154 159 
499.39394365068244 -67.07521091567911 -248.79947655327283 196 200 206 
431.6107008664807 -58.28779249484589 -235.66404102481363 102 112 113 
442.41274282749384 -30.57137792604064 -218.69630959392026 87 87 87 
522.7779890281085 -63.61009567420932 -252.68722632037662 169 174 180 
530.5997625583915 -71.63921860103486 -256.57208888839915 168 179 186 
501.13165384084334 -43.34378084804249 -216.0420672776915 49 67 74 
543.1764471937238 -53.9055136064105 -257.87083252854825 76 76 87 
488.66278200002427 -36.51941231020241 -240.07975502649396 148 151 143 
504.5097542164434 -59.01785309152528 -215.26850624534643 129 140 135 
505.29437960232167 -58.925423376238385 -215.83286439446243 104 115 108 
495.56590655353693 -40.566165426238996 -230.06747477130415 89 89 99 
491.4857056205303 -38.51710924404462 -240.64892552395577 101 99 104 
493.7640104107695 -38.78153895056567 -243.00218962239376 188 186 191 
502.5245647783996 -71.44347798820814 -248.8340619515776 182 190 200 
492.44582565048637 -32.86947245857441 -209.64657322713518 61 64 69 
470.51018743113303 -31.022589848047744 -285.9973250135315 148 148 148 
474.24894824741125 -32.48576261815644 -269.7726380382045 55 57 62 
494.78550463182114 -38.163269514196365 -241.02191831903735 208 208 208 
478.6012373600558 -48.686138238844535 -292.3530212890658 143 149 155 
526.9329127829583 -65.54470153169991 -254.90856647811216 160 163 173 
490.31524054430923 -45.276204540151085 -220.977880518613 67 81 82 
526.982299491506 -63.69971122959792 -253.30497490696894 187 188 195 
505.8590114608232 -71.3285161644923 -249.140211838702 174 182 194 
516.662328760074 -51.07172300855064 -222.33476435522618 217 217 223 
476.72871998463165 -50.59068361663338 -275.3531898498784 163 164 169 
494.8194537494994 -69.86109162773661 -244.50952319900472 112 118 128 
429.7805459248833 -57.45940495166563 -234.4746770770891 87 96 103 
503.85907403357754 -71.76637175703138 -248.74559396314186 84 90 100 
467.5964177595849 -30.57675594469947 -293.7788325006846 165 161 162 
547.6495497475162 -43.59676280951639 -258.3617598207375 222 222 236 
518.8503109581734 -53.916669120281135 -224.92763378203222 237 236 242 
520.2347967822047 -75.29312804021674 -251.6292322507798 234 233 238 
513.150927707625 -55.992632531010116 -227.9864754828235 77 82 88 
517.2213667445328 -51.455912280848345 -222.5501071829438 82 81 86 
500.40958112296136 -43.334765338375014 -216.01927093168422 116 135 141 
519.9404437085448 -75.20469237115623 -251.24681066687447 234 233 238 
537.8071353543523 -72.35544653269869 -258.59439309414876 98 107 115 
536.9916133877892 -71.89622860885876 -258.6423206460111 193 202 211 
498.34821176813387 -44.86181884313965 -215.36584174713965 113 130 136 
493.871487545407 -35.97630785402522 -214.84838090417497 69 73 75 
517.0772618874801 -53.91845525437469 -223.90367667602737 233 234 240 
483.6513923444189 -39.41737103660379 -269.71818506603483 99 99 107 
517.5214037068934 -53.10537696727041 -251.87047781288862 63 60 69 
506.2166692955682 -62.901819986912 -248.22501576960002 219 220 233 
585.1685761692008 -44.3247530882033 -268.8635629819207 205 201 215 
600.6751918012063 -46.70273937510527 -276.8982609484597 73 75 88 
