-3.384519338607788 1.978609323501587 5.655716419219971 255 255 255
-5.086848735809326 1.2641648054122925 2.3008058071136475 255 255 255
-9.898707389831543 1.9457956552505493 14.99813461303711 255 255 255
-5.314464569091797 1.3467134237289429 1.5480451583862305 255 255 255
-9.631804466247559 1.6602346897125244 14.7987060546875 255 255 255
-13.927003860473633 -13.461575508117676 -13.191121101379395 255 255 255
-15.657872200012207 -17.320785522460938 15.857468605041504 255 255 255
-6.169053554534912 -8.452441215515137 0.07316803932189941 255 255 255
-15.735654830932617 -17.812255859375 -14.24930477142334 255 255 255
-1.5584639310836792 2.002912998199463 9.076576232910156 255 255 255
-6.123534202575684 0.4195815622806549 10.496481895446777 255 255 255
-2.956822633743286 1.3281266689300537 -1.2164002656936646 255 255 255
-15.437260627746582 -1.4313327074050903 3.3592913150787354 255 255 255
-14.68065357208252 -12.156270027160645 -1.5336275100708008 255 255 255
-2.325942277908325 -4.402065753936768 -5.216287612915039 255 255 255
-10.099534034729004 -16.10577964782715 6.562990665435791 255 255 255
-14.997200012207031 -20.30145263671875 5.34660005569458 255 255 255
-8.596790313720703 -2.219210386276245 0.4743483066558838 255 255 255
-18.090991973876953 -0.9742739796638489 4.444678783416748 255 255 255
-4.535449981689453 0.4800560772418976 -7.931959629058838 255 255 255
-15.194457054138184 -2.9050514698028564 -0.7047932147979736 255 255 255
-21.0914363861084 -15.28130054473877 17.64482879638672 255 255 255
-17.566328048706055 -16.703310012817383 19.86810302734375 255 255 255
-16.541372299194336 -14.055841445922852 8.717065811157227 255 255 255
-22.184879302978516 -19.6351318359375 24.098114013671875 255 255 255
-14.244974136352539 -11.165197372436523 3.5758883953094482 255 255 255
-15.848339080810547 -19.38201904296875 -5.527530670166016 255 255 255
-7.772856712341309 -9.144149780273438 -2.0414626598358154 255 255 255
5.329995155334473 -0.818389356136322 0.06441181898117065 255 255 255
5.591433525085449 0.7873868346214294 -0.2605375051498413 255 255 255
-4.623924732208252 -6.371610164642334 -9.531251907348633 255 255 255
-9.099153518676758 -9.830323219299316 -0.6991491317749023 255 255 255
3.05314040184021 1.0749741792678833 -0.875341534614563 255 255 255
0.11379294097423553 1.720504879951477 6.647815227508545 255 255 255
-7.7741379737854 0.17763660848140717 -9.305923461914062 255 255 255
-16.38429832458496 -4.528984546661377 -2.898831367492676 255 255 255
-6.329377174377441 0.6489856839179993 -8.646475791931152 255 255 255
-4.197262287139893 0.01905040442943573 -4.789168834686279 255 255 255
-16.4115047454834 -14.084660530090332 8.652076721191406 255 255 255
-3.794813632965088 -4.439700126647949 -5.242124557495117 255 255 255
-3.0464649200439453 -4.153082847595215 -1.533340334892273 255 255 255
-4.00385856628418 1.1768231391906738 -0.7186169624328613 255 255 255
-4.717581272125244 0.7552993893623352 1.1229788064956665 255 255 255
-4.372898101806641 0.8652544021606445 -3.2138195037841797 255 255 255
-6.078871726989746 -0.791549563407898 -3.330688714981079 255 255 255
-12.88709545135498 -2.0949275493621826 3.927023410797119 255 255 255
-14.553878784179688 -1.865280032157898 -13.481727600097656 255 255 255
-8.274629592895508 1.311496615409851 3.634580612182617 255 255 255
-11.251538276672363 -2.919609546661377 -0.09370901435613632 255 255 255
-14.071857452392578 -3.9247591495513916 -0.22704020142555237 255 255 255
-14.337498664855957 -0.9944012761116028 -0.3123222291469574 255 255 255
-5.2355546951293945 0.5307025909423828 -8.132962226867676 255 255 255
-4.16185998916626 1.3137385845184326 -3.965456008911133 255 255 255
-17.856706619262695 -5.060142517089844 -12.612852096557617 255 255 255
-1.5462863445281982 -3.4250576496124268 -6.403140544891357 255 255 255
-14.99074649810791 -3.5679924488067627 2.451618194580078 255 255 255
-6.342079162597656 -0.23926563560962677 2.6239495277404785 255 255 255
-12.6884183883667 2.94974684715271 8.957913398742676 255 255 255
-4.995190620422363 1.1832711696624756 1.5036506652832031 255 255 255
-14.015713691711426 -2.0661730766296387 3.797610282897949 255 255 255
1.5193703174591064 2.1555559635162354 11.481048583984375 255 255 255
2.811037063598633 1.6661213636398315 5.89370584487915 255 255 255
2.564810037612915 -0.8625900745391846 5.703030109405518 255 255 255
2.521808624267578 -0.8515380024909973 5.620364665985107 255 255 255
-7.478253364562988 1.9543260335922241 13.219714164733887 255 255 255
2.388763189315796 -0.4362803101539612 5.387387275695801 255 255 255
-7.30157995223999 2.19582200050354 15.67014217376709 255 255 255
-8.138925552368164 -2.014493227005005 19.870738983154297 255 255 255
2.6144721508026123 -0.4930928945541382 5.856335639953613 255 255 255
2.7265713214874268 0.7109367847442627 6.076059341430664 255 255 255
1.3593056201934814 2.106260061264038 11.505752563476562 255 255 255
2.444658041000366 0.8466836214065552 7.227790832519531 255 255 255
2.3239197731018066 1.8312959671020508 6.482053279876709 255 255 255
2.584409713745117 -0.49201178550720215 6.7721848487854 255 255 255
0.07826404273509979 2.6251437664031982 19.848533630371094 255 255 255
2.6353824138641357 -0.8890151977539062 5.843255996704102 255 255 255
2.179638385772705 -0.2729592025279999 6.633666515350342 255 255 255
2.519763946533203 -0.5744140148162842 6.288487911224365 255 255 255
-2.5915751457214355 -0.9662676453590393 59.424110412597656 255 255 255
1.8724708557128906 1.489322304725647 14.286591529846191 255 255 255
-5.375828742980957 3.411025285720825 47.07394790649414 255 255 255
-5.621647834777832 2.4568421840667725 14.592663764953613 255 255 255
2.5774357318878174 -0.4638906419277191 5.733036518096924 255 255 255
-6.028234958648682 2.73030424118042 19.30071449279785 255 255 255
2.469001054763794 -0.33772537112236023 7.13621711730957 255 255 255
0.3981011211872101 2.8340513706207275 17.338909149169922 255 255 255
1.4131242036819458 1.2943918704986572 15.886590003967285 255 255 255
2.4152867794036865 -0.027422327548265457 6.813093662261963 255 255 255
0.4746306836605072 0.5661337375640869 28.96868133544922 255 255 255
-6.424554824829102 3.707059621810913 25.474346160888672 255 255 255
-0.421713650226593 2.169612169265747 8.235600471496582 255 255 255
-6.987078666687012 3.720582962036133 30.021095275878906 255 255 255
0.2822825312614441 2.575117349624634 17.69037437438965 255 255 255
1.7957665920257568 1.3232284784317017 12.810935020446777 255 255 255
1.6294323205947876 -0.18324992060661316 12.130873680114746 255 255 255
-17.57445526123047 -5.354859828948975 60.462646484375 255 255 255
-3.375134229660034 -0.3179422616958618 14.60813045501709 255 255 255
-6.4601521492004395 -4.906561851501465 61.85151290893555 255 255 255
0.5521773099899292 -0.041057977825403214 4.466894149780273 255 255 255
-6.344452857971191 2.2964675426483154 12.855927467346191 255 255 255
-6.146608829498291 2.7249224185943604 18.950769424438477 255 255 255
-9.211895942687988 2.3197717666625977 15.753150939941406 255 255 255
0.5154557228088379 -6.2330708503723145 33.51388931274414 255 255 255
2.4563519954681396 1.7101563215255737 7.117921829223633 255 255 255
-5.532987594604492 2.487596035003662 12.762510299682617 255 255 255
1.9629175662994385 -0.24096934497356415 6.030263900756836 255 255 255
2.454932451248169 -0.4691586494445801 6.4825005531311035 255 255 255
2.687117338180542 0.014851348474621773 8.016268730163574 255 255 255
3.24613881111145 1.0328413248062134 8.76246166229248 255 255 255
2.700355052947998 0.7443373799324036 7.19453763961792 255 255 255
2.5980987548828125 1.3276108503341675 5.561535358428955 255 255 255
2.9811863899230957 0.7438270449638367 6.411649703979492 255 255 255
2.490875244140625 -0.4828011691570282 6.6135382652282715 255 255 255
2.4027202129364014 -0.09135059267282486 8.826467514038086 255 255 255
2.2911689281463623 1.9407352209091187 7.995713233947754 255 255 255
2.5924787521362305 -0.05762675032019615 7.236066818237305 255 255 255
1.4383541345596313 0.7206110954284668 6.415689945220947 255 255 255
-3.907836675643921 0.5571413040161133 56.46746063232422 255 255 255
-5.804120063781738 2.074979543685913 16.159143447875977 255 255 255
2.0912318229675293 1.1158000230789185 10.295538902282715 255 255 255
-6.842088222503662 -0.09992727637290955 19.998655319213867 255 255 255
-6.858587741851807 -0.08401946723461151 20.13666534423828 255 255 255
3.2581827640533447 3.050989866256714 22.29404640197754 255 255 255
-5.961076736450195 2.720635414123535 14.539846420288086 255 255 255
1.2097480297088623 2.1089091300964355 9.282264709472656 255 255 255
-6.085771083831787 1.9149452447891235 15.908149719238281 255 255 255
2.2331364154815674 1.6728092432022095 16.04172706604004 255 255 255
2.1672110557556152 -0.5040473937988281 8.508264541625977 255 255 255
1.8632138967514038 0.797701895236969 10.333391189575195 255 255 255
-2.507103204727173 -1.380453109741211 61.47076416015625 255 255 255
-18.987375259399414 -6.080159664154053 49.2490348815918 255 255 255
-14.040129661560059 -11.838777542114258 53.137535095214844 255 255 255
2.3918421268463135 -0.32953551411628723 8.011459350585938 255 255 255
1.2465523481369019 2.575669765472412 16.503829956054688 255 255 255
2.2588119506835938 1.8127267360687256 8.362065315246582 255 255 255
2.233156442642212 -0.5955637693405151 8.677738189697266 255 255 255
2.3996589183807373 -0.21140147745609283 7.226191520690918 255 255 255
0.8809133768081665 0.07751984149217606 5.168650150299072 255 255 255
-10.259099960327148 -2.0702948570251465 59.40205383300781 255 255 255
1.7109806537628174 1.281398057937622 12.418071746826172 255 255 255
1.8894480466842651 0.7771211266517639 13.290997505187988 255 255 255
1.9206587076187134 2.428938150405884 15.282249450683594 255 255 255
1.8110665082931519 2.236407518386841 17.313566207885742 255 255 255
2.3270153999328613 0.4141976237297058 9.270990371704102 255 255 255
2.6291580200195312 -0.44947972893714905 5.812859058380127 255 255 255
0.7557199001312256 3.244924306869507 17.34738540649414 255 255 255
2.1983020305633545 1.0849095582962036 8.692423820495605 255 255 255
2.3730642795562744 1.7985719442367554 9.282288551330566 255 255 255
-17.710947036743164 6.257032871246338 53.47633361816406 255 255 255
-32.99911880493164 2.6161348819732666 58.61427307128906 255 255 255
-7.020081520080566 1.9169813394546509 14.413928031921387 255 255 255
2.111982583999634 1.123665452003479 10.278818130493164 255 255 255
1.5962129831314087 1.6288260221481323 12.364643096923828 255 255 255
1.7242776155471802 1.9980382919311523 12.194191932678223 255 255 255
2.5401012897491455 -0.578750491142273 6.308987617492676 255 255 255
-5.080758571624756 2.748077869415283 14.702079772949219 255 255 255
2.229454278945923 1.9026983976364136 7.861616134643555 255 255 255
2.1775600910186768 -0.17312709987163544 9.09116268157959 255 255 255
-7.595340728759766 3.990570068359375 32.12529373168945 255 255 255
2.689746618270874 -0.17568935453891754 5.951656341552734 255 255 255
0.2211594432592392 2.0424556732177734 19.17794418334961 255 255 255
2.191558837890625 0.39292052388191223 8.77605152130127 255 255 255
1.8928604125976562 1.9880653619766235 8.527091979980469 255 255 255
2.5088188648223877 0.8103089332580566 7.036524295806885 255 255 255
2.205535650253296 1.0549390316009521 8.704047203063965 255 255 255
2.248225688934326 1.0737756490707397 8.83690357208252 255 255 255
2.2413253784179688 1.0896623134613037 8.832079887390137 255 255 255
1.531704068183899 1.2139381170272827 24.18995475769043 255 255 255
-5.459380626678467 2.411677122116089 11.88116455078125 255 255 255
0.6171598434448242 -10.229745864868164 40.96957778930664 255 255 255
0.9614402055740356 2.346046209335327 11.98373794555664 255 255 255
-21.713985443115234 -10.819291114807129 54.920928955078125 255 255 255
1.64399254322052 1.6846100091934204 14.388057708740234 255 255 255
-7.023590087890625 0.0431252121925354 16.672441482543945 255 255 255
0.9649824500083923 2.704922914505005 17.894689559936523 255 255 255
-9.57486629486084 2.577277183532715 32.10895919799805 255 255 255
-6.124871253967285 2.934481382369995 20.838916778564453 255 255 255
2.01948881149292 1.093281626701355 10.08786678314209 255 255 255
0.5897985696792603 -6.802844524383545 34.88387680053711 255 255 255
-7.086964130401611 1.9336696863174438 14.52158260345459 255 255 255
1.8883850574493408 0.06569698452949524 8.479991912841797 255 255 255
-6.0934929847717285 1.9145084619522095 15.926373481750488 255 255 255
1.0295835733413696 2.3512167930603027 11.738166809082031 255 255 255
-5.582505702972412 2.4688403606414795 12.269307136535645 255 255 255
-2.5381929874420166 -2.325423002243042 8.984880447387695 255 255 255
2.056411027908325 1.752573013305664 7.321154594421387 255 255 255
0.17807072401046753 -9.176116943359375 34.45733642578125 255 255 255
2.5347087383270264 0.8235949873924255 7.094057559967041 255 255 255
3.626526117324829 -1.2287324666976929 7.679813385009766 255 255 255
4.66221284866333 1.550182580947876 11.842707633972168 255 255 255
-9.085349082946777 2.152040481567383 15.85037612915039 255 255 255
-15.817602157592773 -5.051616191864014 60.906982421875 255 255 255
2.478961706161499 -0.005296281073242426 7.0092010498046875 255 255 255
2.3690249919891357 1.8565703630447388 7.712652683258057 255 255 255
2.543553113937378 -0.4865916669368744 6.676793098449707 255 255 255
2.283766031265259 -0.6121688485145569 8.891916275024414 255 255 255
2.239600419998169 -0.6027331948280334 8.806442260742188 255 255 255
-23.407665252685547 6.242763996124268 47.731597900390625 255 255 255
-32.220218658447266 6.317934989929199 47.796165466308594 255 255 255
-36.175899505615234 4.567426681518555 47.85650634765625 255 255 255
-35.63114547729492 5.438971996307373 47.134246826171875 255 255 255
-33.27993392944336 3.219606637954712 58.78601837158203 255 255 255
-30.299795150756836 0.41753095388412476 54.88754653930664 255 255 255
-32.943782806396484 3.790008783340454 58.68874740600586 255 255 255
-30.57685089111328 7.115288734436035 56.98817825317383 255 255 255
-33.262001037597656 3.2012598514556885 58.74565505981445 255 255 255
-8.381007194519043 5.809568881988525 50.38200759887695 255 255 255
-31.292089462280273 2.7189886569976807 60.0217399597168 255 255 255
-30.5737361907959 6.632733345031738 50.77775192260742 255 255 255
-19.609416961669922 6.370884418487549 54.47965621948242 255 255 255
-27.16550636291504 -3.431774139404297 43.9254264831543 255 255 255
-24.20587158203125 -15.249533653259277 59.6229133605957 255 255 255
-15.516302108764648 -12.131543159484863 53.6826057434082 255 255 255
-21.638505935668945 -11.620046615600586 43.66078567504883 255 255 255
-34.184112548828125 3.3084073066711426 58.97058868408203 255 255 255
-35.23643112182617 5.913721561431885 47.95775604248047 255 255 255
0.6152275204658508 2.8228719234466553 18.93990707397461 255 255 255
-1.1289515495300293 3.4948737621307373 27.88787269592285 255 255 255
-5.476065158843994 2.413628101348877 11.96173095703125 255 255 255
-8.33082103729248 0.8587360382080078 30.487590789794922 255 255 255
-0.6097526550292969 2.5831644535064697 26.342845916748047 255 255 255
0.9232280850410461 0.3551015257835388 11.321714401245117 255 255 255
-6.111355781555176 2.7386929988861084 24.672534942626953 255 255 255
-23.20067596435547 -10.812389373779297 54.62232208251953 255 255 255
1.4135067462921143 1.2908023595809937 15.854049682617188 255 255 255
-20.528615951538086 -12.545355796813965 46.63652038574219 255 255 255
-35.97067642211914 -0.8999760746955872 49.14118576049805 255 255 255
-23.603052139282227 6.698782444000244 61.14813995361328 255 255 255
2.4380249977111816 -0.6830291152000427 9.215959548950195 255 255 255
-8.002632141113281 0.6900635361671448 21.62119483947754 255 255 255
-9.880355834960938 1.4160704612731934 20.022804260253906 255 255 255
-15.868661880493164 -9.984125137329102 56.55414581298828 255 255 255
1.8232104778289795 2.017357110977173 9.653352737426758 255 255 255
0.8065589666366577 1.7759029865264893 20.70159149169922 255 255 255
1.68906569480896 -0.257935494184494 12.313645362854004 255 255 255
-19.249080657958984 -9.723560333251953 54.56828308105469 255 255 255
-5.322922706604004 2.94868803024292 16.683937072753906 255 255 255
2.4447433948516846 1.7017205953598022 7.042301654815674 255 255 255
2.339390277862549 1.010552167892456 6.929995059967041 255 255 255
2.4565846920013428 0.6701866388320923 6.532907009124756 255 255 255
3.2095837593078613 -1.0812698602676392 6.841160297393799 255 255 255
1.1616289615631104 2.5418074131011963 13.69797420501709 255 255 255
-0.6156908869743347 1.0375685691833496 42.60560607910156 255 255 255
1.73918616771698 2.130758762359619 11.714117050170898 255 255 255
-5.789175987243652 2.5764851570129395 12.718609809875488 255 255 255
-6.531035900115967 2.421520948410034 15.992156028747559 255 255 255
1.7750898599624634 1.7235170602798462 17.387609481811523 255 255 255
-17.711454391479492 -9.44312858581543 55.331565856933594 255 255 255
-6.274404525756836 2.8127803802490234 21.87928581237793 255 255 255
2.3825948238372803 1.86203932762146 7.719392776489258 255 255 255
2.4234580993652344 -0.33058205246925354 7.064426898956299 255 255 255
-3.9611546993255615 -2.0691757202148438 11.471113204956055 255 255 255
-3.0370664596557617 2.192641496658325 9.813817977905273 255 255 255
1.4102466106414795 1.8108912706375122 14.344978332519531 255 255 255
2.287299633026123 0.41378292441368103 9.104629516601562 255 255 255
2.242304563522339 1.788570523262024 8.252527236938477 255 255 255
2.0752346515655518 1.9733186960220337 8.641249656677246 255 255 255
2.231489658355713 0.4030900299549103 8.904272079467773 255 255 255
2.5044164657592773 0.8821139335632324 6.491002559661865 255 255 255
2.0466790199279785 1.3706159591674805 8.294873237609863 255 255 255
2.052675247192383 0.7879080772399902 10.330148696899414 255 255 255
2.302274227142334 -0.2557266652584076 8.66985034942627 255 255 255
1.6549593210220337 1.4381723403930664 13.978094100952148 255 255 255
-12.285545349121094 -5.212131977081299 60.327266693115234 255 255 255
2.2976059913635254 1.9745291471481323 8.092188835144043 255 255 255
-16.723114013671875 -6.653162956237793 49.91596221923828 255 255 255
-0.5863857269287109 2.363687753677368 23.673114776611328 255 255 255
-19.644195556640625 -14.998350143432617 60.5789794921875 255 255 255
1.2927016019821167 0.10084599256515503 16.22783851623535 255 255 255
-23.071809768676758 -7.170536518096924 54.22980499267578 255 255 255
-6.764840602874756 -0.07209725677967072 19.889423370361328 255 255 255
0.5259349346160889 2.5121779441833496 13.833395957946777 255 255 255
1.2401485443115234 0.2833233177661896 21.8787784576416 255 255 255
-19.06496238708496 -5.819206237792969 51.45036315917969 255 255 255
-0.16301636397838593 3.355350971221924 24.046993255615234 255 255 255
3.792853355407715 3.985827684402466 14.562074661254883 255 255 255
-7.625152111053467 2.038846731185913 15.001653671264648 255 255 255
1.996753454208374 1.9063526391983032 7.9193034172058105 255 255 255
-10.17799186706543 0.6433397531509399 18.901418685913086 255 255 255
-5.947607040405273 1.8685415983200073 15.575355529785156 255 255 255
2.477334976196289 -0.32446372509002686 7.002354145050049 255 255 255
-30.40731430053711 0.163992777466774 58.128273010253906 255 255 255
2.2205426692962646 1.9137353897094727 7.847984790802002 255 255 255
-11.901301383972168 -5.059597969055176 58.752315521240234 255 255 255
-14.005256652832031 -9.880223274230957 60.676055908203125 255 255 255
2.469883441925049 -0.236843541264534 7.123817443847656 255 255 255
-6.918848514556885 1.1299874782562256 16.409109115600586 255 255 255
2.9534847736358643 2.8187448978424072 11.54831600189209 255 255 255
2.4176676273345947 0.829277515411377 7.14408016204834 255 255 255
-12.613119125366211 -4.014564037322998 49.1334228515625 255 255 255
-3.2123889923095703 2.349882125854492 10.505339622497559 255 255 255
2.4430909156799316 1.7004731893539429 7.045337677001953 255 255 255
2.383802652359009 1.037407636642456 7.027914524078369 255 255 255
-13.061705589294434 -9.325724601745605 52.19015884399414 255 255 255
-5.481686592102051 2.8392245769500732 13.974865913391113 255 255 255
-2.699302911758423 -2.5471818447113037 11.162691116333008 255 255 255
2.360081911087036 0.8067412972450256 7.044521808624268 255 255 255
-5.685062408447266 3.0307629108428955 16.978532791137695 255 255 255
2.5367326736450195 2.3664565086364746 17.443328857421875 255 255 255
-2.180449962615967 0.08668883889913559 58.7103271484375 255 255 255
-5.049708843231201 2.741777181625366 14.25052261352539 255 255 255
-27.75954818725586 2.448239326477051 56.604312896728516 255 255 255
-22.89501953125 6.599149227142334 52.212242126464844 255 255 255
-37.26871871948242 -0.5441356301307678 47.576866149902344 255 255 255
-35.11603546142578 4.843386173248291 46.044349670410156 255 255 255
-0.7267313003540039 2.9723007678985596 26.837242126464844 255 255 255
-10.111235618591309 1.392138957977295 20.73785972595215 255 255 255
-6.349247455596924 2.357727527618408 15.607134819030762 255 255 255
2.21944522857666 1.0261884927749634 8.725263595581055 255 255 255
2.185080051422119 2.238647699356079 10.334193229675293 255 255 255
2.250269889831543 -0.36465728282928467 8.091710090637207 255 255 255
-12.244452476501465 -9.22584056854248 39.447147369384766 255 255 255
1.438105583190918 1.9746218919754028 15.387198448181152 255 255 255
-15.597615242004395 5.057819366455078 57.65522766113281 255 255 255
-36.758689880371094 2.551926374435425 47.1935920715332 255 255 255
-32.0223388671875 2.3821887969970703 59.159000396728516 255 255 255
-28.75245475769043 4.025865077972412 55.35997009277344 255 255 255
-25.754959106445312 6.955835342407227 54.94519805908203 255 255 255
-31.044902801513672 7.056501865386963 53.82298278808594 255 255 255
-33.54212951660156 6.915051460266113 58.38775634765625 255 255 255
-40.60881042480469 5.727114677429199 46.111366271972656 255 255 255
-38.95510482788086 -1.9935922622680664 49.53642272949219 255 255 255
-42.41063690185547 3.5474390983581543 46.441280364990234 255 255 255
4.869009494781494 0.5963387489318848 23.469837188720703 255 255 255
-23.091064453125 -3.8607654571533203 40.651798248291016 255 255 255
2.1680753231048584 0.7567181587219238 17.742136001586914 255 255 255
1.2822332382202148 1.064281702041626 15.802559852600098 255 255 255
0.9645401239395142 0.43654918670654297 11.054012298583984 255 255 255
-5.8805952072143555 2.055506706237793 16.267105102539062 255 255 255
1.884818434715271 -0.38690298795700073 10.459052085876465 255 255 255
-0.7418516874313354 1.9093161821365356 42.658050537109375 255 255 255
-1.9851330518722534 4.69325065612793 38.597904205322266 255 255 255
-0.26050493121147156 2.890899896621704 43.38165283203125 255 255 255
-13.346752166748047 -9.918569564819336 56.95371627807617 255 255 255
-16.100379943847656 -6.311514377593994 59.4392204284668 255 255 255
-21.381816864013672 -4.734477996826172 59.56163024902344 255 255 255
2.29856276512146 -0.03200197219848633 9.240642547607422 255 255 255
-7.439660549163818 3.06797194480896 34.492713928222656 255 255 255
2.1015965938568115 -0.05814870446920395 8.696616172790527 255 255 255
2.4265358448028564 -0.30051976442337036 7.348634719848633 255 255 255
-6.147784233093262 2.1273245811462402 16.872005462646484 255 255 255
-5.636263370513916 2.6437950134277344 14.887194633483887 255 255 255
-5.459219455718994 2.3578951358795166 10.693639755249023 255 255 255
-5.8653459548950195 2.5591511726379395 15.190232276916504 255 255 255
1.7472132444381714 -0.17455913126468658 12.60926342010498 255 255 255
-22.765953063964844 -10.94760799407959 58.63763427734375 255 255 255
-22.48094367980957 -11.278234481811523 56.46111297607422 255 255 255
1.8315128087997437 1.4028427600860596 9.787651062011719 255 255 255
-8.025833129882812 0.735717236995697 21.66136360168457 255 255 255
-38.370277404785156 0.6900659203529358 46.98955154418945 255 255 255
2.3852617740631104 0.7863720655441284 6.769949913024902 255 255 255
2.511942148208618 0.22997646033763885 7.431466579437256 255 255 255
-1.014310598373413 -7.309785842895508 44.26046371459961 255 255 255
1.2142045497894287 0.2422507256269455 13.470612525939941 255 255 255
1.068350911140442 1.5703262090682983 16.127668380737305 255 255 255
3.855510711669922 3.3267314434051514 23.92574119567871 255 255 255
1.507728934288025 -0.0666486844420433 14.23110580444336 255 255 255
1.8953936100006104 -0.43030253052711487 10.49409294128418 255 255 255
-0.3236731290817261 3.128051280975342 22.6953182220459 255 255 255
-14.6866455078125 5.934877395629883 58.866188049316406 255 255 255
2.0138843059539795 5.509267330169678 25.77068519592285 255 255 255
2.959639549255371 2.9489083290100098 13.024542808532715 255 255 255
0.8621163368225098 2.5933539867401123 17.374622344970703 255 255 255
-0.8314651846885681 -4.902440071105957 43.61635208129883 255 255 255
1.436981439590454 2.430671453475952 14.625264167785645 255 255 255
-26.74074935913086 -1.8433732986450195 55.177955627441406 255 255 255
-39.76323699951172 0.7076279520988464 47.594661712646484 255 255 255
-38.56999969482422 0.08410369604825974 50.50434112548828 255 255 255
-33.55052947998047 1.9603701829910278 47.208553314208984 255 255 255
-2.5462002754211426 5.066770553588867 47.882476806640625 255 255 255
-2.25364089012146 1.1035945415496826 61.07293701171875 255 255 255
-2.855854034423828 -1.254517674446106 58.425960540771484 255 255 255
-19.87130355834961 -2.6900315284729004 36.51078414916992 255 255 255
-26.865142822265625 -4.517691135406494 44.710960388183594 255 255 255
-22.737579345703125 -8.412845611572266 41.836551666259766 255 255 255
-22.715015411376953 -10.346372604370117 52.80392837524414 255 255 255
0.7623363137245178 2.4136831760406494 11.760986328125 255 255 255
-19.438232421875 -7.8998799324035645 57.35791778564453 255 255 255
-15.245773315429688 -3.193746566772461 58.23965835571289 255 255 255
2.458132266998291 2.1672558784484863 13.75450325012207 255 255 255
-8.736894607543945 0.49216267466545105 17.805421829223633 255 255 255
1.3132444620132446 2.51947021484375 15.879131317138672 255 255 255
-5.522759437561035 3.136873960494995 19.555234909057617 255 255 255
1.7086013555526733 -0.27420520782470703 12.39752197265625 255 255 255
-0.20857420563697815 3.508419990539551 24.74788475036621 255 255 255
1.716699481010437 -0.24169424176216125 12.398741722106934 255 255 255
-20.808605194091797 -10.912779808044434 45.527191162109375 255 255 255
-29.079998016357422 -18.19591522216797 60.924713134765625 255 255 255
-2.7089269161224365 2.882361650466919 20.538555145263672 255 255 255
0.42310720682144165 -9.001635551452637 32.754600524902344 255 255 255
-5.717984676361084 2.583812713623047 13.408117294311523 255 255 255
3.0155649185180664 -0.5233308672904968 10.199365615844727 255 255 255
-18.961036682128906 -5.702239036560059 49.72752380371094 255 255 255
-0.7805547714233398 -5.859418869018555 44.22807312011719 255 255 255
-1.1136164665222168 3.5096864700317383 28.102375030517578 255 255 255
-17.22528076171875 5.954610824584961 46.40022659301758 255 255 255
-26.227561950683594 6.762692928314209 53.32236099243164 255 255 255
-7.988068580627441 7.045375347137451 57.04279327392578 255 255 255
-8.719138145446777 1.4048746824264526 20.240867614746094 255 255 255
-0.9160259366035461 -7.150130271911621 43.07870101928711 255 255 255
-28.76646614074707 1.317492127418518 58.33073425292969 255 255 255
-6.650707721710205 6.411149024963379 56.21443176269531 255 255 255
-8.5689697265625 5.6810688972473145 48.22856140136719 255 255 255
-15.127337455749512 6.042023181915283 59.71334457397461 255 255 255
-11.3546781539917 -0.6141506433486938 38.6922492980957 255 255 255
-7.9371466636657715 0.7130186557769775 21.384992599487305 255 255 255
-21.85755157470703 -11.964874267578125 60.56761169433594 255 255 255
1.6974596977233887 0.3825528025627136 31.26861572265625 255 255 255
-2.546478033065796 2.3527255058288574 57.9008674621582 255 255 255
-3.290250539779663 2.0625131130218506 56.874603271484375 255 255 255
-1.8444936275482178 4.160046577453613 45.08108901977539 255 255 255
-7.110841751098633 -8.421736717224121 60.76429748535156 255 255 255
-24.092832565307617 6.732734203338623 53.02005386352539 255 255 255
-31.972021102905273 6.824439525604248 51.00493240356445 255 255 255
2.2789266109466553 -0.21454498171806335 8.636968612670898 255 255 255
2.4090492725372314 -0.1933373063802719 7.250607013702393 255 255 255
2.3308751583099365 -0.3006320595741272 8.704477310180664 255 255 255
0.961729109287262 2.2483572959899902 10.356351852416992 255 255 255
1.867010474205017 -0.4100630283355713 10.391725540161133 255 255 255
3.018038749694824 -0.09059213101863861 31.245153427124023 255 255 255
-5.63233757019043 0.18103286623954773 59.06498718261719 255 255 255
0.95472651720047 2.732651710510254 13.191280364990234 255 255 255
3.183143138885498 0.07888238877058029 17.656038284301758 255 255 255
-34.484500885009766 7.228753566741943 54.798133850097656 255 255 255
-23.874542236328125 2.367807626724243 52.97871017456055 255 255 255
-23.748184204101562 2.748551607131958 58.010372161865234 255 255 255
-6.052998065948486 1.9082016944885254 15.839628219604492 255 255 255
-7.312796115875244 2.009939432144165 14.994054794311523 255 255 255
0.6197596192359924 2.2447450160980225 15.12437629699707 255 255 255
2.0170578956604004 1.4600170850753784 10.27337646484375 255 255 255
1.9489434957504272 0.5497298240661621 10.276972770690918 255 255 255
0.2589495778083801 3.0282974243164062 19.1897029876709 255 255 255
-9.859951972961426 0.5997714996337891 18.543148040771484 255 255 255
-16.69031524658203 -6.64095401763916 61.593448638916016 255 255 255
1.3765418529510498 -0.000983281759545207 13.762596130371094 255 255 255
0.08439011126756668 -8.444779396057129 31.84966468811035 255 255 255
-36.22893142700195 7.948903560638428 58.62434387207031 255 255 255
-0.5974962115287781 3.8387842178344727 28.086708068847656 255 255 255
-20.7272891998291 -8.584016799926758 40.58650207519531 255 255 255
-7.019459247589111 3.936741352081299 29.473447799682617 255 255 255
2.2643065452575684 -0.19735945761203766 8.6011323928833 255 255 255
0.7319217920303345 5.128586769104004 28.086809158325195 255 255 255
0.7362701892852783 1.6986643075942993 20.011903762817383 255 255 255
-1.1497247219085693 -7.359363079071045 44.286617279052734 255 255 255
-26.386613845825195 -10.23477840423584 48.6440315246582 255 255 255
-21.50697898864746 -7.656233787536621 55.59440612792969 255 255 255
0.6875423789024353 1.5829800367355347 29.41550636291504 255 255 255
-7.995104789733887 1.4944770336151123 17.728124618530273 255 255 255
2.090427875518799 0.07637273520231247 10.65192699432373 255 255 255
1.721606731414795 0.09207308292388916 10.16886043548584 255 255 255
0.2898638844490051 -5.9600749015808105 31.210968017578125 255 255 255
0.7375651597976685 1.6734662055969238 31.45271873474121 255 255 255
1.9638172388076782 0.2897367775440216 10.304920196533203 255 255 255
2.0826776027679443 1.4092963933944702 10.29553508758545 255 255 255
0.49880558252334595 -7.411198616027832 30.46282958984375 255 255 255
1.8072980642318726 2.169844388961792 16.802427291870117 255 255 255
-7.757059574127197 0.6499910354614258 21.01333236694336 255 255 255
-22.0030460357666 -8.850754737854004 55.524173736572266 255 255 255
-18.922338485717773 -10.68587589263916 58.66217803955078 255 255 255
1.4914677143096924 1.8273991346359253 14.343422889709473 255 255 255
-10.038583755493164 0.8363149166107178 35.2372932434082 255 255 255
-5.777441501617432 3.3175485134124756 21.292587280273438 255 255 255
2.03640079498291 1.1082121133804321 10.366127967834473 255 255 255
-6.118901252746582 2.3966269493103027 19.479581832885742 255 255 255
0.9264183640480042 2.795243740081787 15.321298599243164 255 255 255
-34.22606658935547 0.18656113743782043 49.0715217590332 255 255 255
-36.39411163330078 2.4388582706451416 59.906917572021484 255 255 255
-27.766237258911133 2.5368664264678955 60.076866149902344 255 255 255
-6.441034317016602 -6.712642669677734 62.42877960205078 255 255 255
-11.259885787963867 3.051149368286133 45.67384719848633 255 255 255
-3.469021797180176 3.5429491996765137 24.399078369140625 255 255 255
0.8821736574172974 2.448322057723999 13.071502685546875 255 255 255
0.9082847833633423 2.6415417194366455 14.193967819213867 255 255 255
-20.60295867919922 -10.689934730529785 43.016380310058594 255 255 255
-4.022322654724121 1.0239861011505127 57.74595642089844 255 255 255
-36.341461181640625 3.344531536102295 46.77927780151367 255 255 255
-33.12458419799805 3.361788272857666 58.71931838989258 255 255 255
-34.23355484008789 1.2890548706054688 59.77191162109375 255 255 255
-20.51018524169922 6.441584587097168 52.560089111328125 255 255 255
-25.380754470825195 6.7592902183532715 55.44405746459961 255 255 255
-32.23645782470703 -4.204077243804932 56.591121673583984 255 255 255
-29.773361206054688 -0.3999643325805664 52.38214111328125 255 255 255
-1.2554330825805664 3.3802542686462402 37.053401947021484 255 255 255
-4.997220516204834 2.796933889389038 62.42337417602539 255 255 255
-36.344234466552734 1.1456952095031738 54.940093994140625 255 255 255
-6.432361125946045 2.4653444290161133 22.493772506713867 255 255 255
-26.1009521484375 6.562438011169434 51.51542282104492 255 255 255
-33.15117645263672 2.6903865337371826 58.673927307128906 255 255 255
-5.981287479400635 3.487548828125 24.105716705322266 255 255 255
1.2521400451660156 2.4187381267547607 14.688382148742676 255 255 255
1.9514563083648682 0.29012900590896606 10.298807144165039 255 255 255
0.3231743276119232 2.297344207763672 19.297042846679688 255 255 255
0.8854750394821167 1.067934513092041 20.249542236328125 255 255 255
1.2137571573257446 2.78863525390625 17.572662353515625 255 255 255
-9.789164543151855 1.004578948020935 20.147069931030273 255 255 255
-6.27980375289917 2.3834640979766846 21.254528045654297 255 255 255
-14.42890739440918 2.746297836303711 56.538597106933594 255 255 255
1.9122785329818726 -0.2654246985912323 10.324129104614258 255 255 255
0.7201860547065735 -7.710387706756592 34.39057922363281 255 255 255
-1.1270843744277954 -7.359957695007324 44.541831970214844 255 255 255
0.9456062316894531 2.7768044471740723 18.710182189941406 255 255 255
1.9691686630249023 2.1059978008270264 15.998796463012695 255 255 255
1.5603524446487427 1.7518889904022217 13.52538776397705 255 255 255
-13.887072563171387 -4.3667497634887695 53.76021194458008 255 255 255
1.594674825668335 -0.09646675735712051 14.481779098510742 255 255 255
-20.306285858154297 -11.31457233428955 44.56455612182617 255 255 255
-22.693761825561523 -10.6396484375 42.009368896484375 255 255 255
-6.758047580718994 -0.09169463068246841 19.80579376220703 255 255 255
1.7695423364639282 -0.3991650640964508 10.200993537902832 255 255 255
1.6698602437973022 2.0674631595611572 9.659505844116211 255 255 255
2.8716723918914795 0.5710748434066772 17.27772331237793 255 255 255
-27.530534744262695 6.339123249053955 57.07975387573242 255 255 255
-37.695709228515625 1.220982313156128 47.07449722290039 255 255 255
-27.39839744567871 6.324444770812988 56.99489974975586 255 255 255
-40.58306121826172 6.176638126373291 49.004493713378906 255 255 255
-0.72349613904953 3.534285068511963 26.29183006286621 255 255 255
-35.760719299316406 0.6223892569541931 51.385841369628906 255 255 255
-38.9729118347168 -3.8605844974517822 48.950496673583984 255 255 255
-33.52485275268555 -0.8040278553962708 50.3088264465332 255 255 255
-8.34550666809082 5.7794976234436035 50.18378829956055 255 255 255
-10.378084182739258 -2.9621739387512207 60.48942565917969 255 255 255
-16.171863555908203 -0.45744308829307556 52.00480270385742 255 255 255
-29.996112823486328 3.1058688163757324 59.25675582885742 255 255 255
-20.520456314086914 3.0460519790649414 51.01185989379883 255 255 255
-21.855270385742188 -0.6481512784957886 54.195274353027344 255 255 255
-18.341453552246094 -13.090537071228027 56.303619384765625 255 255 255
1.9163331985473633 0.11503484845161438 10.627169609069824 255 255 255
-5.554067611694336 2.3940682411193848 16.072681427001953 255 255 255
-21.660818099975586 -2.96974515914917 39.39876937866211 255 255 255
-6.055367469787598 3.6263983249664307 24.974044799804688 255 255 255
-9.442935943603516 1.7440072298049927 19.304166793823242 255 255 255
4.131825923919678 0.19169451296329498 15.58495807647705 255 255 255
1.3956608772277832 2.3366482257843018 11.489994049072266 255 255 255
-16.560386657714844 -9.494182586669922 52.443206787109375 255 255 255
-6.164126873016357 2.755354166030884 24.772968292236328 255 255 255
-22.751604080200195 -10.67387866973877 42.11144256591797 255 255 255
-24.191837310791016 -4.907412528991699 41.4257698059082 255 255 255
-22.392290115356445 -8.734801292419434 42.00830841064453 255 255 255
1.29037606716156 2.58589506149292 16.584802627563477 255 255 255
-14.678852081298828 -11.066280364990234 57.71799087524414 255 255 255
-20.706409454345703 -9.854508399963379 43.04105758666992 255 255 255
0.050819020718336105 1.075884461402893 31.13414192199707 255 255 255
-20.492935180664062 -9.725292205810547 42.674495697021484 255 255 255
-5.38054895401001 -1.8915249109268188 61.54531478881836 255 255 255
-14.27421760559082 -3.2783772945404053 55.43061828613281 255 255 255
0.009203370660543442 1.059906244277954 31.245361328125 255 255 255
-6.528160095214844 3.914428949356079 27.310510635375977 255 255 255
-5.647627830505371 -2.945821523666382 62.004215240478516 255 255 255
-2.096027374267578 2.559758186340332 58.312950134277344 255 255 255
-6.038337230682373 5.262593746185303 44.8743896484375 255 255 255
-1.803611159324646 2.7930684089660645 58.744510650634766 255 255 255
-1.3983445167541504 -0.7654151916503906 58.46472930908203 255 255 255
-24.894153594970703 6.621884346008301 54.99302673339844 255 255 255
-15.91163444519043 -0.40784794092178345 56.04390335083008 255 255 255
-6.327991485595703 5.498063564300537 49.39992141723633 255 255 255
-5.986725807189941 2.3342437744140625 19.110179901123047 255 255 255
1.3539482355117798 0.12672974169254303 20.213438034057617 255 255 255
-24.05924415588379 6.723214149475098 52.98906326293945 255 255 255
-18.5867919921875 -11.605183601379395 53.571075439453125 255 255 255
-21.67152214050293 -11.61810302734375 56.902652740478516 255 255 255
-23.147216796875 -10.615900039672852 53.512210845947266 255 255 255
-34.057861328125 2.515613079071045 58.88716125488281 255 255 255
-36.2883186340332 1.1384692192077637 54.868099212646484 255 255 255
-34.502098083496094 7.327063083648682 58.43311309814453 255 255 255
-38.06180953979492 7.4684295654296875 60.080379486083984 255 255 255
0.664018988609314 1.5810198783874512 30.014982223510742 255 255 255
-11.911274909973145 6.492664813995361 42.400142669677734 255 255 255
1.9545955657958984 1.2799644470214844 12.190502166748047 255 255 255
-5.685830116271973 2.0444321632385254 15.895496368408203 255 255 255
1.8407143354415894 2.231562376022339 17.173851013183594 255 255 255
-15.389513969421387 2.8286828994750977 52.08746337890625 255 255 255
-32.58596420288086 2.3553080558776855 47.848602294921875 255 255 255
-34.88914108276367 -0.8975307941436768 50.33704376220703 255 255 255
-34.389991760253906 6.78743314743042 49.134681701660156 255 255 255
-31.850828170776367 6.60452938079834 48.2330322265625 255 255 255
-38.675315856933594 -1.8802627325057983 57.227027893066406 255 255 255
-37.03471755981445 -0.40336859226226807 56.026458740234375 255 255 255
-30.106849670410156 6.57813024520874 50.64508819580078 255 255 255
-27.59404182434082 1.1107304096221924 57.07128143310547 255 255 255
-28.34722328186035 0.24385739862918854 57.7000617980957 255 255 255
-34.31543731689453 0.47654640674591064 50.404048919677734 255 255 255
-23.58515739440918 -4.701460838317871 40.68739700317383 255 255 255
0.47067055106163025 1.4292798042297363 22.787090301513672 255 255 255
0.71016925573349 0.44363725185394287 20.939369201660156 255 255 255
0.8610941767692566 3.212552547454834 21.310501098632812 255 255 255
0.38891884684562683 1.8883873224258423 20.00084114074707 255 255 255
0.9224873781204224 0.2972680628299713 18.969593048095703 255 255 255
0.9983839988708496 2.6805498600006104 17.831844329833984 255 255 255
0.445616751909256 -6.21789026260376 33.20581817626953 255 255 255
0.9521292448043823 0.3027077913284302 19.042800903320312 255 255 255
0.9626443386077881 0.24347776174545288 19.137311935424805 255 255 255
-22.848995208740234 -5.5875163078308105 54.58208465576172 255 255 255
-22.892105102539062 -8.275900840759277 56.38701248168945 255 255 255
-18.174837112426758 -11.605731010437012 51.8040885925293 255 255 255
-20.650081634521484 -10.661620140075684 43.281944274902344 255 255 255
1.1951580047607422 2.847750186920166 18.57248878479004 255 255 255
-23.785776138305664 -8.35213851928711 56.13825607299805 255 255 255
0.4589666724205017 0.8799851536750793 31.078157424926758 255 255 255
0.25498658418655396 -2.0330679416656494 31.364423751831055 255 255 255
-5.56514310836792 -2.7322113513946533 59.81660079956055 255 255 255
-25.45836639404297 6.856895446777344 56.49006652832031 255 255 255
-39.0053825378418 5.3935441970825195 46.68755340576172 255 255 255
-31.433712005615234 5.749277591705322 47.85796356201172 255 255 255
-36.56793975830078 5.432551383972168 47.1253547668457 255 255 255
-36.25159454345703 4.486208438873291 47.2396240234375 255 255 255
-34.83304214477539 6.15410852432251 48.24330139160156 255 255 255
-25.727184295654297 2.1078240871429443 54.051998138427734 255 255 255
-27.706037521362305 6.856847286224365 54.79584503173828 255 255 255
-32.535499572753906 3.9985947608947754 58.3076286315918 255 255 255
-8.19966983795166 5.815993785858154 49.74213409423828 255 255 255
-30.6461124420166 1.1064138412475586 57.11894989013672 255 255 255
-21.21997833251953 -0.4795635938644409 51.20004653930664 255 255 255
-18.454524993896484 0.5952917337417603 48.58301544189453 255 255 255
-23.972135543823242 -0.8243721723556519 52.8121337890625 255 255 255
-12.372814178466797 1.9152919054031372 27.72652244567871 255 255 255
1.1269967555999756 1.6749873161315918 18.14353370666504 255 255 255
0.3143436312675476 -6.449639320373535 32.854618072509766 255 255 255
-17.66424560546875 -12.788766860961914 54.398948669433594 255 255 255
-21.91041374206543 -10.388093948364258 43.50699996948242 255 255 255
-21.003990173339844 -9.334063529968262 42.183250427246094 255 255 255
-0.5624837875366211 2.4562370777130127 24.276531219482422 255 255 255
-17.060213088989258 -6.872829437255859 50.617794036865234 255 255 255
-0.7741506099700928 3.088778257369995 27.471132278442383 255 255 255
-33.336517333984375 6.687154293060303 48.93808364868164 255 255 255
-7.793755054473877 4.797648906707764 38.989131927490234 255 255 255
-1.4317712783813477 4.553795337677002 35.012603759765625 255 255 255
-23.544254302978516 -7.807582855224609 54.609130859375 255 255 255
-15.3894681930542 6.165235996246338 60.56635284423828 255 255 255
1.9711089134216309 1.436418890953064 10.153031349182129 255 255 255
1.1360607147216797 1.6647746562957764 17.546720504760742 255 255 255
-17.699384689331055 -9.431353569030762 55.31513977050781 255 255 255
-11.960166931152344 -8.518209457397461 56.25959014892578 255 255 255
-5.721577167510986 2.0617666244506836 15.987518310546875 255 255 255
1.2680858373641968 1.9799561500549316 15.864579200744629 255 255 255
0.9998177289962769 0.9813168048858643 17.8736572265625 255 255 255
-0.8224659562110901 3.556184768676758 26.044586181640625 255 255 255
-0.13980591297149658 3.288431406021118 23.92210578918457 255 255 255
-19.583311080932617 -9.838872909545898 44.55303955078125 255 255 255
-0.8256959319114685 -7.327828407287598 43.21416091918945 255 255 255
-0.17070868611335754 3.344289541244507 23.85225486755371 255 255 255
-29.449186325073242 -3.794504404067993 48.01225662231445 255 255 255
-25.592084884643555 -13.52961254119873 51.844268798828125 255 255 255
-17.473379135131836 -9.316606521606445 52.22930908203125 255 255 255
-14.687551498413086 -12.388962745666504 56.26625061035156 255 255 255
-0.8167611360549927 -4.864883899688721 43.30565643310547 255 255 255
-20.609298706054688 -10.693018913269043 43.101051330566406 255 255 255
-24.11492347717285 -4.367636203765869 40.92915344238281 255 255 255
-28.891942977905273 -6.297820568084717 56.75652313232422 255 255 255
-15.295063972473145 -11.952535629272461 52.949153900146484 255 255 255
-18.788219451904297 -2.589670181274414 52.29341125488281 255 255 255
-5.840760707855225 2.045823097229004 16.174169540405273 255 255 255
-36.28974151611328 5.420141220092773 47.123958587646484 255 255 255
-42.28587341308594 6.945580959320068 50.58489990234375 255 255 255
-37.97755813598633 4.930254936218262 48.62175750732422 255 255 255
-39.89812469482422 5.992027759552002 50.23649978637695 255 255 255
-0.2838262617588043 3.157391309738159 30.6121768951416 255 255 255
1.103645920753479 2.273761510848999 18.92387580871582 255 255 255
-36.63401794433594 7.408337116241455 59.742210388183594 255 255 255
-27.899005889892578 1.5924367904663086 59.86175537109375 255 255 255
1.8569048643112183 0.12151322513818741 10.03895092010498 255 255 255
1.598968505859375 1.8653535842895508 11.983450889587402 255 255 255
-5.885929584503174 2.834249258041382 17.370380401611328 255 255 255
0.7815696597099304 3.3340566158294678 19.4510498046875 255 255 255
0.9992495179176331 0.9800193905830383 17.8836727142334 255 255 255
-18.367408752441406 -10.6884126663208 52.35203552246094 255 255 255
-5.265200614929199 3.0488014221191406 19.668209075927734 255 255 255
-34.39340591430664 -2.7071783542633057 54.75372314453125 255 255 255
-0.6143840551376343 2.762305736541748 28.397241592407227 255 255 255
-23.425039291381836 -13.546385765075684 56.16456985473633 255 255 255
-32.47019958496094 6.460803031921387 47.91691970825195 255 255 255
-2.8143727779388428 3.6642372608184814 55.49268341064453 255 255 255
-5.086999416351318 5.012572288513184 43.0111198425293 255 255 255
-20.147924423217773 -3.3874330520629883 50.81364059448242 255 255 255
-0.16680224239826202 2.752713203430176 27.934770584106445 255 255 255
-20.351581573486328 6.428918361663818 61.267723083496094 255 255 255
-38.38188934326172 6.243734359741211 60.02865982055664 255 255 255
-14.350751876831055 5.384427070617676 54.595733642578125 255 255 255
-35.59846496582031 -0.827758252620697 49.12062072753906 255 255 255
-30.57628059387207 2.506685972213745 47.6002197265625 255 255 255
-30.96892547607422 0.2936957776546478 53.68320083618164 255 255 255
-10.13296890258789 1.5373543500900269 20.818038940429688 255 255 255
-5.749366283416748 2.773693084716797 17.029497146606445 255 255 255
-8.02031135559082 0.7279950380325317 21.65293312072754 255 255 255
2.4702341556549072 2.349461317062378 13.88232135772705 255 255 255
-6.350526332855225 3.3554799556732178 16.893022537231445 255 255 255
-6.034313201904297 3.5415542125701904 24.146045684814453 255 255 255
-22.516300201416016 -6.495943546295166 41.4577522277832 255 255 255
0.5459233522415161 2.783231258392334 18.963340759277344 255 255 255
1.3424361944198608 0.3333938419818878 16.121055603027344 255 255 255
1.2783310413360596 1.5756840705871582 16.770689010620117 255 255 255
1.0149797201156616 1.2179687023162842 21.307147979736328 255 255 255
-10.779176712036133 1.845064640045166 24.970129013061523 255 255 255
-5.6910271644592285 3.439281940460205 24.522979736328125 255 255 255
-21.19548988342285 -5.6602582931518555 41.88322830200195 255 255 255
-17.33177375793457 -11.938726425170898 51.54073715209961 255 255 255
1.3351614475250244 0.30880865454673767 16.097373962402344 255 255 255
1.5455509424209595 -0.11630599945783615 14.38740062713623 255 255 255
-22.19648551940918 -5.97642183303833 43.491329193115234 255 255 255
-10.869891166687012 -3.1175215244293213 51.7869758605957 255 255 255
-32.98869705200195 2.6467907428741455 57.808258056640625 255 255 255
