-48.60541534423828 -4.109987258911133 -6.923760890960693 255 255 255
-39.94448471069336 0.7424106597900391 -6.077703475952148 255 255 255
-59.500858306884766 -0.39740467071533203 1.365323781967163 255 255 255
-43.323577880859375 -0.6428795456886292 -12.787267684936523 255 255 255
-24.87318229675293 -1.3571574687957764 -7.622687339782715 255 255 255
-26.845348358154297 -3.8521909713745117 -2.8346564769744873 255 255 255
-25.867673873901367 -5.005188465118408 -0.718658447265625 255 255 255
-65.59471130371094 -5.246447563171387 -8.115205764770508 255 255 255
-59.714599609375 -5.959171772003174 -12.815654754638672 255 255 255
-33.37720489501953 -3.4110655784606934 -9.866898536682129 255 255 255
-67.3251953125 -7.802621841430664 4.696686267852783 255 255 255
-105.28841400146484 -8.277323722839355 -23.317354202270508 255 255 255
-63.116207122802734 -9.306845664978027 -9.421053886413574 255 255 255
-90.33465576171875 -11.886361122131348 -14.929251670837402 255 255 255
-57.99076461791992 -0.22587503492832184 -16.421066284179688 255 255 255
-71.2531509399414 -8.158679962158203 -13.687795639038086 255 255 255
-62.36129379272461 0.27581942081451416 -9.04869270324707 255 255 255
-109.23365020751953 -3.619602918624878 -26.531726837158203 255 255 255
-159.689208984375 -9.56116771697998 -19.639562606811523 255 255 255
-118.5494155883789 -2.090898036956787 -24.67540168762207 255 255 255
-129.10723876953125 -7.689006805419922 -25.964494705200195 255 255 255
-117.89546203613281 -2.1513540744781494 -24.611892700195312 255 255 255
-124.1200180053711 -9.28404712677002 -33.18232345581055 255 255 255
-121.48812866210938 -2.9342727661132812 -36.42898941040039 255 255 255
-74.00089263916016 -8.723846435546875 -12.026318550109863 255 255 255
-57.03540802001953 0.2752768099308014 -11.604313850402832 255 255 255
-52.33924102783203 0.3329123258590698 -10.785405158996582 255 255 255
-63.477657318115234 -7.5131120681762695 -11.413817405700684 255 255 255
-56.444644927978516 0.6472004652023315 -2.7683427333831787 255 255 255
-71.18402099609375 -0.28770896792411804 -8.829602241516113 255 255 255
-88.4865493774414 -2.1195414066314697 -23.133869171142578 255 255 255
-30.269838333129883 -6.425932884216309 -2.1622931957244873 255 255 255
-37.07294464111328 -7.811550140380859 -5.089418411254883 255 255 255
-29.178983688354492 -3.4337587356567383 -5.658412456512451 255 255 255
-38.83612060546875 0.5532845258712769 6.975861549377441 255 255 255
-174.16970825195312 -5.2860236167907715 -21.926544189453125 255 255 255
-179.08851623535156 -12.109990119934082 -40.567344665527344 255 255 255
-178.06954956054688 -10.811139106750488 -35.50983810424805 255 255 255
-93.5429458618164 -7.7471795082092285 -18.58230972290039 255 255 255
-87.86214447021484 -1.8206887245178223 -23.3768310546875 255 255 255
-181.62393188476562 -10.051582336425781 -42.50730514526367 255 255 255
-173.42398071289062 -9.29765796661377 -25.340396881103516 255 255 255
-63.43789291381836 -4.099977016448975 -5.496108531951904 255 255 255
-46.048160552978516 -2.0268523693084717 -1.5608904361724854 255 255 255
-44.98301696777344 0.018535573035478592 -13.943564414978027 255 255 255
-46.93015670776367 0.7321591377258301 -9.998397827148438 255 255 255
-46.386810302734375 -1.9936137199401855 -1.6151305437088013 255 255 255
-73.18800354003906 -0.7556492686271667 -6.532475471496582 255 255 255
-68.06836700439453 -0.056817878037691116 -12.423857688903809 255 255 255
-76.70343780517578 -7.0772929191589355 -14.513931274414062 255 255 255
-70.68975830078125 -0.43281933665275574 -16.819454193115234 255 255 255
-134.88931274414062 -6.885370254516602 -50.845191955566406 255 255 255
-49.36565017700195 -1.5224827527999878 6.487220764160156 255 255 255
-25.504711151123047 -2.6091554164886475 -8.215928077697754 255 255 255
-44.775596618652344 -2.533107280731201 -9.62352466583252 255 255 255
-48.319488525390625 -2.3555638790130615 -1.5475609302520752 255 255 255
-220.02830505371094 -13.107590675354004 48.43170928955078 255 255 255
-204.1443634033203 -0.48787814378738403 19.69193458557129 255 255 255
-192.92425537109375 -0.8677297830581665 23.00235366821289 255 255 255
-57.82185363769531 -2.5886316299438477 -3.527764320373535 255 255 255
-44.68499755859375 -8.888893127441406 -1.8547039031982422 255 255 255
-185.1951141357422 -4.415031909942627 -24.664939880371094 255 255 255
-178.6797332763672 -10.95538330078125 -39.736698150634766 255 255 255
-28.096342086791992 -4.786756992340088 -2.5113730430603027 255 255 255
-28.16668128967285 -4.302688121795654 -3.78130841255188 255 255 255
-49.81748580932617 -3.2827281951904297 -11.300925254821777 255 255 255
-28.484647750854492 -4.801995754241943 -0.35425734519958496 255 255 255
-31.943742752075195 -0.08973731845617294 -3.451335906982422 255 255 255
-53.22298812866211 0.2831084728240967 -10.558947563171387 255 255 255
-70.96531677246094 -2.0860323905944824 -2.154428243637085 255 255 255
-60.75332260131836 -4.2525177001953125 -15.1797513961792 255 255 255
-54.56586837768555 0.057719625532627106 -13.460489273071289 255 255 255
-114.02214813232422 -1.7538315057754517 -27.212583541870117 255 255 255
-125.43756103515625 -14.677522659301758 -32.325889587402344 255 255 255
-110.19367218017578 -1.9473330974578857 -29.308645248413086 255 255 255
-118.28348541259766 -8.297494888305664 -33.64629364013672 255 255 255
-125.15714263916016 -9.156899452209473 -34.94199752807617 255 255 255
-140.385986328125 -5.8009796142578125 -16.44222640991211 255 255 255
-35.24480438232422 0.8890770077705383 0.9936426281929016 255 255 255
-34.42062759399414 -1.6320174932479858 8.295281410217285 255 255 255
-39.3831901550293 -3.337714195251465 -3.8647701740264893 255 255 255
-61.06208801269531 -5.751236915588379 -6.865207672119141 255 255 255
-147.99229431152344 -10.119019508361816 -25.38072967529297 255 255 255
-129.59844970703125 -6.058797836303711 -27.68888282775879 255 255 255
-147.33432006835938 -7.673856258392334 -40.2951545715332 255 255 255
-155.83282470703125 -9.148193359375 -25.771556854248047 255 255 255
-33.009178161621094 -3.190338611602783 7.710125923156738 255 255 255
-31.22595977783203 -2.8787879943847656 7.504985809326172 255 255 255
-200.1068115234375 -7.486618995666504 7.775095462799072 255 255 255
-75.57779693603516 -0.5472411513328552 -18.516080856323242 255 255 255
-126.75653839111328 -5.094940662384033 -39.822879791259766 255 255 255
-121.17147064208984 -2.784590005874634 -36.327518463134766 255 255 255
-119.21935272216797 -2.3209874629974365 -32.02378845214844 255 255 255
-125.98344421386719 -2.6463582515716553 -33.539005279541016 255 255 255
-121.03446960449219 -7.238972187042236 -37.679019927978516 255 255 255
-27.069002151489258 0.4116423726081848 -3.8155133724212646 255 255 255
-56.94611740112305 -4.216233730316162 -8.172124862670898 255 255 255
-26.199100494384766 1.1485013961791992 -1.8562877178192139 255 255 255
-28.576602935791016 -1.6253178119659424 5.230684280395508 255 255 255
-26.297868728637695 -4.590107440948486 2.0297980308532715 255 255 255
-30.469995498657227 -4.416091442108154 -7.33884334564209 255 255 255
-38.494354248046875 0.6239745616912842 -6.354340553283691 255 255 255
-207.77809143066406 -9.485311508178711 -25.630796432495117 255 255 255
-177.22238159179688 -6.532785415649414 -9.140331268310547 255 255 255
-174.06529235839844 -3.411858320236206 -21.005706787109375 255 255 255
-179.713623046875 -7.8768720626831055 -3.2694666385650635 255 255 255
-181.20370483398438 -5.690323352813721 -15.425318717956543 255 255 255
-148.3413543701172 -8.430620193481445 -21.602746963500977 255 255 255
-35.9371452331543 -2.6955418586730957 -11.752134323120117 255 255 255
-43.90398025512695 1.350413203239441 -9.36638069152832 255 255 255
-45.76354217529297 -2.1002495288848877 -12.130216598510742 255 255 255
-45.38653564453125 0.9035836458206177 -6.966707706451416 255 255 255
-64.77883911132812 -8.812286376953125 -2.5414958000183105 255 255 255
-181.3907470703125 -13.262434005737305 -35.66649627685547 255 255 255
-192.79640197753906 -2.8572027683258057 1.9835861921310425 255 255 255
-134.86436462402344 -4.798611164093018 -45.490692138671875 255 255 255
-111.28668975830078 -9.099198341369629 -38.23261260986328 255 255 255
-109.7376480102539 -1.89350163936615 -29.11297035217285 255 255 255
-124.0203857421875 -9.282628059387207 -33.157039642333984 255 255 255
-204.6745147705078 -9.829447746276855 -27.841352462768555 255 255 255
-117.29602813720703 -2.8844733238220215 -34.832603454589844 255 255 255
-162.84222412109375 -28.14621925354004 -15.929396629333496 255 255 255
-67.50769805908203 -7.106542110443115 -12.922286987304688 255 255 255
-101.78121185302734 -8.221847534179688 -3.6434478759765625 255 255 255
-75.23469543457031 -0.21569733321666718 -13.342761993408203 255 255 255
-113.88175201416016 -8.921582221984863 -31.21084213256836 255 255 255
-63.25947952270508 0.08554115146398544 -14.45088005065918 255 255 255
-33.13494110107422 -4.598504066467285 1.2463575601577759 255 255 255
-44.889892578125 -3.060734510421753 -2.8905887603759766 255 255 255
-157.66958618164062 -8.311230659484863 -0.7646453976631165 255 255 255
-78.27387237548828 -1.2465183734893799 -7.860442161560059 255 255 255
-39.294898986816406 -4.215322494506836 -2.672060012817383 255 255 255
-39.76747131347656 -0.5631429553031921 -0.906104326248169 255 255 255
-40.40504455566406 0.30924203991889954 1.1336530447006226 255 255 255
-112.96839904785156 -2.023792028427124 -30.1556396484375 255 255 255
-152.18057250976562 -8.99344539642334 -21.225780487060547 255 255 255
-112.28630065917969 -2.1710901260375977 -29.52225112915039 255 255 255
-112.60176086425781 -4.110213279724121 -29.172718048095703 255 255 255
-137.01866149902344 -6.024864196777344 -51.20309829711914 255 255 255
-75.76036834716797 -1.4888898134231567 -18.703702926635742 255 255 255
-71.7764892578125 -0.6961353421211243 -20.091981887817383 255 255 255
-106.11840057373047 -9.777376174926758 -35.65385437011719 255 255 255
-105.01396179199219 -9.16850471496582 -37.5734748840332 255 255 255
-90.29666900634766 -1.8084983825683594 -14.896827697753906 255 255 255
-92.85003662109375 -1.987449049949646 -27.017059326171875 255 255 255
-100.46810150146484 -2.5001142024993896 -28.855979919433594 255 255 255
-112.90946960449219 -7.360278606414795 -41.18661880493164 255 255 255
-94.6328125 -1.067796230316162 -25.14359474182129 255 255 255
-115.11611938476562 -5.708545207977295 -44.60950469970703 255 255 255
-174.51882934570312 -10.412455558776855 -30.866647720336914 255 255 255
-148.7032470703125 -3.4659526348114014 -41.363502502441406 255 255 255
-183.9215545654297 -4.086447238922119 -55.466793060302734 255 255 255
-184.00650024414062 -2.993680000305176 15.902716636657715 255 255 255
-178.03399658203125 -6.407944679260254 -15.3134765625 255 255 255
-93.23583984375 -2.276963710784912 -25.05112648010254 255 255 255
-87.68220520019531 -4.238218307495117 -21.595060348510742 255 255 255
-73.89601135253906 -3.2848291397094727 -8.702792167663574 255 255 255
-42.539920806884766 -2.014129400253296 -13.415346145629883 255 255 255
-52.94002151489258 -6.457413673400879 -11.411894798278809 255 255 255
-71.79771423339844 -8.225306510925293 -11.651034355163574 255 255 255
-104.64865112304688 -8.61733341217041 -21.902263641357422 255 255 255
-112.76612854003906 -2.0871825218200684 -30.136178970336914 255 255 255
-124.65723419189453 -9.534615516662598 -36.23915481567383 255 255 255
-137.6975555419922 -6.902128219604492 -28.493898391723633 255 255 255
-148.72994995117188 -4.119070529937744 -42.363250732421875 255 255 255
-141.43980407714844 -8.018741607666016 -41.527767181396484 255 255 255
-138.3792724609375 -6.082300186157227 -29.2836856842041 255 255 255
-179.0638885498047 -8.857765197753906 -41.686580657958984 255 255 255
-138.70030212402344 -5.773804187774658 -35.05818176269531 255 255 255
-186.9446258544922 -6.221786975860596 -53.632022857666016 255 255 255
-85.2763671875 -2.637422561645508 -27.828983306884766 255 255 255
-119.0639419555664 -8.727105140686035 -32.31432342529297 255 255 255
-114.36091613769531 -1.7204458713531494 -23.93646240234375 255 255 255
-202.72377014160156 -4.30610466003418 22.616975784301758 255 255 255
-210.00714111328125 -2.938742160797119 40.290287017822266 255 255 255
-231.65728759765625 -17.629159927368164 39.4196662902832 255 255 255
-198.99362182617188 -7.100540637969971 6.9149699211120605 255 255 255
-191.50289916992188 -5.99692440032959 37.250057220458984 255 255 255
-62.03093338012695 -0.5504847168922424 -18.50176239013672 255 255 255
-62.61948776245117 -4.719291687011719 -22.5372257232666 255 255 255
-68.50157165527344 -7.736086845397949 -11.331151008605957 255 255 255
-60.88298797607422 -6.956249713897705 -14.041828155517578 255 255 255
-29.338253021240234 -3.4634287357330322 1.875697374343872 255 255 255
-92.91181182861328 -10.866752624511719 -20.488805770874023 255 255 255
-95.00318145751953 -9.336918830871582 -21.839685440063477 255 255 255
-77.51927947998047 -1.0000263452529907 -7.70466423034668 255 255 255
-77.99446868896484 0.11485939472913742 -9.517034530639648 255 255 255
-62.052330017089844 -0.33703383803367615 -17.674747467041016 255 255 255
-61.69227600097656 0.1106344684958458 -13.67299747467041 255 255 255
-74.78961181640625 -2.8007559776306152 -27.351688385009766 255 255 255
-39.89670944213867 -5.0802812576293945 0.6040500402450562 255 255 255
-25.663753509521484 -3.2178285121917725 0.17720076441764832 255 255 255
-92.45738983154297 -8.388553619384766 -16.354394912719727 255 255 255
-29.447799682617188 -5.588127613067627 -0.3789689838886261 255 255 255
-46.17058181762695 -0.8987556099891663 -1.0586318969726562 255 255 255
-30.05982208251953 -6.520073890686035 1.4172247648239136 255 255 255
-28.874544143676758 -3.1102523803710938 1.9200191497802734 255 255 255
-36.11370849609375 -3.6621718406677246 8.615516662597656 255 255 255
-32.190589904785156 -9.425631523132324 1.8599047660827637 255 255 255
-27.10824966430664 -4.81388521194458 -1.2786709070205688 255 255 255
-43.58773422241211 -4.127262592315674 -12.623258590698242 255 255 255
-87.6173324584961 -6.902847766876221 -21.31867218017578 255 255 255
-63.302406311035156 -0.30777204036712646 -18.271709442138672 255 255 255
-61.52755355834961 0.2927525043487549 -6.553077697753906 255 255 255
-79.19497680664062 -4.0508856773376465 -5.488194942474365 255 255 255
-74.33291625976562 -6.783349514007568 -13.515632629394531 255 255 255
-66.32028198242188 -7.035201549530029 -12.822635650634766 255 255 255
-92.85771179199219 -1.8831992149353027 -15.570134162902832 255 255 255
-32.35238265991211 -4.948193073272705 -9.431081771850586 255 255 255
-34.92573928833008 -0.48366883397102356 7.811214923858643 255 255 255
-41.4885368347168 -5.526683330535889 6.862351417541504 255 255 255
-26.1054744720459 -3.7248966693878174 -2.420210599899292 255 255 255
-32.38174819946289 0.7024966478347778 8.115633010864258 255 255 255
-25.723928451538086 -3.7177462577819824 -3.0635592937469482 255 255 255
-29.572402954101562 1.5039783716201782 -4.321829795837402 255 255 255
-38.41969299316406 -3.8472070693969727 5.998605251312256 255 255 255
-28.001882553100586 -3.678579092025757 -1.138510823249817 255 255 255
-29.8408260345459 -3.4354586601257324 1.7870885133743286 255 255 255
-132.40164184570312 -2.7696189880371094 -28.363109588623047 255 255 255
-50.5418586730957 -4.077279090881348 -8.204011917114258 255 255 255
-60.202911376953125 -4.685304164886475 -15.04269790649414 255 255 255
-75.67134094238281 -5.168556213378906 -17.31682014465332 255 255 255
-79.83779907226562 -6.745944976806641 -17.724123001098633 255 255 255
-68.78190612792969 -9.984130859375 -13.720290184020996 255 255 255
-35.677696228027344 -3.295706272125244 3.429311752319336 255 255 255
-35.83986282348633 -4.999128818511963 0.7376717925071716 255 255 255
-31.523427963256836 -3.1212480068206787 4.395684242248535 255 255 255
-34.513431549072266 -2.3622639179229736 8.014327049255371 255 255 255
-27.575475692749023 -2.7838311195373535 3.8371529579162598 255 255 255
-177.86337280273438 -6.548366546630859 -13.005128860473633 255 255 255
-205.09922790527344 -11.191571235656738 8.988615989685059 255 255 255
-178.0165252685547 -7.905385494232178 -7.451351165771484 255 255 255
-46.394317626953125 -0.007350300904363394 -1.4791553020477295 255 255 255
-109.80238342285156 -5.719959259033203 -1.1128960847854614 255 255 255
-60.11128234863281 -4.492967128753662 -5.216523170471191 255 255 255
-46.497703552246094 0.8214187622070312 -2.9252524375915527 255 255 255
-44.25241470336914 0.9461641907691956 -1.7197270393371582 255 255 255
-78.13574981689453 -4.624332904815674 -7.4053754806518555 255 255 255
-67.57958984375 -0.9407615065574646 -20.155637741088867 255 255 255
-70.08033752441406 -4.505605220794678 -8.034383773803711 255 255 255
-81.27992248535156 -6.88226842880249 -6.3138017654418945 255 255 255
-74.23654174804688 -0.8801131248474121 -6.217436790466309 255 255 255
-132.7421417236328 -2.6795358657836914 -30.476839065551758 255 255 255
-87.84410095214844 -5.8845086097717285 -31.915536880493164 255 255 255
-72.3957748413086 0.015842631459236145 -10.553030014038086 255 255 255
-78.4510726928711 -6.668742656707764 -6.249333381652832 255 255 255
-63.44895553588867 5.726073741912842 0.34265777468681335 255 255 255
-38.91800308227539 -1.6060985326766968 -8.756535530090332 255 255 255
-26.983074188232422 -5.810951232910156 3.0643229484558105 255 255 255
-47.607601165771484 -2.5189034938812256 7.2205657958984375 255 255 255
-27.05052375793457 -5.057750225067139 2.280789613723755 255 255 255
-39.75121307373047 -0.09141463786363602 -7.593958377838135 255 255 255
-44.59550094604492 0.8229470252990723 3.2714531421661377 255 255 255
-31.384788513183594 0.9282605051994324 9.63766098022461 255 255 255
-24.180612564086914 -2.258655548095703 -6.826598167419434 255 255 255
-31.09041404724121 1.1082946062088013 0.7119691967964172 255 255 255
-37.4316291809082 -0.9055191874504089 11.085962295532227 255 255 255
-31.179943084716797 -7.921857833862305 2.2964394092559814 255 255 255
-121.5069808959961 -4.550772666931152 -48.394168853759766 255 255 255
-115.35325622558594 -5.861496925354004 -35.68267059326172 255 255 255
-186.08155822753906 -4.751637935638428 -33.81700897216797 255 255 255
-180.80712890625 -5.928873538970947 -3.4718432426452637 255 255 255
-168.9066162109375 -9.651463508605957 -29.1734561920166 255 255 255
-196.12313842773438 -10.168274879455566 -31.60780143737793 255 255 255
-206.94410705566406 -14.783381462097168 19.006244659423828 255 255 255
-114.90222930908203 -5.799928188323975 -35.2922248840332 255 255 255
-103.00923156738281 -1.2834367752075195 -20.536762237548828 255 255 255
-110.72335052490234 -6.358440399169922 -18.135961532592773 255 255 255
-115.56440734863281 -5.899552345275879 -35.82149124145508 255 255 255
-116.98477935791016 -2.806107997894287 -34.92898178100586 255 255 255
-121.80074310302734 -9.44920825958252 -32.461387634277344 255 255 255
-94.1032485961914 -2.7783520221710205 -28.67555046081543 255 255 255
-96.0990219116211 -6.464651107788086 -19.855480194091797 255 255 255
-95.06424713134766 -4.27884578704834 -16.56203842163086 255 255 255
-107.93934631347656 -6.123660564422607 -28.36473846435547 255 255 255
-44.4869384765625 -3.112456798553467 7.016765117645264 255 255 255
-27.334571838378906 0.4357762336730957 -4.054481506347656 255 255 255
-40.5272102355957 -3.2286601066589355 -11.513303756713867 255 255 255
-32.29361343383789 -1.9748395681381226 6.861944675445557 255 255 255
-31.483383178710938 0.7715584635734558 6.220154285430908 255 255 255
-52.09331512451172 -1.0266401767730713 11.472827911376953 255 255 255
-34.8270378112793 -2.294377326965332 8.120159149169922 255 255 255
-29.229665756225586 -5.739745616912842 -1.3016612529754639 255 255 255
-33.3310432434082 -3.0270590782165527 8.417441368103027 255 255 255
-58.22768020629883 -4.027239799499512 -12.830599784851074 255 255 255
-39.75251388549805 0.07603275775909424 -12.534557342529297 255 255 255
-28.01337432861328 -1.1750411987304688 4.837141513824463 255 255 255
-28.3523006439209 -3.980876922607422 -5.827498435974121 255 255 255
-62.151607513427734 -1.6897368431091309 -18.256683349609375 255 255 255
-202.46754455566406 -7.049234390258789 -60.28916549682617 255 255 255
-71.54351043701172 -4.342138290405273 -8.736137390136719 255 255 255
-57.235496520996094 -0.023655755445361137 -14.797507286071777 255 255 255
-60.12626266479492 -5.299642086029053 -13.528038024902344 255 255 255
-68.01286315917969 -10.415948867797852 -24.554031372070312 255 255 255
-78.38124084472656 -5.2762675285339355 -5.453841209411621 255 255 255
-61.20613479614258 0.2852329909801483 -6.907989025115967 255 255 255
-62.711238861083984 -5.118373870849609 -3.2060348987579346 255 255 255
-29.283361434936523 -2.012700080871582 -9.760653495788574 255 255 255
-36.58952713012695 -2.3572919368743896 -9.795931816101074 255 255 255
-125.00558471679688 -7.601970672607422 -26.378952026367188 255 255 255
-138.3802490234375 -7.969677925109863 -38.79084777832031 255 255 255
-137.49205017089844 -2.7872073650360107 -31.871593475341797 255 255 255
-139.40147399902344 -8.201353073120117 -29.844419479370117 255 255 255
-75.64170837402344 -6.329095840454102 -18.486854553222656 255 255 255
-177.3896026611328 -7.718685626983643 -9.464716911315918 255 255 255
-167.77755737304688 -2.1682002544403076 -8.816636085510254 255 255 255
-180.0640869140625 -6.083858013153076 -11.833576202392578 255 255 255
-177.3504638671875 -5.766789436340332 -15.242878913879395 255 255 255
-199.33233642578125 -4.914519786834717 29.82077407836914 255 255 255
-180.50091552734375 -12.82328987121582 22.16651153564453 255 255 255
-43.16643524169922 0.662018358707428 -0.36412280797958374 255 255 255
-46.65518569946289 -2.9663329124450684 -1.8368031978607178 255 255 255
-48.18052673339844 -0.518642246723175 -9.84732723236084 255 255 255
-39.75623321533203 0.6273388862609863 -6.800602912902832 255 255 255
-47.42665100097656 0.7738181352615356 -2.0434069633483887 255 255 255
-67.84574127197266 -5.572824001312256 -13.819794654846191 255 255 255
-86.48025512695312 -0.07866062968969345 -13.496837615966797 255 255 255
-113.6181411743164 -8.258872032165527 -31.477500915527344 255 255 255
-106.3166732788086 -5.686451435089111 -19.917327880859375 255 255 255
-105.38333129882812 -8.08824634552002 -39.718414306640625 255 255 255
-109.41822052001953 -2.7653799057006836 -34.6269645690918 255 255 255
-107.42264556884766 -6.196911334991455 -27.878564834594727 255 255 255
-107.49076080322266 -7.414710998535156 -33.05523681640625 255 255 255
-116.03901672363281 -12.77669620513916 -28.498401641845703 255 255 255
-125.62741088867188 -9.292702674865723 -33.15260696411133 255 255 255
-107.0849838256836 -2.6250383853912354 -32.60822296142578 255 255 255
-98.85456085205078 -1.9165518283843994 -29.29396629333496 255 255 255
-110.69129943847656 -4.850119590759277 -16.370708465576172 255 255 255
-110.02055358886719 -6.534956932067871 -22.987918853759766 255 255 255
-77.65167236328125 -0.09974390268325806 -11.999735832214355 255 255 255
-69.26428985595703 -4.231174945831299 -17.619157791137695 255 255 255
-95.1114730834961 -6.425423622131348 -16.27969741821289 255 255 255
-94.4419174194336 -4.891698837280273 -23.26738166809082 255 255 255
-96.16197967529297 -1.9867815971374512 -30.390766143798828 255 255 255
-109.64705657958984 -6.554327487945557 -19.856435775756836 255 255 255
-92.19599151611328 -1.1459368467330933 -23.295732498168945 255 255 255
-92.20348358154297 -1.0770231485366821 -21.58180046081543 255 255 255
-95.13170623779297 -4.285799503326416 -16.57320785522461 255 255 255
-65.11869049072266 -7.184927940368652 -12.465047836303711 255 255 255
-60.836795806884766 -0.8865708708763123 -11.694756507873535 255 255 255
-48.65884780883789 -5.785111904144287 -3.8445072174072266 255 255 255
-39.06901168823242 0.05978906899690628 -11.647815704345703 255 255 255
-57.55269241333008 -4.084094524383545 -4.816429615020752 255 255 255
-71.45516967773438 -9.578383445739746 -19.555959701538086 255 255 255
-46.392330169677734 -2.434894323348999 -0.6889947056770325 255 255 255
-183.8203887939453 -4.578779697418213 -24.516597747802734 255 255 255
-230.09136962890625 -3.012274742126465 -12.50132942199707 255 255 255
-181.69790649414062 -10.139607429504395 -42.52864456176758 255 255 255
-245.28269958496094 -12.967122077941895 20.84284782409668 255 255 255
-73.54164123535156 -1.1114360094070435 -9.626128196716309 255 255 255
-72.37984466552734 -5.15968132019043 -8.171485900878906 255 255 255
-71.14209747314453 -6.692458629608154 -21.91554832458496 255 255 255
-125.18832397460938 -9.46133804321289 -32.4882926940918 255 255 255
-121.32491302490234 -3.073373317718506 -33.336082458496094 255 255 255
-175.42686462402344 -4.456001281738281 -15.193445205688477 255 255 255
-174.11395263671875 -9.39955997467041 -31.725839614868164 255 255 255
-179.13475036621094 -10.23657512664795 -29.89019012451172 255 255 255
-177.46290588378906 -12.661812782287598 -31.631942749023438 255 255 255
-45.869163513183594 -2.786851167678833 -1.7600429058074951 255 255 255
-71.74932861328125 -2.0795552730560303 -2.1336679458618164 255 255 255
-45.568328857421875 -2.4109621047973633 -13.346293449401855 255 255 255
-59.76333236694336 -4.632639408111572 -7.446796894073486 255 255 255
-48.448944091796875 -0.36499258875846863 -9.938882827758789 255 255 255
-156.6557159423828 -6.102217674255371 -32.76481628417969 255 255 255
-160.8016815185547 -11.474626541137695 -4.351842880249023 255 255 255
-131.98138427734375 -9.346685409545898 -39.370628356933594 255 255 255
-78.54842376708984 -1.2546406984329224 -11.154365539550781 255 255 255
-77.18936157226562 -0.6567051410675049 -13.711150169372559 255 255 255
-209.90171813964844 -11.383773803710938 -55.47640609741211 255 255 255
-95.38932800292969 -4.626490592956543 -37.29370880126953 255 255 255
-77.57698059082031 -0.09336455911397934 -11.961653709411621 255 255 255
-83.09183502197266 -7.6525139808654785 -11.525811195373535 255 255 255
-94.74512481689453 -6.222218990325928 -30.971616744995117 255 255 255
-79.52325439453125 -3.167311668395996 -30.12310028076172 255 255 255
-75.93201446533203 -0.9379695653915405 -19.417905807495117 255 255 255
-90.46805572509766 -6.640600204467773 -12.783828735351562 255 255 255
-92.97013854980469 -7.1242475509643555 -19.961835861206055 255 255 255
-226.0641326904297 -6.116676330566406 -52.82939910888672 255 255 255
-186.43653869628906 -4.457871913909912 -52.87886047363281 255 255 255
-184.4071502685547 -4.036477565765381 -55.68968963623047 255 255 255
-145.36199951171875 -6.94379997253418 -29.539932250976562 255 255 255
-233.10943603515625 -13.18249797821045 -44.61977767944336 255 255 255
-48.20268249511719 -0.5779039859771729 -3.0518252849578857 255 255 255
-45.34016799926758 -3.791688919067383 -3.2013514041900635 255 255 255
-47.64753723144531 0.8899160623550415 -2.3121442794799805 255 255 255
-69.67036437988281 -0.3098800480365753 -11.806417465209961 255 255 255
-131.91641235351562 -2.2293338775634766 -28.664310455322266 255 255 255
-177.30169677734375 -9.920464515686035 -26.290420532226562 255 255 255
-154.38868713378906 -9.70734691619873 -42.25214767456055 255 255 255
-184.17442321777344 -3.9941635131835938 -50.77936553955078 255 255 255
-154.9507598876953 -7.526767253875732 -47.07380676269531 255 255 255
-109.75424194335938 -1.897073745727539 -29.12825584411621 255 255 255
-121.65602111816406 -10.249397277832031 -32.709102630615234 255 255 255
-51.064247131347656 -4.666890621185303 -7.551560401916504 255 255 255
-60.38655471801758 -8.45490550994873 -7.849693298339844 255 255 255
-174.2663116455078 -3.4404101371765137 -21.009523391723633 255 255 255
-170.79075622558594 -8.63137149810791 -27.98258399963379 255 255 255
-158.05909729003906 -3.2564640045166016 -33.3255729675293 255 255 255
-204.80250549316406 -4.104043960571289 -36.458656311035156 255 255 255
-184.19493103027344 -4.537692070007324 -24.76487922668457 255 255 255
-41.21790313720703 -2.238722562789917 -13.42822551727295 255 255 255
-45.912933349609375 0.6733670830726624 -1.1531881093978882 255 255 255
-130.6643829345703 -2.79371976852417 -30.47102165222168 255 255 255
-142.9100799560547 -9.429871559143066 -43.39764404296875 255 255 255
-39.77128601074219 -1.5173085927963257 1.1086245775222778 255 255 255
-60.632171630859375 -0.4205513894557953 1.3703272342681885 255 255 255
-37.329776763916016 0.9013833403587341 -1.6015889644622803 255 255 255
-72.73149108886719 -8.87292766571045 -15.383037567138672 255 255 255
-69.02021026611328 -3.9151527881622314 -8.239544868469238 255 255 255
-176.1544952392578 -10.606524467468262 -28.859230041503906 255 255 255
-176.79063415527344 -9.442181587219238 -27.763015747070312 255 255 255
-182.6582794189453 -9.928418159484863 -31.239871978759766 255 255 255
-183.2045440673828 -6.996117115020752 -1.5014939308166504 255 255 255
-183.9190673828125 -8.515658378601074 0.8471119403839111 255 255 255
-175.2902069091797 -3.170769691467285 -12.915724754333496 255 255 255
-60.73970413208008 0.43848392367362976 -7.624185085296631 255 255 255
-82.52108764648438 -1.6053074598312378 -23.42167854309082 255 255 255
-59.783050537109375 0.2921462655067444 -10.457653045654297 255 255 255
-46.17308807373047 0.7874757647514343 -5.267441272735596 255 255 255
-44.459197998046875 0.523000955581665 -8.610190391540527 255 255 255
-53.49757766723633 -5.318783283233643 -5.331903457641602 255 255 255
-58.87367630004883 -0.779790997505188 -5.768582344055176 255 255 255
-46.34920120239258 -4.671947002410889 -7.861101150512695 255 255 255
-194.61642456054688 -10.798041343688965 -27.40191078186035 255 255 255
-37.58602523803711 0.22742712497711182 1.5677727460861206 255 255 255
-42.98125457763672 -0.46915403008461 -9.358503341674805 255 255 255
-37.9119873046875 0.8429994583129883 -2.626984119415283 255 255 255
-75.0367202758789 -11.17627239227295 -13.346585273742676 255 255 255
-182.99240112304688 -6.9803032875061035 -1.7625219821929932 255 255 255
-60.03219985961914 -9.42686939239502 -7.911710262298584 255 255 255
-41.40651321411133 0.6596754789352417 0.1754656732082367 255 255 255
-44.18075942993164 0.8840883374214172 -2.332832098007202 255 255 255
-41.52761459350586 -0.8016802072525024 -8.243038177490234 255 255 255
-40.74823760986328 0.8202813863754272 -7.622404098510742 255 255 255
-41.24349594116211 -1.7587319612503052 -9.58861255645752 255 255 255
-65.10746002197266 -2.424426794052124 3.7864906787872314 255 255 255
-41.157649993896484 -0.791593611240387 -7.964468479156494 255 255 255
-39.04056930541992 0.5174736976623535 0.7894567847251892 255 255 255
-58.266910552978516 -0.7147241830825806 -19.589435577392578 255 255 255
-74.05987548828125 -3.3344650268554688 -8.815296173095703 255 255 255
-73.63764190673828 -3.2539148330688477 -8.809024810791016 255 255 255
-74.42443084716797 -3.872317314147949 -9.778221130371094 255 255 255
-73.27534484863281 -0.051996760070323944 -11.604317665100098 255 255 255
-139.32493591308594 -0.5864383578300476 -23.27446746826172 255 255 255
-115.75800323486328 -7.542938232421875 -43.91379165649414 255 255 255
-108.72051239013672 -3.8403992652893066 -21.326459884643555 255 255 255
-112.96298217773438 -2.3091201782226562 -31.73698616027832 255 255 255
-128.69895935058594 -6.667336463928223 -28.548181533813477 255 255 255
-87.5283203125 -5.309218406677246 -6.309969425201416 255 255 255
-48.28745651245117 0.6499961614608765 -6.676700115203857 255 255 255
-139.0084686279297 -8.01008129119873 -37.75254440307617 255 255 255
-187.93858337402344 -9.974102973937988 -46.00257873535156 255 255 255
-228.49696350097656 -14.498876571655273 -48.751075744628906 255 255 255
-169.7261962890625 -10.617918014526367 -50.5059814453125 255 255 255
-183.8240509033203 -6.276632308959961 -18.886341094970703 255 255 255
-201.01841735839844 -7.150424957275391 -21.106388092041016 255 255 255
-60.924434661865234 -4.822970867156982 -6.016404628753662 255 255 255
-109.99850463867188 -2.480757236480713 -29.598360061645508 255 255 255
-61.88154983520508 -0.42772185802459717 -17.745445251464844 255 255 255
-49.55857849121094 -5.634488582611084 -7.522003173828125 255 255 255
-95.18701934814453 -1.1758359670639038 -17.10393524169922 255 255 255
-43.52156448364258 0.7492509484291077 -5.798187255859375 255 255 255
-74.85770416259766 -3.070430278778076 -28.26801300048828 255 255 255
-45.78494644165039 -2.9985358715057373 -2.2064027786254883 255 255 255
-154.75917053222656 -3.282965898513794 -32.54897689819336 255 255 255
-180.1881866455078 -11.23624038696289 -36.7232666015625 255 255 255
-154.4826202392578 -3.2981176376342773 -32.55418395996094 255 255 255
-199.8788604736328 -10.590085983276367 -26.324003219604492 255 255 255
-169.21534729003906 -2.2604079246520996 -10.364133834838867 255 255 255
-169.54591369628906 -2.1569411754608154 -10.035151481628418 255 255 255
-101.98304748535156 -1.4317057132720947 -23.2940673828125 255 255 255
-101.11430358886719 -1.4447877407073975 -21.39990234375 255 255 255
-99.51802062988281 -1.4692882299423218 -25.85450553894043 255 255 255
-122.37562561035156 -12.8344144821167 -30.71938133239746 255 255 255
-112.23887634277344 -2.5154836177825928 -33.24920654296875 255 255 255
-102.80522155761719 -5.166364669799805 -18.00635528564453 255 255 255
-126.02059173583984 -8.380285263061523 -35.88861083984375 255 255 255
-129.64968872070312 -7.568756580352783 -39.239418029785156 255 255 255
-107.47084045410156 -7.545373439788818 -27.901390075683594 255 255 255
-89.40494537353516 -7.950642108917236 -19.155200958251953 255 255 255
-145.7528839111328 -9.183836936950684 -42.18875503540039 255 255 255
-157.05902099609375 -12.57641887664795 7.79977560043335 255 255 255
-51.565948486328125 0.575330913066864 -8.388402938842773 255 255 255
-73.90380096435547 -7.094754695892334 -16.742198944091797 255 255 255
-146.90658569335938 -17.8416690826416 -41.18006134033203 255 255 255
-180.56930541992188 -6.4456787109375 -18.336177825927734 255 255 255
-68.07381439208984 -0.14791448414325714 -14.616202354431152 255 255 255
-85.33305358886719 -0.9615117311477661 -8.09959602355957 255 255 255
-113.39111328125 -8.075947761535645 -41.57905197143555 255 255 255
-66.69094848632812 -0.2787737548351288 -15.469991683959961 255 255 255
-185.55706787109375 -9.52125072479248 1.7153950929641724 255 255 255
-47.33563995361328 -0.8359477519989014 -16.381921768188477 255 255 255
-81.38706970214844 -1.2157237529754639 -23.40955924987793 255 255 255
-85.2081527709961 -0.732656717300415 -16.493459701538086 255 255 255
-225.60755920410156 -0.8079848885536194 19.80740737915039 255 255 255
-237.54730224609375 -6.822349548339844 15.763152122497559 255 255 255
-81.77523040771484 -7.156990051269531 -30.904747009277344 255 255 255
-28.576589584350586 -3.152355194091797 0.8002832531929016 255 255 255
-40.31459426879883 -5.194794654846191 -8.223358154296875 255 255 255
-38.94485092163086 0.8156945109367371 -4.766411781311035 255 255 255
-173.98941040039062 -10.272843360900879 -30.964277267456055 255 255 255
-178.18917846679688 -11.524995803833008 -36.653194427490234 255 255 255
-238.60585021972656 -39.229007720947266 -1.0287784337997437 255 255 255
-60.529319763183594 0.1272248476743698 -2.4791598320007324 255 255 255
-65.33501434326172 -8.598064422607422 -14.098151206970215 255 255 255
-70.22767639160156 1.2843974828720093 -5.733712196350098 255 255 255
-129.81015014648438 -6.665573596954346 -28.4475040435791 255 255 255
-132.9386749267578 -7.96116304397583 -28.041372299194336 255 255 255
-132.23086547851562 -2.6240463256835938 -29.309465408325195 255 255 255
-142.8308868408203 -5.483747482299805 -40.5423698425293 255 255 255
-138.1312255859375 -7.904592037200928 -38.620845794677734 255 255 255
-73.64877319335938 -5.214205741882324 -27.016450881958008 255 255 255
-72.46630859375 -5.513085842132568 -2.134927988052368 255 255 255
-62.27347183227539 -5.278797149658203 -6.575266361236572 255 255 255
-63.68943405151367 -7.175204753875732 -23.168405532836914 255 255 255
-151.9088897705078 -12.44954776763916 -12.44381046295166 255 255 255
-74.00199890136719 0.043533071875572205 -10.928413391113281 255 255 255
-94.5064697265625 -9.08083438873291 -19.868492126464844 255 255 255
-142.55104064941406 -8.01068115234375 -38.647953033447266 255 255 255
-131.54466247558594 -3.720353603363037 -41.58327865600586 255 255 255
-131.00869750976562 -3.7332210540771484 -40.984920501708984 255 255 255
-151.45411682128906 -10.769308090209961 -19.972023010253906 255 255 255
-117.685791015625 -2.0941617488861084 -28.01388168334961 255 255 255
-167.6123046875 -2.232196569442749 -9.362037658691406 255 255 255
-174.0411376953125 -3.1758017539978027 -15.785541534423828 255 255 255
-139.87351989746094 -2.8222978115081787 -30.444610595703125 255 255 255
-139.46688842773438 -8.052447319030762 -37.13682556152344 255 255 255
-134.3886260986328 -3.2154343128204346 -36.67537307739258 255 255 255
-150.9288787841797 -6.626922607421875 -41.59112548828125 255 255 255
-51.91284942626953 0.264779269695282 -12.250483512878418 255 255 255
-62.295501708984375 -4.399871826171875 -3.696852684020996 255 255 255
-77.6191177368164 -3.7147319316864014 -30.191150665283203 255 255 255
-68.93219757080078 2.043867349624634 -14.988547325134277 255 255 255
-60.76777267456055 -7.024356842041016 -6.247354984283447 255 255 255
-39.70008087158203 -6.500527858734131 -3.515021562576294 255 255 255
-44.576690673828125 -0.7431491017341614 4.878259181976318 255 255 255
-39.88654327392578 0.8340993523597717 -5.1902756690979 255 255 255
-78.1185302734375 -0.2613028585910797 -12.389198303222656 255 255 255
-71.3713150024414 -6.546370506286621 -15.51683235168457 255 255 255
-27.95751190185547 1.0309882164001465 4.5828022956848145 255 255 255
-26.917028427124023 1.1436964273452759 -2.085573196411133 255 255 255
-38.04452133178711 -3.5212862491607666 -4.5659499168396 255 255 255
-41.20087432861328 -6.383459568023682 -4.719488620758057 255 255 255
-27.297428131103516 -3.6037585735321045 -4.726491451263428 255 255 255
-45.42074966430664 -0.4706605076789856 4.80938196182251 255 255 255
-78.01023864746094 -1.2855539321899414 -7.746031761169434 255 255 255
-34.842411041259766 -3.2125132083892822 1.4266722202301025 255 255 255
-43.36134719848633 -4.030063629150391 -5.1478753089904785 255 255 255
-30.06951141357422 -3.7843563556671143 0.16585412621498108 255 255 255
-132.55210876464844 -2.590787887573242 -29.21305274963379 255 255 255
-178.63034057617188 -12.256815910339355 -40.991825103759766 255 255 255
-178.98880004882812 -6.064218997955322 -18.619237899780273 255 255 255
-155.584228515625 -3.1689059734344482 -32.42351150512695 255 255 255
-41.909976959228516 -6.4292731285095215 -4.615230560302734 255 255 255
-138.07382202148438 -7.950371265411377 -37.6312141418457 255 255 255
-116.4351577758789 -2.065849542617798 -27.712890625 255 255 255
-132.59939575195312 -7.37113618850708 -52.839813232421875 255 255 255
-125.66670989990234 -8.707908630371094 -34.18718719482422 255 255 255
-34.65018081665039 -0.9122808575630188 2.9742164611816406 255 255 255
-29.251514434814453 1.0801162719726562 -2.8902244567871094 255 255 255
-36.445533752441406 1.1084471940994263 -5.976809978485107 255 255 255
-198.53712463378906 -8.347105026245117 -31.693729400634766 255 255 255
-114.9515380859375 -3.0778188705444336 -29.745468139648438 255 255 255
-102.72962951660156 -1.9585120677947998 -22.848363876342773 255 255 255
-100.79714965820312 -1.4717693328857422 -26.276939392089844 255 255 255
-104.36013793945312 -1.6920199394226074 -19.384538650512695 255 255 255
-116.38509368896484 -12.887737274169922 -28.622312545776367 255 255 255
-108.45777893066406 -2.292184829711914 -29.178678512573242 255 255 255
-189.48446655273438 -11.742044448852539 -75.01595306396484 255 255 255
-179.24908447265625 -14.830631256103516 21.06260871887207 255 255 255
-182.68905639648438 -5.110722064971924 18.537059783935547 255 255 255
-174.07566833496094 -3.4238669872283936 -16.56765365600586 255 255 255
-173.3861846923828 -2.689795970916748 -17.675304412841797 255 255 255
-40.51482391357422 -2.5316858291625977 -12.508805274963379 255 255 255
-173.3515167236328 -2.674891948699951 -17.69388198852539 255 255 255
-232.49160766601562 -19.536218643188477 42.261756896972656 255 255 255
-124.10578918457031 -7.142892837524414 -29.087478637695312 255 255 255
-143.8252716064453 -18.022375106811523 -49.114654541015625 255 255 255
-128.20811462402344 -6.525468826293945 -27.683992385864258 255 255 255
-118.98576354980469 -10.109942436218262 -31.895183563232422 255 255 255
-113.4734115600586 -2.4560303688049316 -34.645145416259766 255 255 255
-151.01112365722656 -10.093860626220703 -19.83271026611328 255 255 255
-141.9512481689453 -5.965203285217285 -22.00716209411621 255 255 255
-103.723388671875 -2.1340928077697754 -29.236783981323242 255 255 255
-124.58326721191406 -10.257928848266602 -32.22291564941406 255 255 255
-57.22209930419922 -5.287560939788818 -7.692639350891113 255 255 255
-72.99549865722656 -5.058775424957275 -10.91421127319336 255 255 255
-100.70526123046875 -12.326983451843262 -28.54298973083496 255 255 255
-115.62010955810547 -7.374099254608154 -26.368738174438477 255 255 255
-114.17213439941406 -5.628803253173828 -22.68560028076172 255 255 255
-68.96795654296875 -6.840824127197266 -13.113665580749512 255 255 255
-81.31594848632812 -3.897374153137207 -5.542758464813232 255 255 255
-76.19563293457031 -0.9209747910499573 -18.919885635375977 255 255 255
-103.7868881225586 -8.527108192443848 -25.483394622802734 255 255 255
-227.19015502929688 -15.30385684967041 42.81819152832031 255 255 255
-141.45574951171875 -8.439313888549805 -38.91826248168945 255 255 255
-137.89540100097656 -14.426774024963379 -47.28018569946289 255 255 255
-144.77023315429688 -13.564146995544434 -49.210601806640625 255 255 255
-122.30067443847656 -7.532554626464844 -38.35892105102539 255 255 255
-128.513916015625 -6.537679195404053 -27.653656005859375 255 255 255
-125.79149627685547 -7.080992698669434 -25.353599548339844 255 255 255
-30.852754592895508 1.1114155054092407 0.8835139870643616 255 255 255
-30.063230514526367 1.2140915393829346 1.8805198669433594 255 255 255
-44.486106872558594 -2.837613821029663 -15.771960258483887 255 255 255
-60.08991622924805 -8.196465492248535 -9.342435836791992 255 255 255
-39.7205696105957 0.21970413625240326 0.7832257747650146 255 255 255
-60.5190315246582 -0.5372492074966431 1.9695403575897217 255 255 255
-48.64630889892578 -2.1704399585723877 -9.95645809173584 255 255 255
-46.97945785522461 -0.7738884687423706 -15.786392211914062 255 255 255
-63.10032272338867 -4.718559265136719 -12.6355562210083 255 255 255
-47.7022590637207 -3.5785984992980957 -6.828394889831543 255 255 255
-28.125350952148438 0.41088730096817017 4.998847484588623 255 255 255
-35.080787658691406 -6.6678667068481445 0.6880753636360168 255 255 255
-26.605480194091797 0.8142914772033691 -3.8760457038879395 255 255 255
-173.6846466064453 -3.137842893600464 -19.306379318237305 255 255 255
-173.85879516601562 -3.86785888671875 -17.30242156982422 255 255 255
-30.559778213500977 -3.2668869495391846 -7.867370128631592 255 255 255
-37.72550964355469 -0.34686794877052307 -6.958715438842773 255 255 255
-60.21002960205078 -0.2924579083919525 -6.171796798706055 255 255 255
-29.496116638183594 0.40092459321022034 5.058238506317139 255 255 255
-138.64193725585938 -3.26971173286438 -37.173309326171875 255 255 255
-150.25338745117188 -8.944024085998535 -44.887840270996094 255 255 255
-69.72789001464844 -0.7351653575897217 -19.706159591674805 255 255 255
-68.89675903320312 -4.357834815979004 -9.845365524291992 255 255 255
-39.3636474609375 0.9097088575363159 0.5731624364852905 255 255 255
-84.39106750488281 0.1749143749475479 -16.26529884338379 255 255 255
-98.03919219970703 -4.851646423339844 -39.100257873535156 255 255 255
-82.90751647949219 -5.7103071212768555 -20.827693939208984 255 255 255
-89.02102661132812 -6.149266719818115 -19.113985061645508 255 255 255
-91.37683868408203 -6.662364482879639 -18.118289947509766 255 255 255
-120.82675170898438 -8.583202362060547 -25.087263107299805 255 255 255
-77.92987060546875 -4.413865089416504 -7.082123279571533 255 255 255
-177.5784912109375 -9.823280334472656 -1.965971827507019 255 255 255
-32.822906494140625 1.0905078649520874 3.467015027999878 255 255 255
-106.59395599365234 -1.4390363693237305 -21.548912048339844 255 255 255
-115.82194519042969 -7.7361907958984375 -26.88669776916504 255 255 255
-105.03646087646484 -2.6637821197509766 -30.86948585510254 255 255 255
-108.37586212158203 -2.4454331398010254 -31.950899124145508 255 255 255
-240.44290161132812 -12.552563667297363 -4.188695430755615 255 255 255
-191.94863891601562 -10.154269218444824 -27.998689651489258 255 255 255
-29.34376335144043 1.2194702625274658 1.791185975074768 255 255 255
-26.71468734741211 -3.175661087036133 -3.550720453262329 255 255 255
-42.24763488769531 -2.6412012577056885 -13.943882942199707 255 255 255
-174.16754150390625 -9.11574649810791 -25.144744873046875 255 255 255
-200.92601013183594 -3.3282625675201416 22.21573829650879 255 255 255
-78.3222885131836 -7.113187789916992 -16.00848388671875 255 255 255
-44.73601531982422 -2.9662153720855713 -2.79710054397583 255 255 255
-63.60380935668945 -4.937276840209961 -13.85206413269043 255 255 255
-59.60280990600586 0.40781453251838684 -7.603306293487549 255 255 255
-58.33116912841797 -5.052273750305176 -7.41306209564209 255 255 255
-60.169891357421875 0.23581530153751373 -12.262451171875 255 255 255
-65.2344741821289 -7.749268531799316 -24.888534545898438 255 255 255
-105.07938385009766 -4.86451530456543 -20.337608337402344 255 255 255
-91.10260772705078 -0.6151540279388428 -16.344717025756836 255 255 255
-90.677978515625 -0.9141420722007751 -18.223487854003906 255 255 255
-139.94691467285156 -10.813844680786133 -43.43848419189453 255 255 255
-120.22168731689453 -10.912196159362793 -30.333057403564453 255 255 255
-88.7455062866211 -10.596235275268555 -18.625200271606445 255 255 255
-75.85177612304688 -0.8560768365859985 -19.047473907470703 255 255 255
-39.70911407470703 0.08065667748451233 -12.471179962158203 255 255 255
-57.5692024230957 -5.2119011878967285 -7.012847423553467 255 255 255
-116.67240142822266 -7.64329195022583 -36.75476837158203 255 255 255
-117.37890625 -9.39046573638916 -39.257057189941406 255 255 255
-125.59618377685547 -8.595348358154297 -27.68912124633789 255 255 255
-37.23031234741211 1.1333963871002197 0.7397984862327576 255 255 255
-88.60812377929688 -10.451576232910156 -23.10092544555664 255 255 255
-32.86736297607422 -4.417574405670166 0.919208288192749 255 255 255
-37.77346420288086 -3.09745717048645 -13.879179000854492 255 255 255
-71.82433319091797 -10.247405052185059 2.719775915145874 255 255 255
-36.417747497558594 1.7867307662963867 4.184372425079346 255 255 255
-54.67017364501953 0.11899762600660324 -14.038341522216797 255 255 255
-59.41511535644531 0.5448095798492432 -3.0773441791534424 255 255 255
-75.18016815185547 -2.345834970474243 -4.950031757354736 255 255 255
-61.03965377807617 -4.928338050842285 -3.9771454334259033 255 255 255
-212.98941040039062 -11.994307518005371 -33.64555358886719 255 255 255
-189.80264282226562 -12.20228099822998 -43.74051284790039 255 255 255
-215.24159240722656 -2.581716775894165 -6.826375484466553 255 255 255
-138.20077514648438 -13.463624954223633 -45.46745681762695 255 255 255
-139.17584228515625 -7.909145355224609 -30.444259643554688 255 255 255
-173.99057006835938 -5.8675336837768555 -66.46344757080078 255 255 255
-142.61338806152344 -8.855606079101562 -43.15104675292969 255 255 255
-48.17039108276367 -1.577545166015625 6.735072135925293 255 255 255
-29.229280471801758 -1.1583915948867798 5.172151565551758 255 255 255
-34.20090866088867 -3.97786021232605 1.7743239402770996 255 255 255
-87.33055877685547 -1.2609492540359497 -22.80037498474121 255 255 255
