-156.24795225690121 29.143961834176498 159.815422070706 75 205 254
-156.18979010847295 29.941965405199618 163.25320710263367 74 205 254
-158.3279762701965 29.65886033213008 161.98624508974288 74 204 254
-160.13053888140132 29.331244851212496 160.1757983916885 74 204 254
-159.0061528086772 29.368023284633345 160.28296150573073 75 205 254
-159.60741354449226 29.182755487989628 159.96296077888798 75 205 254
-159.43320528167465 29.270352169403147 160.04279752989407 75 204 254
-154.5654206942588 28.915027134944875 159.6586763027805 74 205 254
-155.66926243674396 28.883077922356666 159.04225815108134 75 205 254
-160.303062925828 29.30521655541451 160.45831293938494 75 205 254
-155.08410727222733 28.57437112869182 158.23639426769094 74 205 254
-157.20414045298273 28.798062548862514 158.4681541159913 75 204 254
-155.83450507085928 29.996895220840777 163.63568198078278 74 204 254
-157.4121468018727 29.58564478543393 161.4234588969245 74 204 254
-154.43461113902424 28.472489589604127 158.1288160810336 74 205 254
-157.75115134087966 29.49839531877582 161.1500565211562 75 204 254
-155.66859765733614 29.75555307843638 162.55370398222843 75 205 254
-156.07283632486852 29.705282781156182 162.22800659392672 75 205 254
-153.75995182844312 28.7229712589903 159.39914284138518 74 205 254
-161.53016805313985 29.608771284279022 160.44839497541312 75 205 254
-154.57744122702468 29.71440591920542 162.70039856633213 75 204 254
-154.72859832187692 29.569528228186115 162.0072495047582 75 204 254
-158.17837569383056 29.0422828434877 159.0966430450329 75 204 254
-159.35594987236266 29.100835810710322 158.92972572639889 75 205 254
-158.19469357899607 29.85864394330137 162.66619671066155 74 204 254
-155.21608152532218 28.823035448732483 158.99721674335353 74 205 254
-161.34181036826047 29.304530064359874 159.39123634463456 75 204 254
-158.9682846741427 28.97347147338246 158.54270160141976 75 204 254
-161.63734800914298 29.347086765094254 159.77402190247452 74 204 254
-161.2586316114561 29.446227343027093 160.01955924804645 75 204 254
-158.00327767369942 29.758348660299035 162.21009681161348 74 204 254
-157.66502389215077 29.261710697629248 160.06947816444767 75 204 254
-158.53088447531172 29.15570674198909 159.49234071196628 74 204 254
-159.32853667091356 29.05253220386073 158.33202944189276 75 204 254
-154.93126357144763 28.763450671700735 158.93759693879386 75 205 254
-156.8493668622814 29.82287667370166 162.41261506956832 75 205 254
-154.86618524051772 30.189573927801977 164.88740266906498 74 204 254
-159.82759184173563 29.31527966020369 159.78967906247863 75 204 254
-159.1474735213357 29.55136226708948 161.44035647648843 75 204 254
-159.74571916092654 29.203259086497408 160.0656036108528 75 204 254
-156.03910815780648 28.313709569598338 156.98311907157242 75 205 254
-153.9241780899466 28.184135349675635 157.42923203543145 75 205 254
-159.34138657639272 29.4748811418522 160.78048554713638 75 204 254
-158.7594289079417 29.278455327828137 159.94826228137094 75 204 254
-158.74411998538443 29.611027920526134 161.69858335929013 75 204 254
-157.3423278867212 30.05423404803004 163.20694949202908 74 205 254
-156.34209155140303 30.1689110594564 164.28416632490092 75 205 254
-155.71820822905218 30.138276920720944 164.32739549490856 74 205 254
-156.13291305930244 30.102453376036514 164.06266421226252 74 205 254
-155.57050597240692 29.887469528839546 163.2058919378535 74 204 254
-158.85019844585364 29.154124335906197 159.27450213692242 75 204 254
-159.56432851833557 29.272211568109498 159.48226563632693 75 205 254
-158.02490477193595 29.196670235629025 159.84203041156243 75 204 254
-161.43279214492952 29.56669460042676 160.80497768034482 75 205 254
-157.79796839739228 29.090505787658596 159.43146637305 75 205 254
-159.99771569139398 29.465713702056817 160.87095985364672 75 205 254
-158.72533466839758 28.930164992339076 158.15413942034584 75 205 254
-157.89492454853632 29.384291249825033 160.50366334382375 75 204 254
-155.46676948327 30.249741717106765 164.85402334679583 74 205 254
-156.57260700236895 30.09824253674644 163.73827700087674 75 205 254
-160.2267671174241 29.28961333246139 159.45842208386415 74 205 254
-159.02244077127682 29.68487084157018 162.1008546979305 74 204 254
-156.00396346148585 29.026413453103054 159.43551027650474 75 205 254
-155.27635637449674 28.897802539742052 159.2803813883339 75 205 254
-155.042507406473 30.277881914155238 165.13671093857937 75 205 254
-158.3585539203323 29.91111612433655 162.93769837988572 75 205 254
-161.9982118360232 29.364433023966924 159.5927846964844 74 205 254
-157.5118612049281 29.409614848005575 160.7526537983468 75 204 254
-157.41516339671958 29.139945136214983 159.675333792281 75 204 254
-154.68890341132192 28.614964461416793 158.52009984463075 75 205 254
-158.07010512831522 29.589715858539268 161.60558091123437 75 204 254
-160.68050606609157 29.24126022585126 159.2339612885662 75 204 254
-161.93973901579383 29.436876098479974 160.16911918574823 74 204 254
-156.61463169168124 29.663689088803682 161.85282778767004 75 205 254
-154.6014105330672 28.321512149458776 157.52440252247408 75 204 254
-160.81395899478275 29.49221808663736 160.36600370920547 74 204 254
-160.23869207647425 29.521200233893325 161.26605417880114 74 204 254
-161.042302391948 29.267473628569412 159.10493919865914 75 205 254
-155.98123060971534 29.871899903424328 162.96523203678396 75 204 254
-158.291947518371 29.285855220470456 160.19984441335868 75 204 254
-155.06176543723194 28.032745587154775 156.59080616109878 74 205 254
-157.0435804087091 29.471894484843183 161.02841802374184 75 204 254
-156.37468640153855 29.860805020215203 162.74787477261646 74 205 254
-157.09905410038235 30.108155688292968 163.7470553716346 75 205 254
-158.6022876024533 29.398968099354978 160.6657832833858 74 204 254
-158.14528091792755 29.46545408838253 160.88742375844808 75 204 254
-160.9843048501799 30.03025918170139 161.0010079396044 75 205 254
-160.29039484921074 29.973676059310787 160.89749782496835 75 205 254
-159.40237842053818 29.827997264714007 160.4153124348145 75 205 254
-160.9042621019334 30.317040023236796 162.74043833014804 75 204 254
-157.99075321391246 30.69416323058354 164.57535796436628 75 205 254
-158.7490152595339 30.394706659377366 163.05263095399113 75 204 254
-162.1720456786867 30.234725780157333 161.87221359791263 74 204 254
-158.22609686825274 30.603363924835545 164.0334232910897 75 204 254
-160.44094054858064 30.1697040554035 161.9495516658409 75 204 254
-156.78077142058012 30.82914563680072 165.4398881617805 75 205 254
-159.85591321195156 30.38782295382527 162.89624067032238 75 204 254
-157.93036991399353 30.510321004541943 163.61896210677088 75 204 254
-160.82418994986853 30.23971557796662 162.85623171883168 75 204 254
-157.91369902212392 30.076185268751402 161.54225487366833 74 204 254
-161.94643499420937 30.197854025366375 161.61445423831964 74 204 254
-159.47522584501095 30.431800541238715 163.20900489207938 75 204 254
-162.07159114493794 30.04879900186708 160.87364410876575 75 204 254
-156.85580579164684 30.544845286358587 163.72753382738887 75 205 254
-155.86403610913365 30.75823752837328 164.99020152981893 75 205 254
-155.26531133860857 30.551007922134616 164.16982720453092 75 204 254
-159.04510789748764 30.486684708940743 163.47276482808627 75 204 254
-159.6467834246562 30.326177309083455 162.5959901503703 74 204 254
-160.52687648224028 30.378591047269637 162.97883807863593 74 204 254
-158.8554426063849 30.60680961243846 164.04132199899865 75 205 254
-160.04608393995179 30.253687644912947 162.30383624703856 75 204 254
-155.05226749816416 30.8525335150917 165.5431018728759 75 204 254
-157.10512190979722 30.573037271017775 164.16074262152648 75 204 254
-154.7202775496735 31.043801579598142 166.8169060007083 74 205 254
-158.4962956919106 30.32001758587176 162.67297376813804 75 205 254
-161.3255203118308 30.32380157737678 162.43796934226447 75 205 254
-156.36237282955597 30.89225843019017 165.72774854414232 74 205 254
-155.1005179709535 31.07858664385992 166.52693879113264 75 205 254
-157.17357544711334 30.78409588958324 165.14967528551762 74 205 254
-156.14789611245817 30.831546951075637 165.4157699469693 75 204 254
-155.7262853938231 30.895554582814743 165.67918099831067 75 204 254
-161.14086493022285 30.254168349095725 162.140278938637 74 204 254
-156.97033389981922 30.732790882931504 164.87311485669193 75 204 254
-156.92281995426208 30.462165572394994 163.3152915717214 75 205 254
-156.60852075664724 30.453084038051948 163.39298043250352 75 205 254
-156.41795104980986 30.572689621022782 164.0376992596044 75 205 254
-163.00796318939138 30.212049106032445 161.29639487675917 75 205 254
-159.04616606719483 30.10903908075536 161.73122425425615 75 205 254
-154.88611834042933 31.00561050241845 166.23418751286212 75 204 254
-155.46414223228973 30.816986739877418 165.28361494201062 75 204 254
-159.57431860169112 29.91139514405127 160.7655688498064 75 205 254
-156.683157745812 30.647604991320538 164.44261417916314 75 205 254
-159.46862147252483 30.095829189917254 161.42246194894813 75 205 254
-161.11066686882046 29.884872760907534 160.35265607271114 75 205 254
-160.13112201178268 30.08491684694517 161.5458605326122 75 205 254
-160.32165562006384 30.32659068866767 162.6704511667084 75 204 254
-155.32635142256368 30.94226585831243 165.93793932544128 75 204 254
-154.63697784626902 30.957489222653372 166.4869544787756 74 204 254
-155.98771005968155 30.966873615769256 166.00655481062986 74 205 254
-161.2278400891853 30.0960411265875 161.36757991028878 75 204 254
-158.8981638587489 30.241180096545108 162.40183420199378 75 205 254
-158.37595231010224 30.451381706826506 163.35664474324716 75 205 254
-161.5920249610894 30.21221447111007 161.80945671843529 74 204 254
-159.3188834903139 30.186573639327783 162.1142182077851 75 204 254
-160.11088784895313 30.457148206176058 163.2578066291087 75 204 254
-159.72357129341725 30.128864111669703 161.82231230281798 75 204 254
-160.72322556249645 30.281593474079177 162.42935296217337 75 204 254
-158.62563419995666 30.153069114115414 161.9923368272723 75 205 254
-157.63889656307856 30.496940618500425 163.19371668785158 75 205 254
-161.75614493095094 30.29878908813028 162.13324145923545 74 205 254
-159.86826864174645 30.022160447169355 161.18712267519453 75 205 254
-156.27127962216184 30.681625842339685 164.70349542154293 75 205 254
-157.2619278773427 30.541187231980146 163.51589209378656 75 205 254
-160.79716288370054 30.128301535849378 161.66381699576974 75 204 254
-158.00841108404092 30.17988011969546 161.8828007439242 75 204 254
-163.3074670634623 30.20587339049534 161.10763408552793 74 205 254
-157.40674913346862 30.69017695424421 164.63217708687841 74 204 254
-158.07465592302367 30.436784033276062 162.88574035848154 75 205 254
-157.68798975014164 30.858444006913828 163.57847857743786 74 205 254
-158.38894501703322 30.659716033925655 164.3168529262926 75 205 254
-157.812863061722 30.646463695548434 164.30260258546974 75 204 254
-162.37059886064446 30.16460997229498 161.25774312761757 75 205 254
-155.5407852824627 31.01279091062066 166.25549030572688 75 205 254
-161.33602455219324 29.98938861272122 160.74554580801143 75 204 254
-161.8270224456505 29.954091386669344 160.5289931205362 75 204 254
-162.57512536837442 30.26584180179065 161.6034472565018 74 205 254
-163.16481141285016 30.180428833875418 161.0071344169899 75 205 254
-154.66955449151897 30.89618690230435 165.83827278966345 75 204 254
-162.80709150507323 30.143802551651692 161.06801230772743 75 205 254
-159.18720801286037 30.346239247574267 162.84066108131606 75 204 254
-159.71710180345664 30.49360843697417 163.5105422137039 74 204 254
-159.25277380095054 30.567958346235194 163.80124941006 75 205 254
-161.4311053028194 29.84493161696601 160.2219431321594 75 205 254
-160.7201087902805 29.9555229148599 160.60909966974543 75 205 254
-162.1500057749854 29.947393441601367 160.48909520427503 75 205 254
-162.2947434693543 29.983830472261953 160.63226066229356 74 205 254
-157.5215935157937 30.588618783445952 163.85987862049035 75 205 254
-158.1690571877605 30.264825044680098 162.268193422158 75 205 254
-156.33847725775595 30.35884397506203 163.15377428016512 75 205 254
-156.5836903537972 30.767680186912116 165.12806097202443 75 204 254
-155.78715285264684 30.55204283543423 163.9815545885604 74 204 254
-160.80045707922218 29.787056687689656 160.01230752167933 75 204 254
-158.62927254193568 30.528462035996355 163.7447048339131 75 204 254
-161.68026036186197 30.099112245677215 161.14732692510665 75 204 254
-157.58647434928196 30.75464863071267 164.91117076110692 75 205 254
-160.567529716377 30.059652664666004 161.28713662298878 75 205 254
-157.19943828421708 29.728360638931356 164.0392872562983 74 205 254
-156.4378282856821 29.195214834021606 162.15533796501808 74 204 254
-161.72037221995737 29.285190598696367 161.36671283419224 75 205 254
-156.79855388255896 30.372620962385326 166.7181529569407 74 205 254
-158.14216058760314 30.248826841722803 166.23229801965323 74 205 254
-158.72397044750466 29.253591187324258 161.91021307224935 75 205 254
-156.19984895086736 29.0927282608497 161.77381203257045 75 205 254
-158.85595834700962 29.525536644022615 162.97415488823356 75 204 254
-160.5843065845565 29.95392982880172 164.6542283272823 74 205 254
-157.1307313137137 29.464039898165346 162.98493220053217 74 204 254
-157.73137586791566 29.935528757102734 164.81928171069015 74 204 254
-159.80501013162592 29.265789957831004 161.7354257531568 75 204 254
-157.61660134833525 29.68807300015284 163.81030597065046 74 204 254
-162.64741105192974 29.441131588108885 161.81368453943685 74 205 254
-160.3794473457202 29.13430925874734 160.90632934790497 74 204 254
-156.10223868257492 29.296824760920604 162.447973354547 75 204 254
-161.08408408850624 29.536787578930948 162.70332518322581 74 205 254
-162.87269235064576 29.611145729535888 162.5951045832175 75 205 254
-156.33633113168128 29.87099644961495 164.58830404751762 75 204 254
-159.5702690648988 29.580815888005386 163.1562922302855 75 205 254
-157.89661003064504 29.79131124459059 164.22777182069018 74 204 254
-162.50607839953997 29.6635290971427 162.92049531291386 74 205 254
-158.60651447839837 29.808334843658344 164.35058072701236 74 204 254
-158.1426570005238 29.882286344914405 164.6138766904539 75 205 254
-159.97884385158048 29.149209043245758 161.1327682105929 75 204 254
-158.2828922546418 29.30922419321994 162.17979962350722 75 204 254
-160.02373462388573 29.03578220367807 160.62628941293906 74 205 254
-155.1984371445172 30.497287529914672 167.1921786424212 75 205 254
-157.8792860411337 30.17714190858334 165.91916068302646 74 205 254
-162.90520375701126 29.51607326112397 162.08285405762211 75 205 254
-161.62149930251556 29.737407949216056 163.5464628815505 74 205 254
-159.1405847563442 29.622289580978265 163.35613468685233 74 204 254
-155.5277147619367 29.530477480487622 163.39009658080806 75 205 254
-158.85624556983657 29.906048481464044 164.77678878982118 74 205 254
-155.3631245637714 30.191187516369162 165.96070900717285 74 205 254
-160.34863861563892 29.886733022536657 164.36202134250536 75 205 254
-158.97790502161178 29.3280583937171 162.24577416790208 74 204 254
-158.6023654158865 29.421969332854964 162.57352602884555 74 204 254
-156.75981838897602 29.339605824532875 162.58675334155515 75 204 254
-157.4700160043792 29.84963705536645 164.46881539074172 74 204 254
-161.90769391825296 29.481011848427237 162.1516560999375 74 204 254
-161.02509311341277 29.211949008187986 161.1306101971956 74 205 254
-160.6636247511899 29.21186175188944 161.19927825230388 75 204 254
-158.29049669794034 29.709221551342083 163.96525020963742 74 205 254
-158.6963909155647 29.64289235849638 163.53833855044832 75 205 254
-157.21319345851043 29.277443047772586 162.31733615071528 75 204 254
-157.7669016581727 29.49443452591027 163.13831135022377 74 204 254
-159.27707989420114 29.068682113810823 160.93642642471877 75 205 254
-159.98892986598386 29.502534792504726 162.83643072794803 75 204 254
-160.08182684649498 29.36530500585686 162.1382857406159 74 204 254
-156.3434096435908 30.348062975540312 166.3695832032866 74 205 254
-161.97525729676403 29.374026446176153 161.60009694176682 75 205 254
-157.66837718564105 30.31449240723133 166.52373434987283 74 205 254
-159.02378507400354 29.78569542970629 164.11960949215992 74 204 254
-155.95830686695632 28.990647999943135 161.35027726628107 74 205 254
-156.55195078908162 30.42638916228701 166.71936555717886 75 205 254
-154.88438456982814 28.65926258062527 160.43316614364724 75 205 254
-155.03214759833514 29.307353205762478 162.58393395079122 75 205 254
-157.90522067381568 29.359140838721178 162.42492324832233 75 204 254
-156.77730567273818 30.505248361046526 167.1058335137143 75 204 254
-156.07480589450245 28.294704199246937 159.01115743675228 75 204 254
-156.9000839921775 29.61415695035559 163.67204055234723 75 204 254
-160.21202271709296 29.58184840525901 163.2185412582952 74 204 254
-155.29782969789227 30.56707911006963 167.50196953175305 75 205 254
-158.40742403001428 29.561293804048667 163.23847588363913 75 204 254
-159.58503161831544 29.172091159826877 161.34987762028274 75 204 254
-162.17497308458638 29.564635345540477 162.55293518469102 75 205 254
-157.47731024139097 29.38375405431446 162.71676879841186 75 204 254
-160.92572398467274 29.63524799873102 163.33412081096253 75 205 254
-161.3435239174215 29.28950136380276 161.37810554227354 74 205 254
-158.16916405772378 29.474898177118188 162.85842531454398 75 204 254
-155.71903777440235 29.645857525520597 163.79454645185893 74 204 254
-158.83349859078044 28.8419792068888 160.17373467199323 74 204 254
-157.05699176776915 30.305204871938237 166.50085264124164 74 205 254
-155.92090122325706 30.379227487216777 166.59645890576778 75 205 254
-158.35522678861753 28.727932340580352 159.89842864256605 75 205 254
-159.72404612061214 29.396369474525443 162.37219345160005 75 205 254
-158.64032625721686 29.024479430044934 160.7916242262529 75 205 254
-158.05434554117494 30.06132901257567 165.32847307989354 74 205 254
-155.81604536135956 30.532583183717612 167.25045146184476 75 205 254
-160.10867649233091 29.77698152367588 163.91968523409315 74 205 254
-162.2986109799744 29.454720340585013 161.89875061665413 74 205 254
-156.8970568719909 30.042405416855857 165.39539016801047 74 204 254
-157.30819499128208 29.58317701292805 163.41091114855067 74 204 254
-161.86684364072414 29.78808471659351 163.6883875265143 74 205 254
-155.658767113049 30.26199494133611 166.2066264700195 75 205 254
-156.35039068358248 29.4028769076418 162.85714331868604 75 204 254
-157.266337986232 29.954548883608876 165.10993879268372 75 205 254
-161.6454159373989 29.394085894528164 161.75957343413234 74 205 254
-159.3960166447469 29.313959433646332 162.04288138204288 75 204 254
-160.63645141777323 29.539202035972387 162.9304374629314 74 205 254
-156.79747999011724 30.22059406036135 166.09707312128057 74 205 254
-160.80220083195465 29.438902316286843 162.298708758125 74 204 254
-157.18725467913777 30.381096959045447 166.8488925416189 74 205 254
-159.13367311535924 29.486411628435597 162.81817760682281 74 205 254
-159.41881908551892 29.735626288000386 163.80350848146827 74 204 254
-162.60589037188862 29.53596348658039 162.23798364315454 74 205 254
-156.55812485636648 30.121431142263408 165.6442005544539 75 205 254
-156.2175047591625 29.783290465701928 164.18474970611982 74 204 254
-158.06771605388593 29.587550591662968 163.4800277363334 74 204 254
-158.09296221579774 29.829171875627637 164.86970548377028 74 204 254
-162.73989622912458 29.776112993787308 163.69824487118785 75 205 254
-157.74656538369763 30.213561867693016 166.68278361703844 75 205 254
-157.75119370115783 30.127006560322574 166.30918129320617 75 205 254
-158.20512370682556 30.077263514352715 165.86781431533356 74 205 254
-157.25996429099746 30.6642899597304 168.15255586220735 74 205 254
-158.69651890130945 29.62310576120828 163.9485128703089 75 204 254
-157.30444634328273 29.91523721010726 165.42319297872314 75 204 254
-156.51184117786028 30.331017210522216 167.0376051308981 74 204 254
-162.9690364357424 29.88059122237475 164.11498750099838 74 204 254
-156.407789431233 30.718661201736197 168.72348556611604 74 205 254
-157.68054484598622 29.870888980272497 165.17680063824136 75 204 254
-159.87285469976047 30.253614040952446 166.5022027979564 75 204 254
-161.07156017336996 29.475872568096797 162.94296446578826 74 205 254
-161.00777468033766 29.88503231994181 164.76920422776223 74 204 254
-163.4525972286819 29.67462159277132 163.25232584069903 75 205 254
-155.84502969889448 30.643764765379508 168.61252740531614 75 205 254
-158.05499566420153 30.02287844812378 165.6065547957324 74 205 254
-156.34857084473728 30.478699274445983 167.69435264859007 75 205 254
-159.00545345139656 30.109463854647228 166.00437298232922 74 205 254
-156.91640655044586 30.697616152059794 168.38194610995066 74 205 254
-157.94911567063167 30.192810519378057 166.54948040857067 74 205 254
-159.26550644108787 29.389308492802293 163.02799260765653 75 204 254
-158.5831038628103 30.085456938980116 165.83518608002822 75 205 254
-159.1792373343578 28.967366650701166 161.31445266392666 75 204 254
-159.38450748120073 29.239906351812927 162.35358110067273 75 204 254
-161.28689963759646 29.986937578467078 165.20981820371827 74 205 254
-161.1268096790696 30.092016460031143 165.73719783680193 74 205 254
-160.53175082004208 29.272849681422755 162.22396232560652 75 204 254
-160.48986550367488 29.680119945807355 163.93001764245412 75 205 254
-159.05748790793146 29.996024617568565 165.49912487079735 74 205 254
-160.41923454428195 29.860896207717357 164.67990423072305 75 205 254
-159.36176645883063 29.678667626282184 164.09497002212123 75 204 254
-157.38869361402737 30.209082318381157 166.50273083327733 74 205 254
-158.2405282463061 30.066098278103894 165.85760659379955 75 205 254
-160.77043195955216 29.361922155581016 162.55847222494404 75 205 254
-157.36664257962062 29.76887853557371 164.78314188610562 75 204 254
-157.115757531399 30.116896556368985 166.10892375695056 74 204 254
-159.98584282096482 29.750716131678576 164.3031224429338 75 205 254
-156.1903930726552 30.635843558644638 168.42427592111986 75 205 254
-158.1712724969141 30.25260359858543 166.723348829127 75 205 254
-158.804262179047 29.87609252595987 165.00966089161147 74 204 254
-163.59070138260563 29.900250130778737 164.1359987151357 75 205 254
-159.81008255855022 30.15395371556954 165.9495416103304 75 205 254
-162.83857156604108 29.603460651712975 163.05640285392957 74 204 254
-156.5993989930771 30.603406428551462 168.1206805429165 75 205 254
-162.5519155690813 29.865709608506716 164.3803360863227 74 205 254
-160.1037307266822 29.30113370286851 162.47826784126283 75 204 254
-162.33465806220138 29.90225207080885 164.94934096297507 75 205 254
-155.51465809820456 29.89863721290193 165.39306936012696 75 204 254
-160.30074180237895 29.411000906631173 162.87585231312977 74 204 254
-157.54013907390737 30.489521383703703 167.56525312112635 75 205 254
-157.57816052204507 30.011028063585623 165.84393265710213 75 205 254
-159.10552212920334 29.582002506331047 163.7152240230081 75 204 254
-159.76142095989474 29.60565028900484 163.80976402202097 75 205 254
-157.25514656041972 30.39064126343769 167.15104407744394 75 205 254
-161.51549212522286 29.353905265800062 162.28439159397982 74 205 254
-163.40664772186727 29.82203141789919 163.8543525567266 74 205 254
-160.54369918844515 29.521989359125918 163.275368627035 75 205 254
-158.79598682431998 30.173011800104387 166.17187130491203 74 205 254
-160.66769756929477 30.149945931769867 166.0368306221759 75 205 254
-157.03386982852498 29.829230294861286 165.02841790627002 75 204 254
-158.75304730416929 30.325310972875737 166.80158386750912 74 204 254
-155.34637298610593 29.742866780528004 164.8443915966734 75 205 254
-157.07507596342055 30.549037990926145 167.76569986507022 74 205 254
-162.73153007832502 29.918294547907145 164.70470909324962 75 205 254
-160.18738444320775 29.563132815057234 163.5296814306247 74 205 254
-157.56823164750574 30.13782549405413 166.3146849645327 75 205 254
-156.0047183608773 30.53591785292288 168.01409516882086 74 205 254
-159.9656681323913 29.894751835099193 164.96296556971373 74 205 254
-159.65287037341767 29.77251527184613 164.46024972257754 74 205 254
-157.65074856644654 30.292833825856498 166.91584180102916 74 205 254
-158.5271158967287 30.1954649193693 166.31395423057464 74 205 254
-160.23989618003375 30.200968931509617 166.27363603990182 75 205 254
-155.88564392103189 28.39585675276332 160.31828880559232 75 205 254
-160.17584509102676 29.994679020702737 165.34409330161486 74 204 254
-160.0453201582611 30.14353560895005 165.97910560738444 74 204 254
-158.5456045699594 30.403165621754418 167.3582285558033 75 205 254
-158.34114465766987 30.32753286384057 167.04931245837577 75 205 254
-161.8152223811295 29.432617904934197 162.56773230978106 75 205 254
-159.31484485697675 30.335436284996582 166.86628392151573 74 205 254
-155.75351924836866 28.40420355712895 160.3143394642332 75 204 254
-161.52012553071046 30.052056744591088 165.4962909213765 75 205 254
-160.6172593315889 29.94563054053243 165.04061799275027 74 204 254
-159.56144705454514 29.08404791184236 161.67181180858134 75 205 254
-157.33787763341965 30.055451482466456 165.9148242015058 74 205 254
-157.58166218874803 30.14065209978853 166.3714453858313 75 205 254
-155.40817131766832 29.8072711015846 165.01996532323278 75 205 254
-163.8278105594052 29.75520774137412 163.59844494541255 75 205 254
-159.80521543254807 29.18959355220209 162.07514112287248 75 204 254
-160.44571945078607 30.07897088345944 165.72663471835122 74 205 254
-155.41905904470914 29.716572596375002 164.5761948346435 75 205 254
-160.85335301635797 29.25181831445242 162.0400675860185 74 205 254
-158.48504023567097 29.77451390383911 164.63585756225717 74 204 254
-160.90363607824332 29.80674025203468 164.41763859114337 75 205 254
-158.9815783088742 30.388797439483877 167.07406481602123 75 205 254
-155.27685177140273 28.64072688408801 161.19009388661453 75 205 254
-157.02665363580692 29.95307208735265 165.45627489520325 75 204 254
-155.7756375588352 28.359226688691635 160.204968997381 75 204 254
-159.52484028486413 29.96664645073766 165.23769226633772 75 205 254
-158.91179800062142 30.198841852380482 164.3620945539858 75 205 254
-158.2542329328901 30.707329604464057 167.02216695770858 75 204 254
-162.52220898310787 30.26211738582899 164.40379713826422 75 204 254
-163.30504544588675 30.193251360424824 164.08214674985234 75 205 254
-162.59528045315355 30.41432714650648 165.44078132112304 75 205 254
-158.54608727918784 30.3061103725801 164.7103559395499 74 204 254
-156.86822084042595 31.017599345055245 168.49949383565357 75 204 254
-162.7897019923639 30.356679470372207 164.85259694578184 75 204 254
-158.3483986545376 30.511415425149746 165.9669856052459 74 204 254
-157.73824347863476 30.73085922455244 167.16766305443872 75 205 254
-159.02373392080918 30.900119826067723 168.19438045412812 75 205 254
-160.73025175767378 30.1674126511942 164.3864787493107 75 205 254
-160.0142871179355 30.535800540090236 166.0068620928601 75 204 254
-158.1500997503154 30.82680474387402 167.72916799053175 75 204 254
-161.53192633198472 30.08956327065135 163.8415761820806 75 205 254
-162.16676632714132 30.454883831409 165.76453207467955 75 205 254
-163.70310935868312 30.485954042139056 165.28747637883617 74 205 254
-157.31943438208606 31.13745048522974 169.2449036849194 74 205 254
-159.8182375844537 30.116135754130113 163.9226847963319 75 205 254
-157.48273779971208 31.017879286764078 168.67143336024526 74 204 254
-163.06522975970063 30.419401360352232 165.22128377408927 74 204 254
-156.58876648282472 30.936011681785907 168.06485630864188 75 204 254
-162.82744540698278 30.526381813343352 165.84238324719553 74 205 254
-157.51444307469575 30.91619971367393 168.2142543082378 74 205 254
-161.6438132083256 29.981903366970457 163.28981533993363 75 204 254
-162.37929992723787 30.35426673682513 165.10703248720776 75 204 254
-162.3158613007449 30.18022015930954 164.02136124727633 75 204 254
-158.1854331582268 30.59289383020816 166.31206811898807 74 205 254
-157.61462964192106 31.094688032756686 169.08353084702182 74 205 254
-161.31833961098383 30.010886515126412 163.44078221276598 75 205 254
-159.1935388539616 30.279097524449654 164.74382453918503 75 205 254
-156.27388287305146 31.169888992060283 169.4417932119407 75 204 254
-158.37578825318096 30.477538462287534 165.72402623869363 75 205 254
-158.34258646908057 30.450970363487556 165.28210378834348 75 205 254
-158.4780357031355 30.360958410326646 164.93202400547497 75 205 254
-160.8396040455239 30.39367719100499 165.46962946342776 75 204 254
-160.88222662556677 30.0530697056072 163.70731071298974 75 205 254
-157.41228777723433 30.79571209958576 167.52381082427314 75 204 254
-160.13863049691722 30.382129041144715 165.30654857912873 75 205 254
-162.35519662908686 30.061377573702053 163.57129074801153 74 205 254
-160.29436026685372 30.7984310155867 167.3855654813869 75 205 254
-158.61408066417306 30.457023407401795 165.67780716714185 75 205 254
-161.9584821336604 30.378511283575087 165.39608082389827 75 204 254
-159.39282771850444 30.70126869694196 166.93433504698888 75 204 254
-156.7476463829643 30.804699828341878 167.40092952658898 75 205 254
-162.4521684225429 30.519532795759453 165.95794365257393 75 204 254
-161.09304823805945 30.487070575760228 165.8902160299378 75 204 254
-155.7409868921872 31.145161369996472 169.2646361142504 74 204 254
-162.00775866271127 30.059100731517994 163.58941306033392 75 204 254
-162.9789492699132 30.220199565029503 164.1949856547733 75 204 254
-158.86259021722913 30.533210111963193 166.09261889902302 75 205 254
-163.49702552044633 30.426767193256616 165.02691857673307 75 204 254
-157.98053824359337 30.63898409450905 166.58073940283967 75 205 254
-159.3088342854034 30.481851954990834 165.84677696926263 75 205 254
-157.0236566655459 30.87416789821489 167.81966260726412 75 205 254
-161.35841051813506 30.578213671760246 166.30690458464625 75 204 254
-157.25579957710485 30.943740614220676 168.2405155897768 75 204 254
-159.62219591959868 30.196908975450107 164.47726226250177 75 205 254
-160.30740184946617 30.21125187773526 164.6366177950726 75 205 254
-157.7331043511506 30.885334608492116 167.89668937912586 75 205 254
-161.14900880634877 30.128042452884824 164.10751530962307 75 205 254
-156.902501014807 30.660345112826235 166.68569632942598 75 205 254
-157.72060150525823 30.874443670672534 167.9955047446864 75 204 254
-159.8539856305668 30.667569483342046 166.68076412143864 75 204 254
-158.72031176975327 30.653063117490145 166.76480357261772 75 204 254
-158.45218103376118 30.573449041301206 166.3482072649198 75 205 254
-163.23366276580413 30.308488805057294 164.57599340768377 75 204 254
-157.58980123784906 30.680343871528322 166.86991451665176 75 205 254
-157.89966510673565 30.862451193299115 167.7461767002624 75 204 254
-160.0392626652188 30.137355686597143 164.21756220217657 75 205 254
-157.67981471239708 30.950577957222624 168.3223541987359 75 205 254
-160.53794697117587 30.685985857872943 166.83017641569194 75 204 254
-156.70902859055687 31.12930713378006 169.14267889826766 75 204 254
-160.98644419210856 30.245299648586148 164.7976673630297 75 205 254
-159.65245191237892 30.7712393769698 167.3380469644514 75 204 254
-163.62408564001018 30.264161458733273 164.3642416811232 74 204 254
-161.78655402705587 30.185775140250104 164.24384450406166 74 204 254
-157.11831503519696 31.07880459578733 168.90905844182265 75 204 254
-155.87538748160955 31.20480667528654 169.69670808098974 74 204 254
-156.15829216814686 30.99249836451393 168.31276243009142 75 205 254
-158.12671895025076 30.72410374322444 167.04751516665053 74 205 254
-159.70668300429264 30.437955296078318 165.56538865539693 75 205 254
-159.45333764828746 30.359557340377986 165.15387539357897 75 205 254
-156.4281894364902 31.072311096256236 168.7735636637958 75 205 254
-160.0789679734602 30.736454692214227 167.07786233382814 75 204 254
-156.00049969953514 31.102757933815976 169.01371089925013 75 205 254
-158.39706163248883 30.90153906505023 168.13064110490393 75 204 254
-156.47488486320836 31.238608193150473 169.76598505523748 75 205 254
-159.87306245286013 30.289322452279624 164.89830150819182 75 205 254
-158.57465413160472 30.787119156441822 167.26429158270162 74 205 254
-160.4266450319851 30.486246737078897 165.76200577697458 75 204 254
-163.81670803579337 30.340047912859603 164.65521982136312 75 205 254
-159.43923707725097 30.86217547732248 167.9457415286925 75 205 254
-163.91790077776906 30.459917858202303 165.1061097397585 75 204 254
-158.1999323992475 30.649161236427535 166.68951555446742 75 205 254
-160.9395900381402 30.642919052208153 166.54557835374345 75 204 254
-160.2456513823875 30.03985486616991 163.57788704514948 75 205 254
-155.80445618171217 31.052897909370607 168.5705789355162 75 204 254
-162.64889517322203 30.126960578746193 163.82896099291386 75 204 254
-155.7028649323782 31.25979057046635 169.99153587183088 74 205 254
-158.44924158373786 30.462983675207408 168.89807932243679 74 205 254
-156.7653719017126 30.995166583821703 170.91049928240415 74 205 254
-158.80017926357039 30.31206209059115 168.23859058885859 75 205 254
-156.08620636209213 29.001861349174376 163.66197258303 75 205 254
-162.6043408570175 29.854424149444295 166.11007577875301 74 204 254
-157.22300917360522 30.882498189154727 170.65693520268508 75 205 254
-160.58648250521225 29.343676294107414 163.9578810840766 75 205 254
-157.5544150800174 30.322252250147006 168.33203971192975 74 204 254
-159.04794465962783 30.390862851917294 168.59260710428498 74 205 254
-161.30560973734748 29.991819188436438 166.83571870522178 74 204 254
-157.85228288059844 30.43552722805446 168.7830120150099 74 204 254
-157.43337400417698 30.73499666231912 170.10324809359344 74 205 254
-163.9348546155942 29.966815103911475 166.4812504734041 75 205 254
-159.99947626972053 30.186844923566444 167.55298290227947 74 205 254
-156.6926953388034 30.482867517530376 168.81293366698628 75 205 254
-160.96365420492378 29.629249160106205 165.29974175498666 75 204 254
-159.09724233274756 30.271345352841493 168.03310491772424 74 204 254
-163.81141887034093 29.795863957550736 165.67254821542014 75 205 254
-162.40287138717923 29.971440732294695 166.75668132342 74 204 254
-160.24648463961177 29.329918571795567 164.05283959122767 75 205 254
-159.8703827925246 29.628145024245704 165.3694529832494 75 204 254
-157.98284676330644 30.271712423936098 168.06891667281332 74 204 254
-163.0686600747851 30.001150668386902 166.9294558852949 74 204 254
-158.7506472282743 30.57473518376714 169.37921639650193 75 205 254
-159.72663299332862 30.080556074067264 167.10237388870638 75 204 254
-159.06345157072707 30.030090633766967 166.9910375402133 74 204 254
-161.13394265176998 29.499083427877732 164.63179294821765 75 204 254
-161.7848281420099 30.19158826533607 167.68608875962292 75 205 254
-157.9386859878508 30.015423764926915 167.01160769910632 75 204 254
-157.62974577063937 30.79132075445114 170.41726706383145 75 205 254
-157.03530442239997 30.842622485037744 170.34705963763554 74 205 254
-161.6517129188913 29.69041501517396 165.48526295735985 74 204 254
-162.44287177288322 30.1770144501307 167.7292106809458 75 205 254
-159.29020753947577 30.105073246699916 167.32408403558725 75 204 254
-159.2025144185893 30.52245408952519 169.14383917121518 75 205 254
-156.29781837433376 28.586259975520043 162.42119079879376 74 204 254
-162.65500728030221 30.059706478675174 167.19814301183962 74 205 254
-157.0862300538979 29.04384569252698 163.59030526743751 74 205 254
-157.20161966295268 30.661950654798545 169.6730484918046 74 204 254
-157.3873488747147 30.493310060807232 169.03260344838165 74 204 254
-157.30992573776513 29.17994231513538 163.97386647998513 75 205 254
-158.20534062860523 30.128565150073804 167.4493791543103 74 204 254
-158.91844998397178 30.64557406347307 169.7020727520579 75 205 254
-160.0945098056083 29.73884389954284 165.8084134608789 75 204 254
-162.18224484450934 29.887697216718827 166.35200025448358 74 204 254
-158.60404080173487 30.341991616367224 168.347228920058 75 205 254
-160.85468509268318 30.03938042187975 167.0604984047689 74 205 254
-163.6464668388935 29.879059018180282 166.04288383126988 74 205 254
-160.0542470524751 29.475511268608518 164.71133206198442 75 204 254
-159.81810710013497 30.321789089028247 168.22646905216095 75 205 254
-159.5491169696213 30.220778705442125 167.80963215889824 74 204 254
-160.73887830595282 29.53216996129279 164.89799688873268 75 204 254
-155.83851256550645 30.569893071310155 168.95715262950404 74 205 254
-161.847645762338 29.580425448249088 164.83761551024338 75 204 254
-159.4352583579074 30.486197016688568 168.97220166555587 74 205 254
-158.2900060115817 30.38745643972099 168.5344059023339 74 204 254
-159.78604546050778 30.525232848296458 169.20310983324043 75 205 254
-156.9310146423723 30.58163763480777 169.24533843962683 74 204 254
-161.98627584778274 30.014826464522258 166.99428287273435 74 205 254
-159.61286012041379 29.520786019669643 164.96175660305008 75 204 254
-159.8108038531629 29.3643808968624 164.30449976939158 75 205 254
-158.03299648986828 30.520316673145157 169.18195307779584 74 204 254
-161.26133557408582 29.451254289036747 164.26124119554478 75 205 254
-160.35473181318912 29.843389511795806 166.23289449465847 74 204 254
-161.0358312178359 29.88676083126306 166.41189182657155 74 204 254
-156.0031385653093 29.514330974101583 165.3486478587146 75 205 254
-156.417864966102 28.45703549510035 162.0329387234345 74 205 254
-161.08420949049787 30.131992258111737 167.47296361848015 74 205 254
-159.18120133090287 29.59253271494098 165.20959476113103 75 205 254
-163.2756849808261 30.06795001685692 167.28681692336187 75 205 254
-159.4271716653311 29.699910459291498 165.6158935113441 75 204 254
-159.3699507650452 30.360969810052282 168.44958038624065 75 205 254
-160.22998271848635 30.491344662877744 168.961850191442 75 205 254
-157.65402447209615 30.57071370280802 169.43025288523592 74 204 254
-163.02230767043594 29.830976717312613 165.86674109689181 74 204 254
-161.53821625622433 30.085191726526915 167.23405750047917 74 205 254
-160.66792509447635 30.20318907531334 167.73249655430283 74 204 254
-156.43053044039985 28.65169180038645 162.54227780956631 75 204 254
-159.2497344731722 30.42371695890106 168.69566379048865 75 205 254
-159.68665840723546 29.80689671560073 166.04485393810631 75 204 254
-159.24459363891214 29.88019110764315 166.28279671240432 75 204 254
-160.54618672395512 29.67834682599913 165.5568927925156 75 204 254
-159.6575616827524 30.457460036184322 168.88038013640409 75 205 254
-158.31986353300908 30.616245161906157 169.59965217898917 75 205 254
-159.91816959561623 29.906732442403552 166.47146096301208 75 204 254
-162.22825259649207 30.115361765373883 167.437454947934 74 205 254
-159.39089012681777 30.587271123357347 169.44549880354933 75 205 254
-156.0523953118762 30.176820497475955 167.5805292123838 74 204 254
-155.96375755632306 29.929805669791534 166.6798072653787 75 204 254
-158.32218896062847 30.256365778070062 167.97365111032047 74 205 254
-163.27975368170297 29.910771931424105 166.27126641513632 75 205 254
-158.63166966475387 30.08083779592947 167.21765262095306 74 204 254
-157.87462184380448 30.671485005223268 169.89627732702468 75 205 254
-156.57358440930682 29.410832797415893 164.89305013057617 74 205 254
-163.52460922039586 29.99668704946821 166.6908609536218 75 205 254
-160.15724389559978 30.003111829513102 166.88903972140344 74 204 254
-158.9019853374521 30.43138974088078 168.76260442086704 75 205 254
-162.84482904622567 29.931715739107247 166.5212547014355 74 205 254
-161.40903118398296 29.597132239657608 165.06337996437878 75 204 254
-161.5049792682907 29.499237289002814 164.49337548140988 74 205 254
-158.73723751929117 29.06313581265139 164.27127110178313 75 205 254
-159.93483331335236 29.73201649172627 166.33287068138134 75 204 254
-158.586846114033 29.22664929187555 164.82762039479937 75 205 254
-157.696420559809 28.949192730084164 164.19118429077184 74 204 254
-155.61807101090767 31.09620849076866 171.81574060188652 75 205 254
-159.9311204633206 30.589392854058666 169.57262714726005 74 205 254
-163.0180777006824 30.27033292446912 168.0879762590776 74 205 254
-159.24738159127043 30.24383780632286 168.23955482890352 75 204 254
-158.58808931578977 29.57081072576532 165.88959374446372 75 205 254
-161.07308701596017 30.50271851635003 169.5037404444398 75 205 254
-158.37355091079326 29.750830276415105 166.54966225817077 75 205 254
-160.56352866388403 29.532946465058007 165.47085448867625 75 204 254
-155.87431599172947 31.261088626108183 172.53921388667482 75 204 254
-160.14822407359105 30.123149847499985 167.8399925055003 75 204 254
-157.68844986363746 29.320445490911613 165.26674071985838 75 205 254
-155.708721361884 30.78208641336426 170.719034346476 75 204 254
-162.13706105611107 30.061065392799357 167.38296721873465 74 205 254
-161.24008694556676 29.859712493952816 166.72751046619078 74 204 254
-158.14136297989978 29.608218227236947 166.10670590381162 75 205 254
-161.9953115599837 30.164439796944784 167.9578030194014 75 205 254
-159.4801540425874 29.77017284792447 166.55582660251758 75 204 254
-159.03463268636847 30.13690803079128 167.83615953295498 74 204 254
-160.1651930678613 30.676146861963968 170.01292987008634 75 204 254
-157.6413757677269 28.701123644671377 163.50877234977585 75 205 254
-163.0276800130781 30.044320994361502 166.96356565881354 74 205 254
-162.6428140421242 30.050609822682958 167.13158856944108 75 205 254
-157.91308250133997 29.463428752913217 165.67467594535594 75 205 254
-158.80903085320563 29.369505299407262 165.25843961553562 75 205 254
-156.92453124039605 28.47284695880229 163.12574083899574 74 205 254
-157.9195093564332 29.115263889859424 164.61681488109815 74 205 254
-160.16190656229864 29.825907035061803 166.74390297503953 75 205 254
-159.92447541144546 30.01205938644742 167.42359423324595 75 204 254
-163.6294204046372 30.138203126574723 167.28322209269555 75 205 254
-161.21487205169137 30.399023567702862 168.96096625475883 75 205 254
-161.4681549819883 30.229229843999608 168.299980207099 74 204 254
-159.47560059910128 30.09940175256964 167.6191828165324 75 204 254
-158.1258253314291 28.92361378819814 164.00511735650178 74 205 254
-162.29225585748074 30.40490973008459 168.90076667479048 74 205 254
-160.59783066298368 29.835771978886932 166.56252570524728 75 204 254
-163.33047882172394 30.134920736313564 167.3353779092286 74 204 254
-163.59291148135173 30.27259688685178 167.75133069760835 75 205 254
-160.93610232577635 29.55583955023266 165.5214953803537 75 205 254
-159.71574104504785 29.889654189688066 166.9763646142004 75 205 254
-159.25411668700252 29.33480378296038 165.03148419772893 75 205 254
-159.49131290265944 29.47236701870807 165.44787473254885 75 205 254
-160.56936722318045 30.356712927599034 168.72288953907855 74 204 254
-162.132886679025 30.294116303167684 168.48918972010767 75 205 254
-162.85841878904415 30.3609022994144 168.63681320644 74 205 254
-155.77503256229966 31.148487087435555 172.17372989718586 74 205 254
-159.92889747146324 30.319545356637683 168.48497452800132 75 204 254
-157.11796656034954 28.719589619899253 163.58432904978528 75 205 254
-157.83619388372213 28.78788451938658 163.69833670407797 75 205 254
-161.72147135606346 30.10328730993954 167.607773881872 75 204 254
-156.7365898503241 28.44997865146556 163.1187391554883 74 204 254
-158.58929439767573 29.878114905542503 166.96331907073716 75 204 254
-158.3677709639761 29.07416362593169 164.39461126331574 74 205 254
-160.8346339079208 29.63588403125494 165.8238347894091 75 205 254
-161.11450912956886 29.745232598497086 166.25399049991853 75 204 254
-158.8206720489135 29.710349976653127 166.31879652484284 75 205 254
-158.48930810394953 28.9551392575123 164.0122919295572 74 205 254
-161.1188677123966 29.622140527108243 165.73296216963803 75 205 254
-157.59500995906438 28.68305900631938 163.46171656608843 75 205 254
-160.8127358496552 30.15428974563719 168.0531384272516 74 204 254
-159.66612097921595 29.31230131697127 164.87548768317262 75 205 254
-161.2613779721722 30.113778853613333 167.85480623813405 74 204 254
-158.36488807254727 29.425202398803243 165.46137610893072 75 205 254
-159.500378301505 30.374261338382887 168.7285804899892 74 204 253
-155.7659298579206 30.51716957466381 169.69908661320824 75 205 254
-161.9443312427812 29.928450108266855 166.98475902602837 75 205 254
-161.71401670387866 30.32599091410075 168.70533571339013 74 205 254
-158.15217184616674 29.27673402622848 165.04541342953684 75 205 254
-160.3994434188903 30.517706598247557 169.37076658677242 75 204 254
-160.38323018723472 30.23916801996949 168.2694132755572 74 204 254
-158.8258628001548 30.007375029487736 167.39392739889155 75 204 254
-161.09711725403562 30.003863075027468 167.38582655629563 74 204 254
-160.38365269728106 29.6780049237573 166.0783836219049 75 205 254
-161.92298228035207 30.413905021107013 169.08598903451548 75 205 254
-159.2488719556843 29.6346852926824 166.10632215649807 75 205 254
-160.79659360466155 30.443427526561983 169.1604133905941 75 204 254
-161.4500849793298 29.75141261372189 166.15858526341702 74 205 254
-161.6568119958678 29.82252161969267 166.5410926780381 75 204 254
-161.48854062936002 30.48816103294521 169.37850818399343 75 204 254
-155.60276456976953 31.19291462567526 172.22585382107877 74 205 254
-164.15453418078891 30.33523253830332 168.00679386267544 74 205 254
-161.03856846588133 30.263488836592952 168.46131806474608 75 205 254
-159.02197099103697 29.503125608759575 165.6792649050368 75 205 254
-157.50913308195078 28.806258233208297 163.8358887379019 74 204 254
-163.81517974261018 30.35298680201334 168.17104706183153 75 205 254
-157.20384152010183 28.61786278367253 163.41303581904776 75 204 254
-157.38050146739815 28.71839988812457 163.63182748305468 75 205 254
-159.25174324764674 29.973122543771293 167.17660272445517 75 204 254
-163.28854156403736 30.38546187187962 168.5146170626731 74 205 254
-163.8916818218925 30.21488172157155 167.56133936088776 74 205 254
-162.60176354476724 30.262349037844096 168.24966140916501 75 205 254
-159.69258361984143 30.20171686582335 168.01527860400307 75 204 254
-162.38294239608734 29.94941501536906 166.7227794770299 74 204 254
-162.8415299487712 30.164703777325776 167.52653233348468 74 205 254
-159.6788564913076 29.606157268273257 165.88943438134208 75 205 254
-159.0401018238793 29.19685161057145 164.6219927299905 75 205 254
-155.7721059287627 30.85316773209979 171.03893596285332 74 205 254
-157.7714425652416 29.909102447023514 166.74301568383123 75 205 254
-155.28387779097625 31.388978308720212 172.01979896390623 74 205 254
-158.73467603609413 30.163025528353195 167.82801223529574 74 204 254
-157.08659082336146 29.636061876132416 166.49441030292928 74 205 254
-156.98465207778116 30.014321512507646 167.57993540100009 75 205 254
-158.8219400576529 29.768963054522608 166.82863294041022 75 205 254
-158.59801637757002 29.828018001604185 166.30245073129896 75 204 254
-156.94947559915707 31.16998120901385 171.24445436865875 74 204 254
-157.46846607775424 29.59491569359407 166.30772885943122 74 204 254
-158.55366142801256 30.028065710702293 167.46631982834586 75 204 254
-155.62412043508456 30.867840681396558 170.37323618636805 74 205 254
-158.6004431501595 30.855093302704706 170.0283783514928 74 204 254
-158.61696617510773 29.617032011110343 166.41405838979983 75 205 254
-157.4616944922233 30.784364655092297 169.95388265607278 75 204 254
-156.04248079833008 30.441228825512596 169.13286105494615 74 205 254
-155.6646893324247 30.968215800409226 170.71297483542094 74 205 254
-158.0437975988828 29.09145267452863 165.10939838747169 74 204 254
-156.58975126815858 30.855420137950368 170.31284300122695 75 204 254
-158.59694039172396 31.499288354972574 169.82977607894034 75 205 254
-158.17444939264578 29.68605977839578 166.5866229398174 75 205 254
