-238.3144860569351 22.313394808407367 95.6082426312282 75 205 254
-236.41088554916607 22.369632883093615 96.46818190987082 74 205 254
-239.484267436177 22.863586123143104 97.14949433255399 75 205 254
-243.56069770067617 23.451479826779927 96.78946233125471 75 205 254
-235.3078204831697 21.921448688439014 95.12791803463807 75 205 254
-236.367912487353 21.987698803743086 95.2946691649717 74 204 254
-235.289097041606 22.008789199640148 95.50380859303387 75 204 254
-239.56089103165087 22.645641456031825 94.45663899349373 75 204 254
-235.47130310663073 22.17267715652754 94.87679932222636 75 205 254
-243.37638279720943 23.215511398364722 95.62032628031758 75 204 254
-235.84986882345976 21.971177173750284 95.20710646994404 75 205 254
-242.36295379316417 23.121733291110303 95.76344330160606 74 204 254
-244.91302419876976 23.40349574185178 95.58939212271551 74 204 254
-245.17586483984627 23.51329725736077 95.54700131936711 75 205 254
-235.93650200640764 22.1508816783646 95.11515226052234 75 205 254
-234.32701278198707 21.94911112828148 94.92415447239705 75 204 254
-242.6619398951141 23.198874453619183 96.29036478572606 74 204 254
-237.21123645972258 22.298583903922395 95.18741412597318 75 205 254
-241.1475417206823 23.030933679906312 96.36958586240965 75 204 254
-238.70978261779965 22.4694074200253 96.07451684906127 75 204 254
-237.19458914909936 22.502117541869453 96.08314888453428 75 204 254
-241.22455580837635 22.964549088284762 96.04191879373694 74 204 254
-236.83754898218555 22.074061295503924 95.37631230570784 75 204 254
-242.56627008254293 23.292999534301885 96.62106328944579 75 205 254
-237.4690674535352 22.571736045324094 96.35446364224885 74 204 254
-235.8088044317716 22.03992317302192 95.58428760947845 75 204 254
-240.68131889711483 23.064999963417087 97.67690884272226 75 205 254
-243.95929395832448 23.242178173832116 95.41088982889036 74 204 254
-238.06935542264313 22.648385534194517 96.82742034803908 75 205 254
-239.97260884452228 22.845449932640207 96.7364592256754 74 204 254
-238.57844031913143 22.721874694616467 97.37595790495799 75 204 254
-234.66952577280006 22.047687067455755 95.34074033251905 74 205 254
-237.1420025793164 22.38394189672495 94.39438299544582 75 205 254
-237.61404445563855 22.451036301237103 94.48017385210284 75 204 254
-236.18950097863657 22.22296407749608 96.14595242055444 75 205 254
-235.53383072028603 22.003036438072066 94.53982373264772 75 205 254
-234.70159146411618 21.967894690882694 94.9663588142733 74 205 254
-237.43835762665958 22.273355625972556 94.91816461258901 75 205 254
-242.1239303086779 23.225482921738323 96.17962631642625 75 204 254
-237.79641598004412 22.327922507433712 94.78528944792706 75 204 254
-240.23597611079106 22.879434524501153 96.63019282889199 74 205 254
-236.00215147087022 22.400822848288513 96.95355593714032 74 205 254
-244.07778400169016 23.429804668155107 96.5250016280753 74 205 254
-243.16518270431158 23.244148963232174 95.86458243834247 75 205 254
-236.34193792866824 22.287153671825646 95.50551185601152 74 204 254
-235.20045254875365 21.966876441635613 94.38103035190815 74 204 254
-239.1405226611875 22.68631425675078 96.56593315077718 74 204 254
-243.0720355238019 23.386842259815623 96.69958289987484 75 204 254
-239.15891563431182 22.611716487655848 96.11492151893756 75 204 254
-241.21574795230964 23.143659425584072 96.98200154713575 75 205 254
-235.300800961296 22.126352468967916 94.6661795912941 75 205 254
-241.60116969124743 23.160953404361898 96.34313405269356 74 204 254
-235.69140001657914 22.363058047824634 96.8363803683049 74 205 254
-235.24016773877165 21.72236149002368 93.62515073940692 74 204 254
-234.70263343890912 22.177857789770023 95.73920135612283 75 205 254
-236.64339042691384 22.341807373954527 95.09514056747307 75 204 254
-242.30294901734968 22.574512233279247 98.41411163209405 74 205 254
-245.3596572747344 22.453230983022856 95.14529105357289 74 204 254
-237.21024827689124 21.04952472988314 92.63407508632304 75 205 254
-242.6445173708837 22.51414414241956 97.56596248531254 75 204 254
-241.9785126754011 22.263830611921023 96.3672462296924 74 204 254
-241.21389204605856 22.298580298668078 97.21260419966691 75 204 254
-243.8459178573107 22.546699237934238 96.79411179120385 74 205 254
-239.25197856807605 22.265917416230238 98.73762921438676 75 205 254
-242.47821170434128 22.04094401446876 94.41983125393173 74 205 254
-238.77674051679307 22.31152012671461 100.72824106795525 75 204 254
-238.05211794821048 22.163442491359945 99.9620160911662 75 205 254
-238.78187423031048 22.179214784082493 98.63167436257721 75 205 254
-236.45849639677934 21.452626402693895 94.67441300832223 75 205 254
-240.23115281916424 22.38406218100882 98.98264577088044 75 205 254
-236.70784251799986 21.55378977749369 94.96044318828754 74 204 254
-241.3167485010165 22.495911121545394 98.74835411704136 75 205 254
-237.3334208853911 21.5952849040057 94.13536341268671 75 205 254
-242.49729807195442 22.555919323739673 98.03986783045427 75 204 254
-238.54675332292692 21.871656184112513 95.51663045172421 74 204 254
-241.77459556945522 22.318828086101508 96.89875233338984 74 205 254
-238.54767150414642 22.21910256998878 99.59443032479246 75 205 254
-239.4964317689065 22.359437674852092 99.83637151886326 74 205 254
-241.68528988694956 22.374892343674347 97.29587651501161 75 204 254
-238.7848843970439 22.05758286860035 97.08616350611351 75 205 254
-236.97963121222458 21.72955046417714 96.27421061084917 74 205 254
-241.45014486367458 22.463286693227218 98.25792595872907 75 205 254
-240.48541401478673 22.3140138454772 97.99559091579997 75 205 254
-241.9227867380955 22.52868066212565 98.37183265661062 75 205 254
-236.999183875276 21.746268687610794 96.46749845719951 74 205 254
-240.97222094480293 22.537041836767852 99.65685448536762 75 205 254
-238.19980013178466 22.13970356426003 98.98853708712772 75 205 254
-238.06475856003576 22.181388837998828 100.30624967116026 74 205 254
-242.1795366594071 22.441892355091298 97.43738048740079 75 204 254
-238.56401468130724 22.279736934110904 101.21606785430386 75 204 254
-240.702406786411 22.46279581542887 99.12398417128541 75 205 254
-243.1727352695762 22.298940394391252 95.63492118415026 74 204 254
-239.62007404922164 22.342932343751237 99.36685948969667 75 205 254
-239.50500852509467 22.203895472704076 97.78264361731802 75 205 254
-238.40797002624814 22.099927373668713 98.04770243888163 75 204 254
-237.8077535287553 22.044946933417506 98.40369117246664 75 204 254
-241.10166753909664 22.347912439900863 97.67145092965353 75 204 254
-241.5526274875277 22.423996959895774 97.76942323240549 75 205 254
-240.82140289966688 22.434143228309686 98.62578209730894 75 205 254
-238.01865835221986 22.04744132105482 97.91223900266515 74 204 254
-243.3282869447593 22.56410309623731 97.39510642689481 74 205 254
-244.10987544811525 22.449290142615233 95.88840157781797 74 205 254
-240.7547733606005 22.235270128957886 97.08476282215958 75 204 254
-240.3659848760236 22.35185475913331 98.49739267581904 75 205 254
-238.94636835307534 21.949580407593697 96.08339417420076 75 204 254
-239.00523081949052 22.296116486499045 99.72435453832865 74 205 254
-238.95179693663755 22.161546353689133 98.1428030542511 75 205 254
-245.000066783798 22.359966835020188 94.70019665093899 75 205 254
-238.32681182810555 22.234950840083258 101.03083831470325 75 205 254
-240.7901097202731 22.198716018225394 96.75575549732056 74 205 254
-237.50154430063495 21.91502246235015 96.94893240631764 74 205 254
-237.06036818438628 21.710513909943977 95.60872978272958 74 204 254
-237.52580532389607 21.937461705156853 97.28737586263512 74 204 254
-241.2377534820375 22.02409746426133 95.12646142194863 74 205 254
-237.4980842655919 21.593380020734152 93.56030878334593 74 205 254
-238.6631098358905 22.20251626305744 99.12379692433306 75 205 254
-240.84107712879708 22.18151333976014 96.50756948911476 75 204 254
-239.86394307461845 22.062831922887955 96.49717178230824 75 205 254
-238.8931879895126 22.308352975636822 100.21577426460806 74 204 254
-240.5596316394657 22.213962729970902 96.8602030261462 75 205 254
-239.98742665977338 22.268939643670397 97.88943367293018 75 205 254
-239.9628314141465 22.42915259394256 99.97806244854428 75 205 254
-242.39509621748851 22.42012371858953 97.10631236680962 75 205 254
-239.13393665218652 22.284362252193628 99.2484359650133 75 205 254
-244.39164333214208 22.31241875961721 94.91182967939332 74 205 254
-237.51037817561846 21.736517786491607 95.30214428718128 75 205 254
-240.94895490069865 22.392154356767385 98.14628856270116 75 205 254
-238.81100238998354 22.001500347032746 96.5470929277634 75 204 254
-238.32327309868128 22.125861000588785 98.5023302086006 75 205 254
-238.2270513594424 21.796280437077158 94.83839483795008 74 204 254
-236.99468337458467 21.725350570824727 96.04284877623286 75 205 254
-243.6366097616659 22.560502245852486 97.12093567357208 74 205 254
-240.0992869232884 22.414531929589053 99.48719689393425 75 205 254
-237.51808487414712 21.78891961263209 95.69390468351128 75 204 254
-242.03836626580107 22.48541226454904 97.92347301386317 75 204 254
-238.37010336761307 22.23666720671669 100.85578926930282 75 205 254
-238.65193182206306 22.297268108223083 100.97315965440822 75 205 254
-239.0624379821484 22.129796487345978 97.67718436166899 75 204 254
-239.77017785181462 22.093079914223594 96.6621565658253 75 205 254
-239.22252581270564 22.378877132085513 101.11520197622526 75 204 254
-243.13505105733128 22.556713446738634 97.40905841956022 75 205 254
-237.33573158330464 21.85296290351264 96.54943855350406 75 205 254
-239.37454064056138 22.23679181382903 98.23978740486862 75 205 254
-240.01970405422264 22.482635699354624 100.76138826442838 75 205 254
-240.1989866061853 22.493492342648736 100.46687641803352 75 205 254
-241.97665714607484 22.402881654008254 97.18733305293165 75 205 254
-240.31344732758186 22.25342521475691 97.20960867772781 75 205 254
-239.6648682916235 22.165088771664088 97.27021588210437 75 205 254
-239.57682944444755 21.70975814064996 93.69235908274825 75 205 254
-239.8538167403644 22.441471121433842 100.44247175505463 74 204 254
-237.75837158940877 21.726037473315216 94.77899249000663 75 205 254
-240.1032968797844 22.225865343944665 97.41794403581153 75 204 254
-239.04673394437177 21.897569945131053 95.55160764471403 75 205 254
-237.40815090385095 21.834601976504832 96.17976938938844 75 204 254
-239.8515293662071 22.299085369655153 98.35701795503643 75 205 254
-240.17441376371943 22.178344662051327 97.00001770286843 75 205 254
-244.071366788127 23.063997722616755 93.26196212345195 75 205 254
-243.91761404252466 23.144970416402835 93.73660171104854 75 205 254
-237.73769239828854 22.319142655055646 91.44976617966094 75 205 254
-246.20936961432824 23.48206001027959 94.39812088409019 75 204 254
-240.9125472755392 22.585956868516703 91.85307963937983 75 205 254
-237.23446945056241 22.184483598601417 90.85084742955756 75 205 254
-239.35504024749181 22.420674422462085 91.76573746072344 75 204 254
-243.2521108027227 23.23715126680827 93.62445458014814 75 205 254
-246.44428160956994 23.4108324644867 93.99897653413831 75 205 254
-240.0782321364203 22.645462223130387 92.40923779105213 75 204 254
-243.61102885984522 23.00325264275704 93.11516782151675 75 205 254
-246.55833857701478 23.33698583365221 93.64306627830419 74 204 254
-246.78713555611577 23.441170163127754 94.00280461539435 75 205 254
-244.23456252134 23.314683666748216 94.3406400301158 75 205 254
-240.5071160097779 22.792687367928426 92.99946901441612 74 205 254
-239.1080947480118 22.637700365016137 92.51228682031649 75 204 254
-242.32267058139183 22.774155550038685 92.29855773505074 74 205 254
-238.39339021661428 22.348015690908767 91.46122218846385 75 204 254
-244.54636399760088 23.138777690674047 93.41193883103365 75 205 254
-240.817140954842 22.639122642485347 92.24401179975075 75 204 254
-244.8674074104142 23.289472513921833 94.01497722135802 75 205 254
-245.4927618290864 23.26120592971867 93.70823215841033 75 205 254
-237.1852300317993 22.185565575762077 90.99246214697584 74 205 254
-237.73810263992917 22.354921224764542 91.74277499792524 75 204 254
-240.0842332264142 22.75477792931298 92.5634671542399 75 205 254
-240.60120758269204 22.653156807944953 91.90201572493372 75 205 254
-240.29167751996982 22.583614452245975 92.06572642689247 75 205 254
-242.53080431594046 22.98044599737743 93.21179016316198 75 205 254
-242.99006019054863 23.045251365794932 93.4416088742811 75 205 254
-238.604424874495 22.312115466944018 91.1670477921482 75 205 254
-240.45981961519672 22.52171315450398 91.73150628423771 75 204 254
-239.08295421491067 22.573256734285074 92.50376516946486 75 204 254
-245.3424536853825 23.357387309908784 94.18924672367125 75 205 254
-238.06342162864533 22.44553237121565 92.04612484291279 75 205 254
-237.95870458354375 22.252535961553377 90.86461401971489 75 204 254
-241.55731835978054 22.86595049145068 92.9218532729721 75 204 254
-241.24263906209353 22.705189124805273 92.35241521684857 75 205 254
-241.5352423400775 22.96307657523591 92.98983440408057 75 205 254
-240.62452808131948 22.730345719114723 92.70013190935433 75 205 254
-237.46864300207798 22.237213747579034 91.16846611237712 75 204 254
-238.2726005361677 22.419848914041474 91.92156006698367 75 204 254
-239.96035322532794 22.430694493949936 91.57484931680642 74 205 254
-237.8258217445352 22.409493148812103 91.93868941861072 74 204 254
-239.47923099995265 22.372970075964773 91.4152751648547 75 205 254
-243.237119446579 22.87060009836904 92.61043720903524 74 204 254
-246.9574489773186 23.398576970118082 93.76228909242951 74 205 254
-246.09116986977173 23.260550438110194 93.49486250139557 74 204 254
-243.42213027560996 23.093861280962834 93.59585612575488 75 205 254
-245.81448515973065 23.42541066825782 94.30989182817737 75 205 254
-245.99570267818876 23.527674652848802 94.70942466135169 74 205 254
-243.12868406279162 22.93763888136848 92.95948125237136 75 205 254
-241.07356806860085 22.793021768063127 92.80012020432925 75 205 254
-243.783797024543 23.24057853114619 94.14871274980779 75 205 254
-237.41505936176287 22.295224172618234 91.630724349634 74 204 254
-237.2144372740736 22.17125529328582 90.68321346324261 74 205 254
-240.5009159824965 22.835066404945856 93.03741489592227 75 204 254
-240.46632868745527 22.67195708397018 92.12465219061377 74 205 254
-238.98873981872464 22.336417304474587 91.27294904265554 75 205 254
-242.79098869510756 22.815629825798744 92.45464507308381 74 204 254
-239.65515452835666 22.582132606439515 92.41085463895666 75 205 254
-238.707581512056 22.463937388138305 92.10371329955748 75 205 254
-245.63680709798973 23.500826652663783 94.75524866798462 75 205 254
-237.4488705656044 22.219703113622494 90.9545864817354 75 205 254
-237.56529933984342 22.197525404502002 90.72392831010184 74 205 254
-244.20069265890896 23.005831204133468 92.90074263024107 74 204 254
-239.1977432215557 22.507281117207818 92.25838459449747 75 205 254
-239.8301371381395 22.484178127405258 91.92775129498628 75 205 254
-241.07553836995135 22.901810358823635 92.96607430664618 75 205 254
-239.44696425027652 22.627345634780507 92.57922805279449 74 205 254
-245.02965680080973 23.212046643753904 93.56237618965828 75 205 254
-243.39233527566284 23.179394625257697 93.9397867441585 75 204 254
-238.88175703249973 22.38571467443198 91.60675823539545 75 204 254
-242.91883196950877 23.16830089341466 93.47767238206805 75 205 254
-241.35364284820247 22.638206334908183 92.00490085000745 74 204 254
-237.49067360808004 22.37870440378373 92.04860864261668 75 205 254
-244.39356581722222 23.22850390221659 93.89112855656953 75 205 254
-238.64652414053174 22.5285741164458 92.36788025341829 74 204 254
-241.84287220395706 22.744742441481428 92.15954957171977 74 204 254
-245.1405375266779 23.14527790824457 93.20788529206528 74 204 254
-242.0359852061856 22.915610848169848 93.07041864564198 75 205 254
-238.0208623067604 22.268048463099205 91.00074498369126 75 205 254
-241.6682597402903 22.79524687268989 92.48303665716236 75 204 254
-237.3998536957607 22.346874389018755 91.98754080200858 74 205 254
-239.0035584039625 22.648241589998392 92.3798113254393 75 205 254
-242.65843233074904 22.88417121647273 92.83157314205546 75 205 254
-244.70261788426743 23.37046361377138 94.49812443074484 75 205 254
-242.4979151573788 23.104854810752787 93.23301259140963 75 205 254
-245.97256189061144 23.334956447907352 93.84388616832028 75 205 254
-245.18194757779963 23.446595129505283 94.64142896369368 75 205 254
-244.68741073883768 23.077269553737786 93.04846936118885 74 204 254
-243.71618818408666 22.936932104243166 92.75064964118693 74 205 254
-241.79621714426486 22.857374447115767 92.55292802031265 74 205 254
-245.62619784501638 23.19956959736025 93.34193263596842 74 204 254
-241.97376233264004 22.82950563232179 92.26964184658542 75 205 254
-237.91976143924774 22.304546662548653 91.3196028269533 75 204 254
-242.20383802980302 22.833985910284383 92.66729702057606 75 205 254
-240.6578047912694 22.632381512853378 91.76212442460857 75 205 254
-242.01919234405761 23.036601546021974 93.13505679665975 75 205 254
-237.6357320191136 22.21033794570722 90.86618234227211 74 205 254
-246.69512708516848 22.341342544789256 94.07277146274592 74 205 254
-245.92569592388946 21.968368888696045 92.46648240251216 75 205 254
-244.92950177711379 22.37374459601652 95.139874905411 75 204 254
-241.62511619822357 22.328678999612947 98.1702557262928 74 205 254
-242.32309153450018 21.699427590042767 92.10634820325251 74 205 254
-244.6370773827254 22.226677312107952 94.50904055314267 75 204 254
-243.5902773297442 21.725878296691654 91.64520148515084 74 205 254
-241.09866355410625 21.46790016050742 91.12889543596872 75 205 254
-242.27827518471054 21.92901871705655 93.65286039357733 75 204 254
-239.19419763391102 21.80291615156532 95.19993179601177 75 204 254
-246.3811883732056 22.3432426336669 94.12470452775928 74 204 254
-238.80944406028357 21.514443812106997 92.01423204078097 74 205 254
-244.4598376116898 22.449329808120748 95.912407676549 75 205 254
-238.7308374961102 21.342078519009938 91.87244767618813 74 204 254
-239.93046417230664 21.23292352479825 90.31440522951986 74 205 254
-240.63570423828904 21.399254273669385 90.96711919633451 74 205 254
-240.7452000780202 21.347931119275742 90.64209058728811 75 205 254
-240.42145348347708 22.170018638717796 98.87077849024227 74 205 254
-243.24595087399263 21.81197272753458 92.45332621391641 74 205 254
-244.16354154012546 22.167272332021938 94.33751897558115 75 204 254
-238.3306231286717 21.04822970011201 90.18303049016399 74 205 254
-240.4288702104289 21.605902250165116 91.64993125497595 75 205 254
-239.91016335955766 21.569307741959797 91.6887064946218 74 205 254
-241.35751810410486 21.767184639830255 93.37349559192516 74 204 254
-241.10909073569871 22.184050779560383 96.96724056886862 74 205 254
-241.0138805285155 21.871340635609826 94.28636395851215 75 204 254
-243.5411410565058 22.160009707329237 94.65552365719928 75 204 254
-243.9919264362754 22.217793207194177 94.81497638757924 75 204 254
-245.55582112573 22.387549115009737 94.8059535005138 74 204 254
-245.29572896987193 22.423080609094704 95.18798048083104 75 205 254
-240.92288075174835 21.522510350813523 91.62007983362227 74 205 254
-242.4580825696694 21.88633969141675 93.24309122869963 74 204 254
-239.89665497161025 21.517561203650942 91.2321763833447 75 205 254
-240.42923138737947 21.456953239478715 91.47945639681262 74 204 254
-239.53727767337 21.326829307011423 91.14001350157415 74 204 254
-240.79007424352457 21.576466360816106 92.03090560972456 74 204 254
-242.0109709642702 21.80665572367436 93.06935553788368 74 204 254
-238.8592132337381 21.076441236979168 90.01068421329731 74 205 254
-241.40844222114987 22.311783633336933 98.46416076309096 75 205 254
-241.0490640953487 21.675162033760245 92.768107394328 74 205 254
-241.20514704952706 21.82216854248477 93.82600607864097 75 204 254
-244.30428070544116 22.358838267639737 95.42537599165648 75 204 254
-238.70973617590224 21.584338089715033 92.80261076537133 74 205 254
-243.59967043242727 21.954533134335186 93.04780459686823 74 204 254
-246.10403728311013 22.181304744027074 93.41455085657552 74 204 254
-239.542040481915 21.488027658957918 92.0736316748537 74 205 254
-240.42172380012897 21.836609413791365 94.62624798392508 75 204 254
-239.26790015683804 21.19540075307119 90.54227972611041 75 205 254
-247.35411257011685 22.319556364470373 93.63863349858454 75 205 254
-243.064025676077 22.114040313932378 94.47568737695619 75 204 254
-240.38663231962724 22.191216047915688 98.64278992194477 75 204 254
-238.75019243817823 21.12131274512908 90.34252426658409 75 205 254
-241.52104425336626 21.722231247582165 92.90502505592411 75 205 254
-238.9155820902911 21.301376624455585 91.41876884202239 75 205 254
-242.178991236304 21.75308229518514 92.5469399110073 75 205 254
-244.72831830516725 22.41844107875408 95.55932254696113 75 204 254
-240.91635199205726 22.245283579826552 98.73116486107537 74 204 254
-239.69449562366378 21.259273887269224 90.66211708055921 74 205 254
-239.74179978213516 21.816558806397133 94.9205117856091 75 204 254
-244.4626443580282 22.29520737441466 94.98144574251643 75 204 254
-241.2820777151471 21.43316054089179 90.76646700888712 75 205 254
-243.21048541020664 22.065469770267285 94.01788690646583 75 204 254
-242.20526213688976 22.295117265181574 96.83192397861116 75 205 254
-245.02686355962175 22.13140405002197 93.57736282341682 75 204 254
-240.49814569949612 21.72307229666351 93.48020414675364 75 205 254
-245.9122986868682 22.25599775295098 93.8826872781152 75 204 254
-245.10583844379497 22.316823404008908 94.64604628305018 75 204 254
-246.15022687472307 22.377804583183615 94.49047144675629 74 204 254
-241.68769139457757 21.6804589154589 92.39843150116529 75 205 254
-243.03848944232837 22.420982595724187 97.02945451984014 75 204 254
-240.21901911943377 21.865823350870752 95.08045221554248 75 205 254
-240.29365651219086 21.28086650383284 90.45940069697043 75 205 254
-244.86155531966384 21.976827197005143 92.43246394991776 74 204 254
-240.8647002009433 21.92222411028436 94.77021422695503 75 205 254
-240.61728866863854 21.67558284283743 92.93832759136053 74 205 254
-242.11604799488924 21.97796543954014 94.13597014683828 75 204 254
-239.09768855770045 21.25023514516177 91.00911695729923 74 204 254
-240.90741300323282 21.712771596963268 93.13373362981848 75 205 254
-242.7679800748298 21.979083506994524 93.88264420425293 75 204 254
-244.0462824841147 21.791834320803503 91.78639863996526 74 205 254
-240.56299838464102 22.187271408943353 98.61141280987607 75 204 254
-239.9533719311035 21.79045615410223 94.51812797175883 75 205 254
-243.70652284993182 22.117454075298234 94.15327785589602 74 204 254
-239.3151153624058 21.149657661111917 90.15988973402959 74 205 254
-242.68552962350597 21.84262053241843 92.72800992570018 75 205 254
-245.59717574001135 22.103882583427385 93.3276342409153 74 204 254
-242.5950414086481 22.025614463066795 94.25935956794478 74 204 254
-239.8504470368149 21.453713296862194 91.7041241293784 74 204 254
-243.40582795716742 22.0111172899303 93.52510142796406 74 204 254
-240.1695339015866 21.645848467162285 92.68395221389133 75 204 254
-242.80290779252837 21.787482538856516 92.28089761905375 74 205 254
-239.398043277702 21.403992211771865 91.67434960939856 75 204 254
-244.70564513732444 22.033146043616263 92.91083959144393 75 205 254
-239.5375091583155 21.48817318989685 91.09521811706391 75 204 254
-240.3365029096402 22.147650386525513 99.27522559457007 75 204 254
-246.7348348775991 22.189079085374722 93.13249272750147 74 204 254
-243.41830778791882 21.759194330489155 91.98109646387391 75 205 254
-244.39753816165694 21.915830909263676 92.31544031360181 75 205 254
-238.62865265402922 21.17378733881435 90.71933369120737 75 205 254
-239.31983932811573 21.509279038469927 91.5883313455717 75 204 254
-247.21332564060106 22.10992830244891 92.9799210049153 74 205 254
-246.34568809763715 22.155965371587666 93.72315140363574 75 205 254
-247.6058183840888 21.88856277288129 91.72455999580586 75 205 254
-243.88321665675687 21.8554200852955 93.38493746275101 75 204 254
-241.5152128940869 21.27864317277575 90.88728775335633 74 205 254
-243.46388589052077 21.81821791346933 93.14264838774521 74 204 254
-242.6392847283599 22.175951740695737 96.60878911051714 74 205 254
-244.21503282396705 21.563741709905738 91.3490811282524 75 204 254
-245.32078023979102 22.057304930554473 93.88735578145756 75 204 254
-245.91556211977644 22.237008669331114 94.4092036956278 75 205 254
-239.84316590726854 21.448071954108062 93.45812280047454 74 205 254
-239.0705605389037 20.65899969682151 88.73552101343847 74 205 254
-239.48312179753623 21.18257254593194 91.43093701733686 75 205 254
-244.05476375685765 21.33927462964438 90.3325515993683 74 205 254
-239.33597670266727 20.73950023374444 88.55767278145062 75 205 254
-240.36517612246465 21.26696452886033 91.57420397219309 74 205 254
-243.33781832708786 21.61142771555976 92.03313844510592 74 204 254
-239.89872339194415 20.870690853434766 88.72871995010101 74 205 254
-242.16024340644174 21.223743412268345 90.35575803773253 75 205 254
-241.8917051068668 21.99558706057305 95.78759322661314 75 205 254
-242.3457318580188 21.538003286400407 92.16428597707144 74 204 254
-239.7160857182655 20.894519818163886 89.01489817228034 74 205 254
-241.685163484103 21.111179485408577 90.22336688988966 75 205 254
-242.38786136304435 22.18196299534575 96.99981259059612 75 205 254
-243.10575224075637 21.48552397407577 91.38852801854472 74 204 254
-246.66835832400392 21.828620750008376 91.73012699540095 74 205 254
-243.86359062819872 21.719499858772505 92.25030582818859 75 204 254
-247.59584695402486 21.968863417237134 92.22164503720644 75 205 254
-244.6802281082901 22.061567515567212 94.172644694199 75 204 254
-244.7013421240998 22.25515377905836 95.18515553343262 75 204 254
-246.52894896020146 21.89090022681627 92.19344144942704 75 205 254
-240.9273864299433 21.959545514426146 96.9801991948283 74 204 254
-243.7240054948373 21.475534662994594 91.17725636250158 74 204 254
-242.72096982962842 21.62464792601807 92.32829998286809 75 204 254
-241.685016829554 22.117668492853532 97.5266738522166 75 205 254
-246.7515228215586 22.20140461616302 93.71894302900637 75 205 254
-244.79075525945413 21.519994229720204 91.05949077184172 75 205 254
-243.55454215958233 21.543036599538667 91.59195631728976 74 204 254
-241.60930631929372 21.101794695971478 89.78646336810463 74 205 254
-244.59952434501605 21.88733553699976 93.02095280682391 74 205 254
-240.2829109164745 21.08625933882212 90.27341279849942 75 205 254
-245.12252687095759 22.133320878413624 94.34743274213959 75 204 254
-241.45690664820089 21.260221577913157 90.67459546891271 75 204 254
-244.38055082911004 21.48294484064518 90.86911283991932 74 205 254
-242.44259911354783 21.2253286537542 90.13932800167981 75 205 254
-241.91249641285614 21.3837539249706 91.55702284016327 75 205 254
-242.31272201767493 21.3922344086429 91.06131214533094 74 205 254
-241.76834847064504 21.237326525534193 90.82829441617811 75 205 254
-241.73694523675078 21.054064029520614 89.90563196813494 74 205 254
-243.6621500139585 21.774008224949725 92.71278636602824 74 205 254
-240.36500178225302 20.90971172363163 88.82549504960721 75 205 254
-243.00873676968845 22.10129092742708 95.70016416386358 75 205 254
-242.08882723286487 21.970308493362655 95.33449941526769 75 205 254
-240.5044211087078 21.908827671443042 97.25869227252993 75 204 254
-241.5371564513939 22.107108833871226 97.72689909586336 74 205 254
-246.0411075194723 21.834218444388622 91.99556488188217 75 204 254
-242.57371850770755 21.160758171932542 89.77218425967236 74 205 254
-245.6475463444431 21.767490591178003 91.84314005697291 75 204 254
-245.3048784706786 21.651723938859114 91.24040462056276 75 205 254
-243.24613309086135 21.409917382491763 91.00035995256106 75 204 254
-243.07822658366584 21.910669296839515 94.08697497474678 75 204 254
-241.28715993709093 21.59128879584177 93.41571930064781 74 204 254
-243.27949838042065 21.867438732136968 93.65030940437289 75 204 254
-242.2833291808929 21.16824068644163 90.01623631758554 75 205 254
-246.78649488722567 21.752795117096838 91.37718736861783 75 205 254
-240.53406628161818 21.90397829168918 97.08758158132457 75 204 254
-245.80782093879117 21.69935638750453 91.44702800524524 74 205 254
-242.37483683764904 21.104501951259987 89.66751184594426 74 205 254
-244.6152865241351 21.590920622176498 91.56521829227627 75 205 254
-240.02878258353726 21.554604198205716 94.00907976146097 74 204 254
-245.18672631756388 21.898254690468388 92.74382340891583 74 204 254
-240.39843950919254 21.025413798166678 89.65803564446611 75 205 254
-239.1821885293091 20.73545985594458 88.87300970055183 75 204 254
-241.71571620252396 21.42486897800488 91.9854261263432 75 205 254
-244.40612465706943 21.94316219146292 93.5051559975606 75 204 254
-244.85156522631044 22.00857097268451 93.71694174075846 75 204 254
-245.56849894731172 22.222875915319282 94.46479495619116 75 204 254
-244.93568284550653 22.20507368194231 94.77056109407592 75 205 254
-242.45728336382248 21.289306657468792 90.6216239415922 74 205 254
-239.1563597968214 20.590624107345672 88.83946921845798 75 205 254
-244.067143187701 21.78796809800739 92.86938144047382 74 204 254
-241.05137157737929 21.625074266941496 93.87482650862107 74 204 254
-245.41840990397375 21.57743655752663 90.86620871957918 74 205 254
-244.03795209230753 21.645413596761912 91.81348655965813 75 204 254
-241.7071029063919 22.018600506679157 96.28842557931189 74 205 254
-241.66564540147263 21.02901863139676 89.37518763772454 74 205 254
-240.5589081388067 21.011477695441933 89.37831301880351 75 205 254
-243.13971128667418 21.169759372770642 89.98887753253861 75 205 254
-245.31803194903898 22.266040825100426 94.79885394083009 75 205 254
-240.24605417460847 21.306643187188797 91.91862163222075 74 205 254
-244.53176521607395 21.42911225765229 90.52901078647446 74 205 254
-239.79957367192247 21.058499400382292 90.16717478092767 74 205 254
-242.4248298711118 21.328060116762963 90.6887642711363 75 205 254
-242.2237224930796 21.376480079453128 91.14508447858202 75 204 254
-245.0195869853486 21.960788626838475 93.26598822686141 74 205 254
-241.59415288274786 21.48533098234182 92.47317437557928 74 204 254
-241.3109833109608 22.048524323546317 97.38536704691083 75 205 254
-246.09814690016464 22.209561831046198 94.20527484551934 75 205 254
-245.77359241466297 22.160690732612252 94.1124869963037 75 204 254
-242.88837203836553 21.55799470203454 91.89156146024753 75 204 254
-243.2477139094189 21.6496460954361 91.86742228657018 75 204 254
-247.65601607515282 22.33922561711053 92.35616795066153 74 205 254
-244.41379958184166 21.96692328045917 92.8557177410543 75 205 254
-244.34541921961284 22.144568121742847 94.48246666181835 75 205 254
-241.82311303218796 21.237410656509326 90.40668910377295 74 205 254
-246.38515461144922 22.1280505904248 92.00431359223626 74 204 254
-242.50856184979455 21.793437063159537 93.69943391932554 75 205 254
-245.95856640181626 22.195881338626616 92.91238200973918 74 205 254
-244.07637059125415 22.045485716354627 93.7578372624916 75 205 254
-241.2794712974707 21.648157783711596 94.2866262732927 75 204 254
-243.49457743719967 21.76362420608914 92.5305391726487 74 204 254
-240.67745776667823 21.130586622116766 90.73690485595888 74 205 254
-243.00720066904722 21.189205687879756 89.65622288696485 75 205 254
-241.0789705123389 21.55918298832534 93.59563389482051 74 204 254
-244.53337524446607 22.127957791967148 93.934356823908 75 204 254
-245.5464495602226 22.06182017917662 92.381014912045 74 205 254
-244.88090226977945 22.07166384222112 93.05634899396007 75 205 254
-246.17221498779168 22.166372659442708 92.44575213220487 74 204 254
-241.43183429244996 21.635004984082116 93.79538441934464 75 204 254
-245.56556035349146 22.24693781014276 93.76057457489385 74 204 254
-241.78039924605045 21.574202974750634 92.87002378145938 75 205 254
-242.8913112677493 21.739600221418577 92.79165180396804 75 205 254
-246.3553601054688 21.927954053746138 90.90573036613429 74 204 254
-243.5148454331185 21.13874427133384 88.77207942237877 75 205 254
-242.7764141829716 21.903427635671157 94.37186539388814 75 205 254
-243.23288604301882 21.991452729567236 94.56027078931908 75 205 254
-240.62996535802105 21.18275205238137 91.10089993408485 75 205 254
-241.66416199334174 21.719449143635188 94.49231985229432 75 205 254
-246.81504302714387 22.33435893722111 93.01138376701226 75 205 254
-242.3450430488763 21.292224812734055 90.42272934993709 74 205 254
-241.62232523266871 21.27430906509749 90.74948430855669 74 205 254
-241.84845893981583 21.710369504745465 94.0357338764919 75 205 254
-244.585988383184 21.748111201337117 91.24932295520564 75 205 254
-242.01368318135843 21.555732755600886 92.48893762292707 75 204 254
-243.39261333169947 21.95364947603281 94.05046293307291 75 205 254
-244.64169037302153 22.201720317439527 94.56827686126844 75 204 254
-241.07995892751126 21.39613276884214 92.06406189450041 75 204 254
-243.72969732548933 21.741607308968845 92.07169993893172 74 205 254
-245.059552351677 22.020684013807056 92.58913428791831 75 204 254
-242.09447408789114 21.7033256674144 93.53377372459 75 205 254
-243.68031024122217 21.67275671476132 91.42057170168202 75 204 254
-246.601280854982 22.329190494140178 93.04849145164917 74 205 254
-245.6564026436772 22.131074330367227 92.61944483030942 75 205 254
-244.68169353616625 21.93820593893186 92.43403800493974 75 204 254
-243.35093287781922 21.794618357638626 92.96033229201515 75 204 254
-247.45660706791494 22.254447743873165 91.8341394180544 74 205 254
-245.330527240035 22.251317828807935 94.0286205024405 75 205 254
-244.5122637601678 21.768714970460668 91.50778237715558 75 204 254
-242.1812222798936 21.928112890303826 95.72809770333308 74 204 254
-243.5898320296431 21.926532983259378 93.60285097263134 75 205 254
-244.7054902899143 22.110411217614526 93.51904069359905 75 204 254
-241.62893237358412 21.61258700218155 93.32008300192986 75 205 254
-244.12558247148363 22.161716732866115 94.85548386687896 75 205 254
-243.92469151830807 21.697404040051815 91.43291583629012 74 205 254
-247.0058398908413 22.3328096365452 92.79181625022724 74 205 254
-246.67944976401515 22.271038019631114 92.66932103918656 75 204 254
-242.1472674274669 21.49073798253306 91.98341626424315 75 205 254
-242.72769744129874 21.322788705787715 90.58661899233437 74 204 254
-244.19563588101806 21.828040903808905 92.21524145315826 74 204 254
-245.5092400184211 22.12675616572661 92.77838739439214 74 204 254
-245.7611930762916 22.23492714526275 93.46550983695278 74 205 254
-241.44059521500364 21.209119109513107 90.41470696062883 74 205 254
-247.35749061502364 22.31753215345593 92.36750816128112 75 205 254
-246.22282337123124 22.200846272832873 92.6801034925232 75 204 254
-244.07572636979165 21.474941241619987 90.07237433958761 75 205 254
-245.43924978177978 22.001676832012922 92.06512200252821 74 205 254
-241.40011040458293 21.31284431488565 91.1048236139455 75 204 254
-243.41717128644711 21.604226083128243 91.45336050545163 74 204 254
-243.85185703912546 21.714766776831215 91.69379739159649 75 205 254
-246.2716780056486 21.701045303091252 89.85617745602944 75 205 254
-243.15329719115442 21.127128862721403 89.20881104238778 74 205 254
-244.25794616842998 22.017295913652497 93.34074833113056 75 204 254
-247.61046125547057 22.000622149290937 90.34250436976146 74 205 254
-244.373856875352 21.79003252948783 91.77762753764114 74 204 254
-245.93700366499056 22.034486790538573 91.8172485751845 74 204 254
-244.2301798690485 21.73297894982919 91.47043448608356 75 205 254
-241.44101501035476 21.13740774615734 90.00931455852307 75 205 254
-245.76992116207796 22.08705216086083 92.29003500439461 74 204 254
-240.56827603050093 21.024878937309744 90.0173506197149 75 205 254
-241.49237952351862 21.725918832226064 94.9434399065301 74 205 254
-242.64343777073904 21.157566469232304 89.44490724916702 74 204 254
-240.76850192101458 21.075093852418384 90.34094051229792 74 204 254
-243.066624188467 21.699255231064583 92.3463758195266 75 204 254
-241.0235568748912 21.246380198145374 90.83942574060283 75 205 254
-242.60776451769397 21.922401276786335 94.86632479235661 74 205 254
-242.24553769222504 21.66525913066231 93.0604130921039 75 205 254
-240.48768190034576 20.99306235374012 90.04232119868078 75 205 254
-242.32006474942654 21.813524918023603 94.20541053845317 75 205 254
-241.2476742271434 21.35935246090359 91.56200065101285 75 204 254
-246.53747770539658 22.079451763160332 91.56748099606789 75 205 254
-241.15292343814272 21.53753115276568 93.15452331468403 75 205 254
-241.34493849436498 21.522392535471667 92.72408539416843 75 205 254
-243.16821572577115 21.83072106973681 93.451232371119 75 205 254
-246.9700784047609 22.32579574970245 92.89796804571368 75 204 254
-243.84358701060364 21.914176622023025 93.15942310351998 75 204 254
-241.98986061433158 21.156625047636737 89.60327656059157 75 205 254
-245.1677964175841 22.176925184764393 93.67442427096263 75 204 254
-245.36381246670658 22.160203000047602 93.24193476810728 75 204 254
-242.67639494661904 21.763496245800955 93.23425780085873 75 205 254
-241.7076969278616 21.46513651987944 92.6872721209306 75 204 254
-244.5329034612837 21.63216615262046 90.5387225709162 75 205 254
-241.9355677671006 21.564014605986404 93.27371222213972 74 204 254
-243.7391989179721 21.618505005901937 91.34521737882456 75 204 254
-243.5389128314021 21.65274408574918 91.79607112056215 75 204 254
-241.3942732111867 21.05400132915879 89.36406937747948 74 204 254
-244.38828125650497 21.673462937059874 91.05515971634193 74 204 254
-242.13844103649984 21.081369140034536 88.52146289551239 74 205 254
-242.4220072404388 21.054954782318294 88.06478711484205 75 205 254
-243.07736413220087 21.54122862790631 91.61356983852878 75 204 254
-243.65886751772476 21.399306327634157 89.97879082914118 75 205 254
-243.99625116193792 21.743322646967805 91.98850207978397 75 205 254
-242.01586063170197 21.53266515989062 92.9384004758481 75 205 254
-244.01044646878057 21.328480241192644 89.31572759720602 75 204 254
-242.9488817862523 21.714441950969583 93.18993684798228 75 205 254
-242.29906103327505 21.63362152783434 93.49687410396879 74 205 254
-243.62227048856474 21.035794899755906 88.60918421329812 74 205 254
-242.47222598836146 21.49360333159985 91.90805187496096 75 204 254
-245.68656381520447 21.942648885495757 91.5927048163236 74 204 254
-242.56715190638116 21.011978239649345 87.64494497718431 75 205 254
-244.08384940143713 21.882001324700134 93.10331985649957 75 205 254
-242.01796131358927 21.691721922206252 94.78220851283666 74 205 254
-242.14424805416147 21.207627719085387 89.694455097551 74 205 254
-245.80186545298065 21.417892274854744 88.46875832585965 75 204 254
-243.476541820467 21.47270781120666 90.68835099494646 75 204 254
-246.73556218577252 21.70159182646741 89.35868856081937 75 205 254
-244.44724348475836 21.82597030113662 92.17296020755784 75 205 254
-242.09520828040056 21.433810284594987 91.69362879778254 75 205 254
-244.52678308592508 21.97855084251483 93.28710610289062 75 205 254
-245.5438570349842 21.98937348081799 92.06083425001934 75 204 254
-241.67920845421355 21.414008081525452 92.16144300395578 75 205 254
-243.3521497151887 21.679013513544106 92.2464369377319 75 205 254
-242.57435193459946 21.32895425268681 90.38792653116296 74 204 254
-243.10047899557233 21.224219142476244 89.49462790109352 75 204 254
-241.64314401211462 21.310079092206273 91.03476613081524 75 205 254
-246.22389694277334 22.199544725670894 92.83620086371772 74 204 254
-241.28385096822572 21.103235638484776 89.76385294951955 74 205 254
-244.9007792318464 21.916252835309717 92.3309155882996 75 204 254
-241.95429637353823 20.974027378992858 87.93816631250132 74 204 254
-243.2314550169704 21.819003188071445 93.87354143728125 75 205 254
-246.44108264183808 22.027881515241255 91.48673157999312 75 205 254
-241.4896255239919 21.206568741644215 90.2471201575399 75 205 254
-243.87022909041113 21.566708136242315 90.86755239492206 75 204 254
-244.71087452039689 21.950317748438906 92.80298013068033 75 205 254
-244.99983242130867 21.704385515241476 90.80442466144657 74 204 254
-244.24420992578564 21.572871606266865 90.41055105606085 75 205 254
-245.3115638328828 21.8401003370727 91.42115105725638 75 204 254
-242.9130419726935 21.28934888290299 89.93814075022485 74 205 254
-246.54949566809717 21.971866930424312 90.87332074288453 75 204 254
-243.66653371431565 21.910682392724254 94.05708517131413 74 205 254
-242.17639883212073 21.274890180665142 90.28928007285822 74 205 254
-245.96202513605346 21.991582848462144 91.50542901516835 74 205 254
-242.59918386435822 21.19903975924079 89.21383954394135 75 205 254
-244.2705029574528 21.85785038095448 92.63149169886815 75 205 254
-242.8845256781201 21.562503489695082 92.0815611965802 75 205 254
-241.9149881706689 21.11812769702719 89.04535450236509 75 205 254
-245.3720044218768 22.022389997389556 92.50625822385709 75 204 254
-242.21448339457496 21.397904975280312 91.2145881132914 75 204 254
-244.58491056912723 21.655306103127707 90.75465256220417 75 205 254
-244.190505256173 21.707336011287566 91.50909569604563 75 204 254
-244.12432965978044 21.02840727981402 87.78511459926544 75 204 254
-243.8385893100174 21.38381948586094 89.73294692726743 74 204 254
-246.39865000683974 22.007525228045566 91.24904347924708 74 204 254
-243.86053794377167 21.893522886562444 93.5526619579334 75 205 254
-241.21644520367116 20.872014898198444 88.17155347526071 75 205 254
-245.854954735978 22.13115924716793 92.68933300511239 75 204 254
-241.78438501564855 20.99003822580861 88.38279636697993 74 204 254
-243.79786129944006 21.770259063703243 92.41422741099336 75 205 254
-242.49406351536433 21.614065208847187 93.03610150427667 75 205 254
-242.67817717229246 21.58433548343772 92.5552596485719 75 205 254
-242.35002702938797 21.531640044985267 92.38827840725783 75 204 254
-241.26481084746402 21.145687869884128 90.09883711833506 75 205 254
-243.99445959746322 21.50618420658507 90.41364680525437 75 205 254
-242.1148766874069 20.920421814983325 87.43870242463629 74 204 254
-245.468676399403 21.772896135013248 90.74195524937593 74 205 254
-246.83231063334233 22.207481509428845 92.08674821730192 75 205 254
-242.6246592722635 21.447396805240412 91.41960947532216 75 204 254
-242.77872686131144 21.72759964143464 93.6701622719671 75 205 254
-244.97368351641188 22.081640040809408 93.44716238826221 75 205 254
-241.6410051979772 21.18738547655454 89.90190501574456 75 204 254
-244.8366821318401 21.749173397302616 91.23033315900243 75 204 254
-244.3431849221713 22.007218626729504 93.76647150096616 75 205 254
-245.1910355258812 22.061511748475027 93.00077931904121 75 205 254
-243.79803260169635 20.9880710586218 88.12509780502666 74 205 254
-246.98300276212322 21.638723158267332 88.87376670226757 75 205 254
-246.95810422448207 21.841342581644664 89.92145479778117 74 205 254
-241.7220480012718 21.137036929384006 89.53407615294489 75 204 254
-245.04750663726122 21.69201241747122 90.58769642288158 74 205 254
-243.44299634410646 21.808818024398136 93.39247100323333 75 205 254
-241.65597806372992 21.028085654598424 88.86261983655854 74 205 254
-246.17477269107215 21.867291725735246 90.75221657085882 75 205 254
-243.228133142557 21.499207666167766 91.14368480133106 75 204 254
-246.21297199118064 22.050633429863037 91.78647849638867 74 204 253
-241.95477983355556 21.312303301225555 90.6466135386236 75 205 254
-243.1782105029572 21.709626105790107 92.74355219478963 75 205 254
-245.10201597805184 21.878739691393378 91.88094725870832 75 204 254
-246.05549285542622 21.9408283591995 91.13620143250121 75 205 254
-244.67229383414764 21.377351892604747 89.05549844901411 74 204 254
-242.8531690600603 21.407092132338537 91.02638379237663 74 204 254
-246.15996113116074 22.024357841287703 91.56324939270893 74 205 254
-243.21122639510358 21.381863366479735 90.67229325608442 74 204 254
-244.52877525759322 21.459359277662728 89.75476085777171 74 205 254
-244.5467707478179 20.88555368212688 86.16056196149033 75 205 254
-247.01943800806862 22.115536979564702 91.43794766803231 74 205 254
-242.66705848343435 21.05530800690101 88.28213329783759 74 204 254
-244.65664899972194 21.815599585225762 92.33324983410532 75 205 254
-244.54782399185848 21.597569848650036 90.38566165872115 75 205 254
-243.21063652744027 20.986666116575925 86.88351523537756 74 205 254
-242.45557054993847 21.24450864536914 90.23415060582083 75 204 254
-246.30489656728435 21.921248392604276 90.96866917361847 74 204 254
-243.35852424755223 21.24574519114401 89.1006459174211 75 205 254
-243.7448270645972 21.280250481255088 89.21171277244767 75 205 254
-243.07689962763368 21.163985512090854 88.45984410920784 75 205 254
-242.7131634798438 21.188306664950105 89.29428994142145 74 204 254
-243.0437643687433 21.029797654697568 87.34506166458802 74 204 254
-245.8408469415197 21.482665226116275 88.43823477918446 74 205 254
-243.86453009786 21.458910858677356 90.37181799836992 75 204 254
-242.32926401015462 21.266837438645734 90.68216189787711 74 205 254
-242.73670225941837 21.253829627091477 89.70403066034623 74 205 254
-247.82328490779784 21.980595719710763 89.82113320904053 74 205 254
-242.02402730865393 20.818552826510604 88.11563929426612 74 205 254
-243.47881427386412 21.370836961412785 90.20676626961587 74 204 254
-244.20867449843155 21.29199076105936 89.1157271661762 75 204 254
-247.47592631418328 22.08160021138722 90.78117423006896 75 204 254
-242.4166056516208 21.05299063035376 88.70172300308334 74 204 254
-242.4313145448733 21.122406982322815 89.33886297750203 74 205 254
-242.80521633628678 21.034511788017113 87.80464873890074 75 205 254
-246.8620563786703 21.606285939699966 88.37363169471185 74 204 254
-247.0125046717033 21.96680568858225 90.5778412927182 75 204 254
-245.84011790306636 21.798227056481103 90.69010894140646 75 204 254
-246.02197687309348 21.6029181287613 89.11307533099092 74 204 254
-241.9607532042077 20.76538140406496 87.87810155938215 74 205 254
-245.378344298399 21.54748155701461 89.38729575701963 74 204 254
-247.72681753498773 21.596481058974344 87.6380658071356 74 205 254
-246.18806463212738 21.94932283746317 91.29515820333606 75 205 254
-246.39381180987255 21.91392544152255 90.79563170834685 75 204 254
-243.9317693676877 21.266752102359547 89.3080655286054 75 204 254
-243.31604059080922 21.29078930899077 89.66039472132152 75 204 254
-242.51976175994926 21.141621870065904 89.40914263501631 75 205 254
-248.013537370541 21.941236213656076 89.37931293234732 74 205 254
-245.1865222710324 21.574280972299263 89.79685592233713 74 205 254
-242.31144465224273 21.10391629404454 89.18683539978554 74 204 254
-244.4536725002476 21.82446065860764 92.81441225999276 75 205 254
-243.71925785099427 21.343392047265407 89.78208498039517 75 204 254
-242.5866811179802 20.684964373297916 86.13470017468958 74 205 254
-244.41253689290815 21.89686629047518 93.62938546449546 74 205 254
-246.56149250016287 22.0389782531391 91.5098686555848 75 205 254
-245.29503681667478 21.375167658788776 88.29100878821586 74 205 254
-243.65336739015845 21.31020311786355 89.50085565226988 75 205 254
-247.63471813308195 22.027603667722836 90.31182114884788 75 204 254
-244.76559078753422 21.50743148537353 89.64879940876207 75 204 254
-245.9415248646411 21.7541211040387 90.35534706026453 74 205 254
-245.6798295553863 21.84600718206692 91.12997057953241 75 205 254
-247.20261602469841 21.931196351275666 90.09608372317174 74 205 254
-243.69646309572374 21.494136348308494 90.86115162248122 75 205 254
-244.1354410752886 21.595168412123822 91.03135342574718 75 205 254
-244.65532076843982 21.290568408248582 88.5205656296752 74 204 254
-245.7241203107762 21.719776650572985 90.30285168917192 75 205 254
-242.23098382009437 21.15733749076322 89.64635304506871 74 205 254
-244.13830310868596 21.34857995156504 89.49021482437522 75 205 254
-245.52516171469287 21.50515812014746 88.93855418810979 74 205 254
