61.48902893066406 18.876136779785156 262.33612060546875 255 255 255
61.00735092163086 22.207571029663086 258.32861328125 255 255 255
65.92195129394531 22.204345703125 256.7191162109375 255 255 255
65.54778289794922 22.216455459594727 260.25396728515625 255 255 255
64.67501831054688 22.087276458740234 259.93792724609375 255 255 255
64.66963195800781 22.081281661987305 259.9415283203125 255 255 255
64.63154602050781 21.995092391967773 257.3791198730469 255 255 255
65.76629638671875 22.002803802490234 258.0937805175781 255 255 255
67.72563171386719 22.003334045410156 261.0347595214844 255 255 255
66.54440307617188 21.898359298706055 255.98196411132812 255 255 255
70.15556335449219 19.830551147460938 261.3648681640625 255 255 255
73.10037231445312 18.171489715576172 261.4581604003906 255 255 255
69.64220428466797 18.85628890991211 261.1213073730469 255 255 255
73.18242645263672 18.12803077697754 261.4382629394531 255 255 255
70.92990112304688 21.798931121826172 261.5115661621094 255 255 255
69.84278106689453 21.836143493652344 258.21661376953125 255 255 255
65.65180969238281 21.950204849243164 257.8142395019531 255 255 255
71.46041107177734 21.793325424194336 258.2238464355469 255 255 255
73.38317108154297 22.054283142089844 259.4081115722656 255 255 255
82.05908966064453 22.020763397216797 248.51400756835938 255 255 255
69.64751434326172 21.824504852294922 258.2501525878906 255 255 255
70.37965393066406 21.90042495727539 258.8928527832031 255 255 255
65.867919921875 21.891185760498047 256.4857482910156 255 255 255
65.85787963867188 21.850635528564453 257.056640625 255 255 255
66.531982421875 21.919872283935547 258.44366455078125 255 255 255
67.40607452392578 21.87031364440918 255.0630340576172 255 255 255
69.52376556396484 22.021141052246094 260.2657470703125 255 255 255
69.41548156738281 21.9954833984375 260.26068115234375 255 255 255
63.76090621948242 22.452651977539062 262.5003967285156 255 255 255
74.38794708251953 21.693950653076172 258.7527770996094 255 255 255
72.78038787841797 21.014970779418945 252.82504272460938 255 255 255
72.50242614746094 21.28352165222168 254.66497802734375 255 255 255
73.84134674072266 16.552433013916016 252.3369903564453 255 255 255
73.63258361816406 20.42112922668457 252.21182250976562 255 255 255
73.31608581542969 21.374361038208008 258.09710693359375 255 255 255
77.09994506835938 21.64113998413086 259.0700378417969 255 255 255
76.11229705810547 20.915260314941406 252.1991729736328 255 255 255
82.31381225585938 21.79981803894043 260.36181640625 255 255 255
70.09989166259766 21.881080627441406 258.21148681640625 255 255 255
62.9753532409668 22.23462677001953 259.857421875 255 255 255
63.026023864746094 22.120819091796875 262.02099609375 255 255 255
65.43605041503906 22.177515029907227 261.8948974609375 255 255 255
76.7185287475586 21.571983337402344 257.948486328125 255 255 255
74.37918090820312 21.69858741760254 258.7669372558594 255 255 255
69.7489013671875 21.777393341064453 256.0940856933594 255 255 255
69.89309692382812 21.808361053466797 256.0262451171875 255 255 255
65.69859313964844 21.739362716674805 255.5316619873047 255 255 255
65.33943939208984 21.719295501708984 255.80078125 255 255 255
69.24967193603516 22.17546272277832 261.216064453125 255 255 255
66.65335083007812 22.009105682373047 256.6208190917969 255 255 255
67.6582260131836 22.036428451538086 258.0340881347656 255 255 255
69.98084259033203 21.863893508911133 258.88201904296875 255 255 255
69.4822769165039 21.82132911682129 258.91796875 255 255 255
70.96111297607422 21.776350021362305 260.9945373535156 255 255 255
68.4263916015625 21.6109676361084 255.8271026611328 255 255 255
71.54296112060547 21.813003540039062 260.4720153808594 255 255 255
83.93026733398438 22.457355499267578 245.7364959716797 255 255 255
98.98223114013672 23.442211151123047 245.9675750732422 255 255 255
71.72435760498047 21.510486602783203 254.60450744628906 255 255 255
68.6822280883789 21.9383487701416 260.6419372558594 255 255 255
73.84608459472656 21.721294403076172 257.6278381347656 255 255 255
74.54955291748047 21.688289642333984 258.7321472167969 255 255 255
74.51602172851562 21.674053192138672 258.7028503417969 255 255 255
74.29153442382812 21.345996856689453 253.85292053222656 255 255 255
71.17986297607422 22.00967788696289 259.7387390136719 255 255 255
74.6495361328125 21.219924926757812 253.64703369140625 255 255 255
74.12189483642578 21.799896240234375 259.5356140136719 255 255 255
68.862060546875 21.601037979125977 255.07614135742188 255 255 255
73.11898040771484 21.289043426513672 254.26712036132812 255 255 255
76.79757690429688 21.59738540649414 258.069580078125 255 255 255
74.71664428710938 21.22443389892578 254.06280517578125 255 255 255
77.24047088623047 21.478200912475586 257.6388244628906 255 255 255
75.89311218261719 20.9990291595459 252.15245056152344 255 255 255
79.92213439941406 21.608129501342773 258.5592041015625 255 255 255
82.5344009399414 21.612655639648438 258.8379211425781 255 255 255
72.98963928222656 21.552513122558594 256.0415954589844 255 255 255
83.34245300292969 21.720619201660156 259.6935119628906 255 255 255
75.47286224365234 21.525203704833984 259.5169677734375 255 255 255
71.25663757324219 21.696964263916016 253.222900390625 255 255 255
69.79283142089844 21.90438461303711 259.9493408203125 255 255 255
70.73410034179688 21.951032638549805 259.6835632324219 255 255 255
71.06156921386719 21.946147918701172 257.9560546875 255 255 255
70.0534439086914 21.823902130126953 258.0494384765625 255 255 255
75.29376220703125 22.273845672607422 255.9172821044922 255 255 255
70.83580017089844 21.9468994140625 259.6937255859375 255 255 255
70.19786834716797 21.888063430786133 258.89715576171875 255 255 255
75.62608337402344 21.685684204101562 258.77081298828125 255 255 255
75.49295806884766 21.646669387817383 258.76629638671875 255 255 255
73.66626739501953 21.33462905883789 254.4365997314453 255 255 255
74.50862121582031 21.201467514038086 253.77903747558594 255 255 255
74.88117980957031 21.354799270629883 253.69056701660156 255 255 255
76.8282470703125 21.05813980102539 251.6597137451172 255 255 255
74.28939056396484 21.6971378326416 258.7585144042969 255 255 255
74.13796997070312 21.6781005859375 258.735595703125 255 255 255
78.523681640625 20.460256576538086 249.94090270996094 255 255 255
74.91656494140625 21.253215789794922 253.98851013183594 255 255 255
66.31861114501953 21.92800521850586 256.0865478515625 255 255 255
64.32842254638672 21.96251678466797 256.8232421875 255 255 255
67.51880645751953 22.37978744506836 254.96717834472656 255 255 255
78.15867614746094 21.588964462280273 257.68634033203125 255 255 255
77.67316436767578 21.498369216918945 257.5919189453125 255 255 255
75.18476867675781 20.97089385986328 252.5952606201172 255 255 255
78.32866668701172 21.43840980529785 257.46661376953125 255 255 255
79.54512023925781 21.344619750976562 256.8091125488281 255 255 255
79.88819885253906 21.518831253051758 257.9134521484375 255 255 255
76.92271423339844 20.91312026977539 251.8065948486328 255 255 255
73.49231719970703 21.710464477539062 259.43206787109375 255 255 255
82.28683471679688 20.844127655029297 255.1425323486328 255 255 255
85.24209594726562 20.94134521484375 257.7901916503906 255 255 255
82.52112579345703 20.794633865356445 254.76466369628906 255 255 255
72.85037994384766 21.548864364624023 256.0578918457031 255 255 255
75.75543212890625 21.623703002929688 258.7657775878906 255 255 255
74.00120544433594 21.369792938232422 254.30445861816406 255 255 255
76.53250885009766 21.598051071166992 258.5699462890625 255 255 255
76.1238784790039 21.511615753173828 257.9327087402344 255 255 255
76.46624755859375 21.58405876159668 258.5564270019531 255 255 255
75.93289184570312 21.515626907348633 258.0103759765625 255 255 255
80.3477554321289 21.509258270263672 251.35781860351562 255 255 255
79.31932830810547 21.533105850219727 258.37603759765625 255 255 255
78.02459716796875 20.983551025390625 251.1547393798828 255 255 255
86.48016357421875 16.406572341918945 258.6729736328125 255 255 255
92.3527603149414 15.223315238952637 259.7617492675781 255 255 255
76.19171142578125 20.93706703186035 252.19515991210938 255 255 255
82.29078674316406 20.74347496032715 253.91712951660156 255 255 255
84.7624282836914 21.185705184936523 258.2619934082031 255 255 255
82.66459655761719 20.75111198425293 253.84451293945312 255 255 255
83.46993255615234 20.63768768310547 257.0345153808594 255 255 255
86.73843383789062 16.5017032623291 259.2091064453125 255 255 255
86.2847671508789 16.597749710083008 259.1537170410156 255 255 255
89.30097961425781 15.516416549682617 259.73870849609375 255 255 255
94.55744171142578 21.64752197265625 259.1517639160156 255 255 255
82.47358703613281 21.277080535888672 258.3145446777344 255 255 255
82.69847869873047 20.816259384155273 254.73097229003906 255 255 255
79.5298843383789 20.732389450073242 255.04405212402344 255 255 255
80.3313217163086 20.671710968017578 254.2827606201172 255 255 255
89.77576446533203 20.181163787841797 252.53692626953125 255 255 255
74.5587158203125 21.21180534362793 253.687744140625 255 255 255
74.43614196777344 21.196409225463867 254.16815185546875 255 255 255
74.37179565429688 21.19037628173828 253.79417419433594 255 255 255
71.82665252685547 21.377582550048828 253.97193908691406 255 255 255
74.8883056640625 21.237957000732422 253.5689697265625 255 255 255
76.44255828857422 21.406721115112305 257.6301574707031 255 255 255
77.0114517211914 20.816932678222656 251.90240478515625 255 255 255
73.11363220214844 21.566659927368164 256.010986328125 255 255 255
73.11051940917969 21.610227584838867 257.49041748046875 255 255 255
72.57410430908203 21.540603637695312 256.7652282714844 255 255 255
71.84391021728516 21.371707916259766 253.95672607421875 255 255 255
91.07868957519531 19.961429595947266 258.94110107421875 255 255 255
95.31324005126953 19.906654357910156 259.21246337890625 255 255 255
87.10116577148438 19.090660095214844 258.52557373046875 255 255 255
77.45228576660156 21.477449417114258 257.5325012207031 255 255 255
99.19092559814453 22.12398910522461 239.26487731933594 255 255 255
77.48809814453125 21.071016311645508 251.37147521972656 255 255 255
73.70526885986328 20.506467819213867 253.54376220703125 255 255 255
91.12484741210938 21.2728214263916 255.0916290283203 255 255 255
78.52821350097656 20.580778121948242 250.56248474121094 255 255 255
73.39514923095703 21.30780029296875 254.1114044189453 255 255 255
84.98482513427734 20.618961334228516 254.8606719970703 255 255 255
98.4312515258789 17.850509643554688 252.99288940429688 255 255 255
99.66677856445312 15.516093254089355 252.46463012695312 255 255 255
98.70614624023438 16.840797424316406 253.33767700195312 255 255 255
98.81246948242188 16.87577247619629 252.18470764160156 255 255 255
93.46563720703125 19.759977340698242 250.9342041015625 255 255 255
94.53964233398438 19.7637882232666 250.82705688476562 255 255 255
89.0008316040039 19.618030548095703 247.39682006835938 255 255 255
92.86664581298828 18.77688980102539 244.886474609375 255 255 255
86.12503051757812 20.463132858276367 253.85694885253906 255 255 255
99.98469543457031 22.32317543029785 248.29046630859375 255 255 255
82.30764770507812 20.8106746673584 254.75485229492188 255 255 255
74.87537384033203 21.257240295410156 254.01278686523438 255 255 255
79.25538635253906 21.25399398803711 255.4447784423828 255 255 255
76.79632568359375 20.90052604675293 251.9174041748047 255 255 255
85.21751403808594 20.62627601623535 254.8973388671875 255 255 255
86.4424057006836 20.49770164489746 257.0146484375 255 255 255
87.53353118896484 20.481163024902344 256.6304626464844 255 255 255
87.83033752441406 20.36697769165039 256.408935546875 255 255 255
84.21683502197266 20.02141571044922 248.3089599609375 255 255 255
83.47943878173828 19.978487014770508 248.55010986328125 255 255 255
81.33482360839844 20.637950897216797 252.74365234375 255 255 255
82.914306640625 20.847185134887695 255.15292358398438 255 255 255
79.3904800415039 21.339824676513672 256.8006591796875 255 255 255
81.01649475097656 21.15498161315918 256.37359619140625 255 255 255
81.15446472167969 21.15729331970215 256.38775634765625 255 255 255
82.35777282714844 20.697546005249023 252.9901123046875 255 255 255
81.73390197753906 20.653728485107422 252.63113403320312 255 255 255
80.3182373046875 20.663782119750977 255.03799438476562 255 255 255
82.20095825195312 20.675920486450195 253.07916259765625 255 255 255
82.3418960571289 20.690088272094727 253.01885986328125 255 255 255
83.96253967285156 20.483186721801758 248.41366577148438 255 255 255
82.03446960449219 20.958782196044922 255.7853546142578 255 255 255
80.35032653808594 20.696571350097656 254.9567413330078 255 255 255
82.84245300292969 20.81365966796875 254.6983184814453 255 255 255
90.01828002929688 20.544038772583008 257.33843994140625 255 255 255
86.21294403076172 20.014984130859375 258.1917724609375 255 255 255
85.83460235595703 20.049802780151367 258.1249084472656 255 255 255
76.93522644042969 20.994176864624023 253.29641723632812 255 255 255
77.2394790649414 21.244691848754883 255.64190673828125 255 255 255
82.2770004272461 20.976011276245117 255.7969207763672 255 255 255
82.47533416748047 21.015666961669922 255.76087951660156 255 255 255
82.82316589355469 20.82918930053711 254.75115966796875 255 255 255
82.89984893798828 20.85944175720215 255.16558837890625 255 255 255
84.67256164550781 20.18270492553711 248.0537109375 255 255 255
86.5609359741211 20.466243743896484 257.0419616699219 255 255 255
78.48472595214844 20.805057525634766 252.28878784179688 255 255 255
82.36124420166016 20.815210342407227 254.76329040527344 255 255 255
82.53096771240234 20.82857322692871 254.76792907714844 255 255 255
88.02816772460938 20.370027542114258 256.4426574707031 255 255 255
89.90354919433594 19.80646324157715 256.7272644042969 255 255 255
81.99219512939453 20.6756649017334 253.02093505859375 255 255 255
79.58460998535156 21.063526153564453 254.5652313232422 255 255 255
82.90145874023438 20.776885986328125 255.4225311279297 255 255 255
82.33330535888672 20.7448787689209 253.91444396972656 255 255 255
84.17272186279297 20.87949562072754 254.89389038085938 255 255 255
85.51862335205078 20.78326988220215 254.57481384277344 255 255 255
85.28399658203125 20.762353897094727 254.5394287109375 255 255 255
110.39300537109375 13.111160278320312 256.2946472167969 255 255 255
90.17046356201172 16.63323974609375 255.44284057617188 255 255 255
89.2323989868164 20.42912483215332 254.12570190429688 255 255 255
86.8915023803711 20.30838966369629 254.0148162841797 255 255 255
88.94839477539062 20.295597076416016 252.7103729248047 255 255 255
92.96220397949219 20.317401885986328 248.95098876953125 255 255 255
86.10670471191406 20.19840431213379 253.4683380126953 255 255 255
88.66574096679688 20.13479232788086 253.17242431640625 255 255 255
88.6531982421875 20.22710418701172 252.71200561523438 255 255 255
91.06465911865234 19.93587875366211 255.279541015625 255 255 255
92.19032287597656 19.84368324279785 254.5487518310547 255 255 255
83.88351440429688 20.016357421875 248.52310180664062 255 255 255
87.3763198852539 20.469263076782227 253.32093811035156 255 255 255
87.78777313232422 20.323381423950195 253.2960968017578 255 255 255
89.29248046875 20.339534759521484 255.96780395507812 255 255 255
89.42955780029297 19.724035263061523 246.3331298828125 255 255 255
88.43997955322266 19.482723236083984 247.77529907226562 255 255 255
91.93255615234375 19.42064666748047 246.15011596679688 255 255 255
91.27017211914062 19.275348663330078 244.8853759765625 255 255 255
84.81285095214844 20.70452117919922 254.48233032226562 255 255 255
82.78075408935547 20.85529899597168 254.91293334960938 255 255 255
83.82060241699219 20.85359001159668 253.7741241455078 255 255 255
82.2628173828125 20.35755729675293 252.14993286132812 255 255 255
83.35816192626953 19.838069915771484 243.8818359375 255 255 255
82.6703109741211 20.760046005249023 252.36868286132812 255 255 255
82.35099792480469 20.695009231567383 252.43487548828125 255 255 255
82.00408935546875 20.669822692871094 253.03536987304688 255 255 255
82.54927825927734 20.72832489013672 253.65684509277344 255 255 255
84.03648376464844 20.456016540527344 248.91709899902344 255 255 255
84.53917694091797 20.671247482299805 254.48297119140625 255 255 255
82.39642333984375 20.671415328979492 253.41265869140625 255 255 255
82.40473175048828 20.729658126831055 253.87464904785156 255 255 255
93.48213958740234 19.803356170654297 254.0675048828125 255 255 255
94.27896118164062 15.234707832336426 244.1156005859375 255 255 255
94.53362274169922 19.378721237182617 247.6676025390625 255 255 255
97.164306640625 19.089906692504883 246.432373046875 255 255 255
88.3641128540039 20.884593963623047 250.75271606445312 255 255 255
84.75562286376953 20.689556121826172 254.4846649169922 255 255 255
84.00761413574219 20.925390243530273 254.12673950195312 255 255 255
94.83729553222656 20.694046020507812 248.52398681640625 255 255 255
91.36503601074219 20.41077423095703 256.33392333984375 255 255 255
89.1170654296875 19.794498443603516 256.5000305175781 255 255 255
92.08611297607422 19.640371322631836 244.5673370361328 255 255 255
90.23939514160156 20.074024200439453 255.4038543701172 255 255 255
105.25023651123047 18.895156860351562 256.59320068359375 255 255 255
92.22235870361328 19.78842544555664 251.81407165527344 255 255 255
91.68461608886719 19.298824310302734 254.91810607910156 255 255 255
90.10723114013672 19.52790069580078 247.004638671875 255 255 255
88.07367706298828 19.721097946166992 249.9344940185547 255 255 255
93.25780487060547 19.758392333984375 250.7356414794922 255 255 255
101.949951171875 19.911235809326172 249.77830505371094 255 255 255
98.37886810302734 19.433008193969727 252.7264404296875 255 255 255
97.47888946533203 18.992656707763672 252.97711181640625 255 255 255
97.69526672363281 16.645235061645508 253.88404846191406 255 255 255
99.96247863769531 15.285100936889648 252.87933349609375 255 255 255
89.88124084472656 19.36669921875 249.10980224609375 255 255 255
93.04268646240234 19.001331329345703 244.63734436035156 255 255 255
98.72144317626953 17.828641891479492 253.0048828125 255 255 255
99.02261352539062 17.801706314086914 253.03729248046875 255 255 255
99.30860137939453 17.753585815429688 253.0544891357422 255 255 255
96.1384048461914 16.62492561340332 253.09886169433594 255 255 255
108.38677215576172 13.77095890045166 253.42933654785156 255 255 255
93.75312042236328 20.731460571289062 252.82667541503906 255 255 255
90.6113510131836 19.837650299072266 249.1795654296875 255 255 255
85.4219970703125 20.23687744140625 249.44479370117188 255 255 255
86.4633560180664 20.06983757019043 248.2183380126953 255 255 255
86.79277038574219 20.275001525878906 253.8381805419922 255 255 255
96.24850463867188 21.863723754882812 248.945068359375 255 255 255
94.2123794555664 19.798126220703125 250.71038818359375 255 255 255
91.95500183105469 19.27312660217285 254.4595184326172 255 255 255
101.50590515136719 18.79493522644043 239.47198486328125 255 255 255
95.7571792602539 19.053348541259766 243.3445587158203 255 255 255
93.33649444580078 19.408527374267578 246.87380981445312 255 255 255
96.06328582763672 19.244680404663086 245.2424774169922 255 255 255
87.5770263671875 19.763654708862305 247.29144287109375 255 255 255
94.82072448730469 19.814517974853516 250.92269897460938 255 255 255
99.47543334960938 19.574861526489258 253.89869689941406 255 255 255
100.87286376953125 19.52328872680664 253.7345733642578 255 255 255
93.32141876220703 19.41519546508789 246.90501403808594 255 255 255
95.67425537109375 19.294286727905273 245.60675048828125 255 255 255
94.72473907470703 19.252792358398438 245.98338317871094 255 255 255
91.9025650024414 18.143693923950195 240.76148986816406 255 255 255
98.63422393798828 15.260665893554688 253.70382690429688 255 255 255
88.6437759399414 19.808340072631836 246.5702362060547 255 255 255
99.26959228515625 19.97531509399414 255.88560485839844 255 255 255
105.84038543701172 19.922903060913086 256.19757080078125 255 255 255
94.24159240722656 19.810579299926758 250.88824462890625 255 255 255
94.40423583984375 19.40778350830078 246.3701934814453 255 255 255
82.55914306640625 20.3432674407959 250.166015625 255 255 255
85.22150421142578 20.265716552734375 250.38824462890625 255 255 255
100.2269515991211 15.953006744384766 252.57278442382812 255 255 255
86.60346221923828 20.226722717285156 250.69888305664062 255 255 255
90.43345642089844 19.81865119934082 249.2923583984375 255 255 255
89.15155792236328 19.905397415161133 246.9901885986328 255 255 255
89.9125747680664 20.199726104736328 252.55833435058594 255 255 255
97.34562683105469 19.5622615814209 253.45790100097656 255 255 255
92.66590118408203 19.041627883911133 244.93612670898438 255 255 255
87.13716125488281 20.274581909179688 250.68263244628906 255 255 255
104.45077514648438 21.611801147460938 246.2122039794922 255 255 255
98.12860107421875 19.660263061523438 250.0758514404297 255 255 255
90.35812377929688 19.822898864746094 249.24708557128906 255 255 255
99.4509048461914 19.362028121948242 248.9260711669922 255 255 255
97.85992431640625 16.320777893066406 253.2752227783203 255 255 255
98.64623260498047 19.063480377197266 245.8896942138672 255 255 255
98.95135498046875 17.799362182617188 253.03317260742188 255 255 255
99.72455596923828 15.964383125305176 251.92727661132812 255 255 255
101.20614624023438 18.98332405090332 251.47886657714844 255 255 255
102.40081787109375 18.936479568481445 250.7528839111328 255 255 255
101.95702362060547 18.794363021850586 251.0172576904297 255 255 255
107.72991943359375 18.748018264770508 246.24085998535156 255 255 255
107.97637939453125 18.890634536743164 250.54660034179688 255 255 255
89.85043334960938 19.939624786376953 246.69248962402344 255 255 255
88.82501983642578 19.770647048950195 252.03961181640625 255 255 255
91.87557220458984 19.80883026123047 251.8593292236328 255 255 255
89.90480041503906 19.805007934570312 249.3887481689453 255 255 255
92.5621566772461 19.270967483520508 245.4250030517578 255 255 255
93.0590591430664 19.039518356323242 244.65509033203125 255 255 255
98.80940246582031 19.310043334960938 252.88742065429688 255 255 255
98.6047134399414 19.356454849243164 252.86544799804688 255 255 255
101.84248352050781 18.45000648498535 243.72744750976562 255 255 255
91.81194305419922 19.817277908325195 251.86875915527344 255 255 255
93.8933334350586 19.787595748901367 250.89794921875 255 255 255
95.16868591308594 19.46053123474121 244.47218322753906 255 255 255
96.74693298339844 19.507869720458984 249.92869567871094 255 255 255
93.85704803466797 19.60765266418457 248.00723266601562 255 255 255
93.63201141357422 19.430309295654297 246.39979553222656 255 255 255
95.59930419921875 19.584915161132812 250.0104217529297 255 255 255
94.57530975341797 19.243162155151367 245.69252014160156 255 255 255
100.45244598388672 19.805612564086914 250.1366729736328 255 255 255
98.49225616455078 19.649961471557617 250.03387451171875 255 255 255
96.49577331542969 19.53468894958496 247.15501403808594 255 255 255
91.04248809814453 19.89255142211914 249.0758819580078 255 255 255
108.58763885498047 18.384828567504883 249.19158935546875 255 255 255
99.42338562011719 15.585288047790527 252.39686584472656 255 255 255
94.0046615600586 19.70978546142578 250.5543212890625 255 255 255
96.79720306396484 16.502185821533203 253.13150024414062 255 255 255
119.7681884765625 11.162137031555176 255.05616760253906 255 255 255
99.4131088256836 19.182022094726562 252.14161682128906 255 255 255
99.76698303222656 15.585429191589355 253.07960510253906 255 255 255
99.43632507324219 17.5764102935791 253.37586975097656 255 255 255
99.38253021240234 17.449567794799805 252.53961181640625 255 255 255
98.43330383300781 17.86102294921875 252.95294189453125 255 255 255
91.82280731201172 19.674758911132812 245.9712371826172 255 255 255
94.366943359375 19.82880210876465 251.00160217285156 255 255 255
93.86760711669922 19.48154640197754 245.15589904785156 255 255 255
93.11323547363281 19.392873764038086 245.61849975585938 255 255 255
94.0063705444336 19.193851470947266 244.51251220703125 255 255 255
93.4479751586914 19.423095703125 246.8774871826172 255 255 255
93.76834106445312 19.4378604888916 247.9376983642578 255 255 255
94.62422180175781 19.241823196411133 245.68829345703125 255 255 255
98.2821273803711 19.007343292236328 253.084228515625 255 255 255
99.4645004272461 19.256471633911133 252.60867309570312 255 255 255
97.77815246582031 19.076459884643555 246.16651916503906 255 255 255
100.92453002929688 15.312918663024902 252.5466766357422 255 255 255
98.4410171508789 19.26215362548828 250.96307373046875 255 255 255
98.31983947753906 19.248245239257812 250.94371032714844 255 255 255
88.42050170898438 19.332229614257812 247.9487762451172 255 255 255
94.28953552246094 19.213621139526367 245.8082275390625 255 255 255
117.43634033203125 17.694896697998047 252.01828002929688 255 255 255
117.32723236083984 17.629121780395508 252.84844970703125 255 255 255
96.02655029296875 19.34142303466797 244.91183471679688 255 255 255
94.78334045410156 19.270307540893555 245.9974822998047 255 255 255
97.71123504638672 19.340524673461914 249.45797729492188 255 255 255
98.11602783203125 19.35590171813965 249.48622131347656 255 255 255
95.17674255371094 19.274333953857422 245.8045196533203 255 255 255
95.24504852294922 19.288028717041016 245.79759216308594 255 255 255
98.64207458496094 19.242624282836914 249.02708435058594 255 255 255
100.29376220703125 19.050575256347656 248.7521209716797 255 255 255
105.39945220947266 19.180030822753906 247.60107421875 255 255 255
103.2998046875 18.950847625732422 250.85389709472656 255 255 255
100.75040435791016 18.672204971313477 244.41807556152344 255 255 255
102.6065673828125 18.444902420043945 243.40042114257812 255 255 255
102.46265411376953 18.42275619506836 243.45957946777344 255 255 255
105.55646514892578 18.52323341369629 246.6875457763672 255 255 255
110.59149169921875 18.250484466552734 249.25238037109375 255 255 255
109.3248519897461 18.31402587890625 249.08206176757812 255 255 255
116.6614990234375 13.497652053833008 252.82432556152344 255 255 255
103.53091430664062 18.963659286499023 250.86962890625 255 255 255
101.83712768554688 18.68155860900879 244.07078552246094 255 255 255
97.58116912841797 18.635435104370117 242.71746826171875 255 255 255
94.96886444091797 19.277284622192383 245.91180419921875 255 255 255
102.96162414550781 18.305631637573242 242.98565673828125 255 255 255
104.1810302734375 18.111055374145508 241.92385864257812 255 255 255
102.83358764648438 17.289796829223633 235.10858154296875 255 255 255
102.63668060302734 17.307392120361328 235.40045166015625 255 255 255
102.8669662475586 17.30550765991211 235.06350708007812 255 255 255
110.20528411865234 18.265676498413086 246.07293701171875 255 255 255
105.340576171875 17.948564529418945 240.89405822753906 255 255 255
103.86119842529297 18.076335906982422 242.07728576660156 255 255 255
101.9238510131836 18.46015739440918 243.70126342773438 255 255 255
111.37042999267578 17.566028594970703 236.43824768066406 255 255 255
105.71063232421875 18.568511962890625 246.66156005859375 255 255 255
105.83527374267578 18.537147521972656 246.4203338623047 255 255 255
104.19855499267578 18.108434677124023 241.93856811523438 255 255 255
104.57453155517578 18.113689422607422 241.7515869140625 255 255 255
105.61389923095703 18.09740447998047 241.26889038085938 255 255 255
109.83427429199219 18.41934585571289 249.73974609375 255 255 255
113.62056732177734 15.533662796020508 253.09815979003906 255 255 255
112.90695190429688 15.608427047729492 252.9710235595703 255 255 255
114.36177062988281 15.7324857711792 251.54771423339844 255 255 255
115.05073547363281 16.046335220336914 250.99819946289062 255 255 255
114.16617584228516 14.963107109069824 250.48892211914062 255 255 255
97.75263977050781 19.067365646362305 246.17588806152344 255 255 255
100.0071792602539 19.02277946472168 248.72064208984375 255 255 255
103.06685638427734 18.636741638183594 243.6292724609375 255 255 255
101.4243392944336 18.40658187866211 243.8765106201172 255 255 255
106.00435638427734 18.55908203125 246.64254760742188 255 255 255
103.32495880126953 18.103744506835938 242.33888244628906 255 255 255
108.16082763671875 18.284223556518555 246.87503051757812 255 255 255
108.73685455322266 18.260862350463867 246.0457763671875 255 255 255
109.05758666992188 18.27815055847168 246.03807067871094 255 255 255
113.1048812866211 17.94607925415039 248.1982879638672 255 255 255
102.18842315673828 18.803028106689453 247.84124755859375 255 255 255
100.47354125976562 19.080734252929688 248.03924560546875 255 255 255
101.56007385253906 18.701025009155273 244.25880432128906 255 255 255
100.58876037597656 18.685035705566406 244.52044677734375 255 255 255
101.0401611328125 18.705476760864258 244.34996032714844 255 255 255
100.86275482177734 18.683744430541992 244.3573455810547 255 255 255
107.50070190429688 18.350046157836914 246.9761505126953 255 255 255
111.50537109375 17.93133544921875 244.5825958251953 255 255 255
111.0926742553711 17.947101593017578 244.6884307861328 255 255 255
111.27976989746094 18.183670043945312 249.3574676513672 255 255 255
103.02608489990234 18.339519500732422 243.013427734375 255 255 255
103.01051330566406 18.302200317382812 242.9710235595703 255 255 255
105.26166534423828 18.57122230529785 246.3033905029297 255 255 255
110.60166931152344 18.190975189208984 249.31056213378906 255 255 255
100.42920684814453 19.06096649169922 248.02377319335938 255 255 255
103.41217041015625 18.88937759399414 247.17481994628906 255 255 255
102.28113555908203 18.445556640625 243.52679443359375 255 255 255
102.04998779296875 18.444124221801758 243.6388702392578 255 255 255
105.6022720336914 18.567607879638672 246.22718811035156 255 255 255
107.94564819335938 18.372425079345703 246.93540954589844 255 255 255
110.21520233154297 18.389841079711914 249.74305725097656 255 255 255
109.70329284667969 18.404260635375977 249.725341796875 255 255 255
110.39136505126953 18.47738265991211 249.8375244140625 255 255 255
111.10281372070312 18.23505401611328 249.2972412109375 255 255 255
115.62689208984375 15.951662063598633 250.65855407714844 255 255 255
115.31026458740234 15.336910247802734 250.4710235595703 255 255 255
107.83319854736328 17.242910385131836 236.66355895996094 255 255 255
101.42256927490234 18.427762985229492 243.86415100097656 255 255 255
103.41944122314453 18.31369972229004 242.7947998046875 255 255 255
103.0469741821289 18.5091609954834 243.2561492919922 255 255 255
102.37850952148438 18.468236923217773 243.49652099609375 255 255 255
103.2120132446289 18.496402740478516 243.16567993164062 255 255 255
104.14903259277344 18.09772491455078 241.96202087402344 255 255 255
96.67953491210938 19.144115447998047 246.5563201904297 255 255 255
99.38117218017578 19.30340576171875 249.09632873535156 255 255 255
99.22224426269531 19.297521591186523 249.085205078125 255 255 255
106.98878479003906 18.58627700805664 246.37644958496094 255 255 255
105.41520690917969 18.153100967407227 241.37586975097656 255 255 255
104.67109680175781 18.12702178955078 241.7346954345703 255 255 255
106.28369140625 17.67779541015625 239.46482849121094 255 255 255
109.00901794433594 18.21615982055664 245.98085021972656 255 255 255
109.30537414550781 18.228586196899414 246.01739501953125 255 255 255
101.15120697021484 18.700511932373047 244.31069946289062 255 255 255
105.99950408935547 18.57979965209961 246.6676788330078 255 255 255
105.81707763671875 18.523591995239258 246.35797119140625 255 255 255
106.71539306640625 17.55029296875 238.61471557617188 255 255 255
104.47830200195312 18.899951934814453 247.00350952148438 255 255 255
110.61316680908203 17.925424575805664 244.60671997070312 255 255 255
111.89751434326172 17.233423233032227 240.0660858154297 255 255 255
106.67395782470703 17.699007034301758 239.2949981689453 255 255 255
110.0689468383789 18.04442596435547 245.396240234375 255 255 255
115.63826751708984 15.875195503234863 245.1087646484375 255 255 255
104.10917663574219 18.90281105041504 247.0337371826172 255 255 255
108.25916290283203 17.49530792236328 237.58441162109375 255 255 255
107.10212707519531 17.5162410736084 238.36212158203125 255 255 255
107.2680435180664 17.70846939086914 238.92774963378906 255 255 255
107.76080322265625 17.665908813476562 238.50262451171875 255 255 255
104.37483215332031 18.11642074584961 241.88816833496094 255 255 255
108.04041290283203 17.234416961669922 236.5543975830078 255 255 255
108.86848449707031 17.011680603027344 234.80104064941406 255 255 255
109.19206237792969 17.012786865234375 234.54806518554688 255 255 255
106.18120574951172 16.29149055480957 228.98866271972656 255 255 255
107.52405548095703 17.51618766784668 238.02008056640625 255 255 255
114.69720458984375 17.795528411865234 243.42640686035156 255 255 255
110.97789764404297 17.578927993774414 242.34873962402344 255 255 255
106.70581817626953 15.841687202453613 226.34317016601562 255 255 255
108.19159698486328 17.23345375061035 236.42861938476562 255 255 255
113.44451904296875 17.392623901367188 240.5036163330078 255 255 255
103.13480377197266 17.548118591308594 236.15188598632812 255 255 255
108.48070526123047 17.229875564575195 236.15533447265625 255 255 255
106.60688018798828 17.199188232421875 241.2391357421875 255 255 255
108.23902893066406 17.578351974487305 237.4987335205078 255 255 255
107.0463638305664 17.73528480529785 239.11012268066406 255 255 255
109.50445556640625 17.82784652709961 237.56259155273438 255 255 255
107.12820434570312 17.730297088623047 239.0367431640625 255 255 255
110.86669921875 17.927053451538086 236.73851013183594 255 255 255
107.4753189086914 17.514354705810547 238.07569885253906 255 255 255
109.75411987304688 17.677717208862305 243.19566345214844 255 255 255
113.03230285644531 17.603952407836914 242.02499389648438 255 255 255
108.76141357421875 17.006521224975586 234.84962463378906 255 255 255
109.16736602783203 16.732433319091797 233.29539489746094 255 255 255
109.23472595214844 16.723644256591797 233.16769409179688 255 255 255
108.85821533203125 17.010730743408203 234.77853393554688 255 255 255
106.86542510986328 15.830644607543945 226.1934814453125 255 255 255
108.89814758300781 17.012338638305664 234.8135986328125 255 255 255
109.17794036865234 17.018890380859375 234.53001403808594 255 255 255
108.9269790649414 16.714765548706055 233.5964813232422 255 255 255
109.62942504882812 16.510421752929688 231.39468383789062 255 255 255
109.63602447509766 16.515474319458008 231.34967041015625 255 255 255
28.290971755981445 24.287586212158203 272.4842834472656 255 255 255
28.1468563079834 24.276561737060547 272.5271911621094 255 255 255
26.66811180114746 21.77882957458496 272.7432861328125 255 255 255
90.443603515625 19.699312210083008 258.2004089355469 255 255 255
28.338306427001953 23.88667869567871 265.432861328125 255 255 255
33.19002151489258 20.395503997802734 276.6535949707031 255 255 255
31.03141212463379 24.15818214416504 272.6062316894531 255 255 255
81.10880279541016 19.775442123413086 254.0074005126953 255 255 255
29.70428466796875 23.325971603393555 264.24884033203125 255 255 255
30.521896362304688 23.518342971801758 267.19500732421875 255 255 255
106.0655517578125 18.460617065429688 250.3619384765625 255 255 255
92.3720932006836 18.212482452392578 246.37989807128906 255 255 255
76.39318084716797 20.760690689086914 251.18980407714844 255 255 255
76.17216491699219 20.798625946044922 251.5158233642578 255 255 255
76.34657287597656 20.957088470458984 251.78684997558594 255 255 255
27.54597282409668 20.508480072021484 266.4620056152344 255 255 255
95.31574249267578 13.494444847106934 242.15965270996094 255 255 255
92.1886978149414 14.279193878173828 252.35537719726562 255 255 255
79.59745025634766 20.71784782409668 250.4387969970703 255 255 255
28.568769454956055 24.330583572387695 273.6178283691406 255 255 255
85.62322998046875 11.884706497192383 243.0026092529297 255 255 255
87.52134704589844 15.792939186096191 258.6954650878906 255 255 255
26.033353805541992 1.7461236715316772 261.7845764160156 255 255 255
69.62764739990234 -7.845579147338867 275.3838195800781 255 255 255
38.38328170776367 7.516316890716553 282.6565246582031 255 255 255
29.791831970214844 23.335784912109375 264.0978088378906 255 255 255
27.780078887939453 21.40077018737793 271.2707214355469 255 255 255
61.17425537109375 -8.598159790039062 258.1778564453125 255 255 255
99.8132095336914 18.234594345092773 239.95404052734375 255 255 255
62.72193908691406 21.777982711791992 256.876953125 255 255 255
85.96031188964844 21.728126525878906 264.5067138671875 255 255 255
72.3028335571289 20.967479705810547 252.92530822753906 255 255 255
72.98799133300781 21.00802993774414 252.6707763671875 255 255 255
93.1985092163086 18.081743240356445 241.0615997314453 255 255 255
76.0036392211914 21.367387771606445 253.49205017089844 255 255 255
74.3160629272461 21.3579044342041 254.16781616210938 255 255 255
100.78253173828125 18.979225158691406 247.89227294921875 255 255 255
90.63819122314453 19.16619873046875 243.26161193847656 255 255 255
62.5670280456543 21.72459602355957 257.0714111328125 255 255 255
63.03551483154297 21.149959564208984 254.00067138671875 255 255 255
87.57240295410156 16.861289978027344 256.878662109375 255 255 255
90.76217651367188 19.123735427856445 243.2606201171875 255 255 255
93.24481964111328 18.196941375732422 244.4745330810547 255 255 255
102.41255950927734 20.56011962890625 246.201416015625 255 255 255
83.7818832397461 8.550055503845215 241.1003875732422 255 255 255
63.083580017089844 21.36125373840332 254.70814514160156 255 255 255
85.97261047363281 21.659299850463867 264.468017578125 255 255 255
67.47808837890625 22.254148483276367 261.6752624511719 255 255 255
84.34809875488281 19.210344314575195 247.05186462402344 255 255 255
87.07234191894531 21.623517990112305 264.48284912109375 255 255 255
63.0889778137207 20.330223083496094 254.76589965820312 255 255 255
72.85432434082031 13.660747528076172 249.03762817382812 255 255 255
76.09073638916016 20.470516204833984 247.45639038085938 255 255 255
89.06282043457031 15.099605560302734 243.0557403564453 255 255 255
91.59984588623047 19.846651077270508 248.94248962402344 255 255 255
59.25589370727539 18.316328048706055 257.433349609375 255 255 255
74.989501953125 21.216754913330078 253.61314392089844 255 255 255
93.51426696777344 17.301149368286133 240.82901000976562 255 255 255
59.320777893066406 17.95486831665039 257.8092041015625 255 255 255
61.33546829223633 18.55643081665039 262.90478515625 255 255 255
87.64005279541016 15.088724136352539 244.03631591796875 255 255 255
84.39369201660156 18.657535552978516 245.2078399658203 255 255 255
119.1001968383789 16.4458065032959 256.78533935546875 255 255 255
113.34062194824219 16.94345474243164 251.9019012451172 255 255 255
104.37208557128906 17.390287399291992 247.56764221191406 255 255 255
57.9286003112793 21.675302505493164 256.9071350097656 255 255 255
59.19739532470703 18.17247772216797 257.1114196777344 255 255 255
112.7445297241211 17.987018585205078 247.89231872558594 255 255 255
91.4716796875 19.491779327392578 245.76966857910156 255 255 255
62.545650482177734 22.281600952148438 264.23895263671875 255 255 255
70.34768676757812 21.89839744567871 259.64642333984375 255 255 255
70.66719818115234 21.64820098876953 261.7238464355469 255 255 255
51.11720275878906 22.84914207458496 262.73675537109375 255 255 255
62.47724914550781 18.20294189453125 263.9571228027344 255 255 255
72.01820373535156 21.86305809020996 261.29071044921875 255 255 255
92.02203369140625 19.513532638549805 245.6325225830078 255 255 255
112.0223617553711 13.398609161376953 236.59710693359375 255 255 255
107.0877685546875 15.047085762023926 254.4109649658203 255 255 255
61.446407318115234 22.156768798828125 257.76104736328125 255 255 255
61.65935516357422 22.21613311767578 260.26849365234375 255 255 255
60.94583511352539 22.104970932006836 258.0589599609375 255 255 255
63.19535827636719 21.133394241333008 254.637939453125 255 255 255
79.40442657470703 19.393556594848633 247.03224182128906 255 255 255
44.29771423339844 21.875568389892578 261.26214599609375 255 255 255
51.938411712646484 18.976240158081055 269.2982177734375 255 255 255
44.40776443481445 20.137054443359375 263.8645324707031 255 255 255
82.99046325683594 16.04844856262207 247.0505828857422 255 255 255
93.6104736328125 18.640073776245117 241.4297332763672 255 255 255
60.249759674072266 20.45142936706543 263.96173095703125 255 255 255
45.1849365234375 22.451257705688477 260.17926025390625 255 255 255
45.85573196411133 19.859054565429688 264.383056640625 255 255 255
43.2322883605957 23.368013381958008 264.4788513183594 255 255 255
49.10301208496094 21.37433624267578 259.24664306640625 255 255 255
50.04845428466797 19.958118438720703 267.1719055175781 255 255 255
51.751461029052734 19.641216278076172 266.89739990234375 255 255 255
63.04026794433594 21.19771957397461 253.0052947998047 255 255 255
49.790504455566406 18.607892990112305 262.3663330078125 255 255 255
59.02808380126953 22.2740535736084 259.3580627441406 255 255 255
54.31472396850586 18.269256591796875 267.889404296875 255 255 255
62.918941497802734 18.12773323059082 266.70111083984375 255 255 255
56.83528518676758 16.409711837768555 259.83203125 255 255 255
63.08320617675781 21.755449295043945 266.1569519042969 255 255 255
51.977291107177734 19.572921752929688 266.6861267089844 255 255 255
52.278865814208984 21.697763442993164 254.58995056152344 255 255 255
83.91968536376953 18.94061279296875 264.0456848144531 255 255 255
63.202415466308594 21.209672927856445 254.6240234375 255 255 255
79.29093933105469 21.347536087036133 256.9250183105469 255 255 255
80.08518981933594 19.581178665161133 242.4156036376953 255 255 255
76.81472778320312 17.6077880859375 248.44227600097656 255 255 255
93.73673248291016 19.918346405029297 259.0934753417969 255 255 255
85.04798126220703 10.455180168151855 237.3597412109375 255 255 255
69.96162414550781 19.448455810546875 261.2973327636719 255 255 255
118.62919616699219 16.414480209350586 256.7643127441406 255 255 255
60.90876007080078 18.939123153686523 265.08172607421875 255 255 255
73.76886749267578 21.21725082397461 253.53768920898438 255 255 255
52.168304443359375 22.99506187438965 267.2421875 255 255 255
79.60665130615234 19.028751373291016 247.03173828125 255 255 255
81.74608612060547 20.827484130859375 255.57435607910156 255 255 255
52.28028869628906 19.504762649536133 266.9258728027344 255 255 255
56.508506774902344 22.421762466430664 259.3893127441406 255 255 255
114.0464859008789 17.89491844177246 248.07745361328125 255 255 255
90.98820495605469 19.154104232788086 243.02288818359375 255 255 255
91.85209655761719 19.41531753540039 245.8177490234375 255 255 255
67.625244140625 22.032363891601562 254.5882568359375 255 255 255
50.697391510009766 19.077754974365234 266.4569091796875 255 255 255
53.13868713378906 18.702299118041992 268.3351135253906 255 255 255
52.820011138916016 18.76804542541504 268.3473205566406 255 255 255
49.216514587402344 22.009868621826172 259.63543701171875 255 255 255
58.17006301879883 16.644672393798828 259.164794921875 255 255 255
53.24230194091797 22.20406723022461 269.0756530761719 255 255 255
48.51898956298828 19.44242286682129 268.1672668457031 255 255 255
52.27827453613281 18.528114318847656 267.9068298339844 255 255 255
49.789031982421875 19.4254150390625 261.95751953125 255 255 255
53.98656463623047 18.418861389160156 268.38543701171875 255 255 255
82.49224090576172 10.818323135375977 241.4392852783203 255 255 255
88.17070007324219 10.371624946594238 235.0193634033203 255 255 255
82.16353607177734 20.6317195892334 252.53060913085938 255 255 255
84.01834106445312 9.534791946411133 241.33445739746094 255 255 255
63.71730041503906 21.309865951538086 253.86831665039062 255 255 255
62.7458610534668 21.817276000976562 256.6415100097656 255 255 255
83.49449920654297 20.624130249023438 252.1181182861328 255 255 255
73.55012512207031 16.692367553710938 252.5916748046875 255 255 255
92.2767562866211 19.307315826416016 255.74655151367188 255 255 255
50.914649963378906 19.90768814086914 262.6422424316406 255 255 255
51.85772705078125 22.629749298095703 261.2934265136719 255 255 255
103.56419372558594 7.876521110534668 230.46278381347656 255 255 255
51.71902084350586 18.815235137939453 262.3273010253906 255 255 255
53.30306625366211 18.968189239501953 266.9624938964844 255 255 255
104.39204406738281 14.37298583984375 252.0484161376953 255 255 255
49.01508331298828 21.490442276000977 259.9303894042969 255 255 255
59.0865478515625 18.036779403686523 257.9192199707031 255 255 255
70.43949890136719 21.735492706298828 261.7341613769531 255 255 255
83.88642883300781 19.779563903808594 246.63339233398438 255 255 255
87.11065673828125 18.163719177246094 243.84117126464844 255 255 255
51.52248764038086 18.395511627197266 262.2518615722656 255 255 255
50.1920051574707 19.597688674926758 267.6300354003906 255 255 255
94.47579193115234 19.84515380859375 246.57086181640625 255 255 255
70.41871643066406 20.95472526550293 251.45281982421875 255 255 255
53.42839813232422 22.709205627441406 260.7784118652344 255 255 255
88.03687286376953 15.063246726989746 244.31602478027344 255 255 255
43.505393981933594 22.890451431274414 260.8414306640625 255 255 255
83.73209381103516 19.828495025634766 246.268798828125 255 255 255
92.90180206298828 19.384475708007812 245.30870056152344 255 255 255
50.93661880493164 19.84231948852539 261.7599182128906 255 255 255
84.98017120361328 11.777698516845703 242.0548553466797 255 255 255
79.06656646728516 19.357038497924805 247.33544921875 255 255 255
77.5687484741211 20.620738983154297 250.56866455078125 255 255 255
113.07319641113281 13.391754150390625 247.3279571533203 255 255 255
53.26488494873047 22.42483901977539 260.3797912597656 255 255 255
54.12030029296875 22.591047286987305 261.97125244140625 255 255 255
53.78547286987305 22.463008880615234 260.17919921875 255 255 255
116.4478759765625 15.80030632019043 246.22219848632812 255 255 255
52.58673858642578 22.713842391967773 260.723388671875 255 255 255
51.8840446472168 22.490415573120117 260.9644470214844 255 255 255
48.180702209472656 19.832687377929688 262.8804931640625 255 255 255
49.201690673828125 22.12839698791504 259.59552001953125 255 255 255
56.42822265625 22.775175094604492 258.61859130859375 255 255 255
53.16035079956055 22.741233825683594 269.0993347167969 255 255 255
59.4477424621582 23.218177795410156 265.5989990234375 255 255 255
51.4053955078125 23.01470375061035 261.48175048828125 255 255 255
53.4941291809082 18.244699478149414 269.5373840332031 255 255 255
52.60735321044922 18.820838928222656 267.668701171875 255 255 255
48.50261688232422 23.061017990112305 262.3894958496094 255 255 255
44.30931854248047 21.652570724487305 261.2262878417969 255 255 255
71.3968505859375 21.159847259521484 252.77597045898438 255 255 255
54.56763458251953 23.159536361694336 270.044921875 255 255 255
61.2679557800293 17.852710723876953 264.79376220703125 255 255 255
85.927978515625 22.07335662841797 270.7784423828125 255 255 255
52.09800338745117 22.49620819091797 260.82745361328125 255 255 255
60.587398529052734 21.71717643737793 258.3207702636719 255 255 255
93.52648162841797 17.228023529052734 240.86875915527344 255 255 255
91.27877807617188 18.52379608154297 245.90914916992188 255 255 255
62.06058120727539 21.321609497070312 255.01181030273438 255 255 255
83.44876098632812 19.945770263671875 247.18380737304688 255 255 255
83.92333221435547 18.717792510986328 245.47731018066406 255 255 255
86.49052429199219 20.076345443725586 246.3807373046875 255 255 255
50.64789962768555 20.054014205932617 268.9959411621094 255 255 255
72.6636962890625 21.55256462097168 258.87200927734375 255 255 255
40.70566177368164 23.68898582458496 269.07855224609375 255 255 255
40.071197509765625 20.068151473999023 267.4342346191406 255 255 255
