-25.50864028930664 19.800457000732422 136.9867401123047 255 255 255
-31.494709014892578 19.979698181152344 138.40965270996094 255 255 255
-30.67477798461914 24.89188003540039 136.70077514648438 255 255 255
-30.492605209350586 24.825963973999023 136.88970947265625 255 255 255
-29.90233612060547 21.40559196472168 137.17501831054688 255 255 255
-29.73719596862793 20.451168060302734 138.0138397216797 255 255 255
-31.485206604003906 24.874650955200195 136.47647094726562 255 255 255
-30.68079376220703 25.249128341674805 138.3004150390625 255 255 255
-30.632064819335938 24.838682174682617 136.95867919921875 255 255 255
-30.712350845336914 20.30653953552246 137.50308227539062 255 255 255
-6.159605026245117 9.977120399475098 134.9335479736328 255 255 255
-29.4185848236084 20.334918975830078 138.51132202148438 255 255 255
-15.83510684967041 16.69375228881836 133.01612854003906 255 255 255
-30.710115432739258 22.180652618408203 137.2215118408203 255 255 255
-30.15895652770996 20.34259033203125 137.96163940429688 255 255 255
-28.725385665893555 19.91447639465332 137.77064514160156 255 255 255
-26.665313720703125 18.636072158813477 137.1565399169922 255 255 255
-21.203659057617188 17.984939575195312 136.29721069335938 255 255 255
-25.36526107788086 20.375253677368164 137.7160186767578 255 255 255
-26.1177978515625 20.626497268676758 137.87863159179688 255 255 255
-25.531862258911133 21.387325286865234 136.88914489746094 255 255 255
-29.826778411865234 20.93564224243164 137.65411376953125 255 255 255
-30.41277503967285 20.868383407592773 138.3274383544922 255 255 255
-30.674896240234375 21.118545532226562 137.73019409179688 255 255 255
-30.32727813720703 21.172224044799805 137.7681884765625 255 255 255
-29.569948196411133 21.049163818359375 137.78475952148438 255 255 255
-30.462947845458984 21.44959259033203 138.02711486816406 255 255 255
-28.733070373535156 20.582937240600586 138.1756591796875 255 255 255
-29.443662643432617 21.098106384277344 138.3894805908203 255 255 255
-29.126590728759766 20.573486328125 138.71153259277344 255 255 255
-26.85616111755371 20.012100219726562 138.05471801757812 255 255 255
-24.148059844970703 25.317806243896484 137.98577880859375 255 255 255
-25.9788875579834 19.654701232910156 137.59095764160156 255 255 255
-25.632598876953125 19.806190490722656 137.30593872070312 255 255 255
-27.465486526489258 21.141963958740234 138.1849822998047 255 255 255
-26.302257537841797 20.10884666442871 139.01010131835938 255 255 255
-28.78565216064453 20.56349754333496 137.79527282714844 255 255 255
-27.112567901611328 20.104755401611328 137.43649291992188 255 255 255
-30.06910514831543 21.220579147338867 138.50921630859375 255 255 255
-13.81175708770752 24.864160537719727 135.5878143310547 255 255 255
-14.976993560791016 25.210479736328125 140.1195526123047 255 255 255
-16.60280418395996 24.829429626464844 137.74961853027344 255 255 255
-15.709281921386719 25.14434814453125 140.10667419433594 255 255 255
-27.225255966186523 20.890932083129883 137.8883056640625 255 255 255
-25.56778907775879 20.01361846923828 138.2214813232422 255 255 255
-21.146320343017578 25.39595603942871 141.3944854736328 255 255 255
-16.682172775268555 24.575448989868164 137.32640075683594 255 255 255
-17.782461166381836 19.377843856811523 133.87008666992188 255 255 255
-23.05377769470215 20.643556594848633 137.7517547607422 255 255 255
-24.960241317749023 21.72723388671875 136.89605712890625 255 255 255
-23.076644897460938 22.09485626220703 136.04824829101562 255 255 255
-22.455909729003906 21.93716812133789 135.7626190185547 255 255 255
-11.957803726196289 16.438661575317383 135.0410614013672 255 255 255
-25.42104721069336 21.36989402770996 138.3753204345703 255 255 255
-24.37124252319336 20.965747833251953 138.163818359375 255 255 255
-24.004175186157227 20.82875633239746 138.05447387695312 255 255 255
-25.724750518798828 24.343978881835938 137.15179443359375 255 255 255
-9.383854866027832 24.261571884155273 131.99464416503906 255 255 255
-15.232025146484375 24.181501388549805 135.15382385253906 255 255 255
-15.957366943359375 21.167566299438477 138.09803771972656 255 255 255
-8.797213554382324 21.200599670410156 135.6046600341797 255 255 255
-17.471454620361328 21.655378341674805 138.47393798828125 255 255 255
-18.601680755615234 20.587026596069336 138.72442626953125 255 255 255
-17.533611297607422 20.54753303527832 138.90505981445312 255 255 255
-16.779823303222656 24.826961517333984 137.7776641845703 255 255 255
-16.999134063720703 21.852466583251953 138.2676544189453 255 255 255
-14.542724609375 25.547452926635742 142.36009216308594 255 255 255
-9.111162185668945 18.81796646118164 137.60934448242188 255 255 255
-16.744592666625977 21.99032974243164 137.91622924804688 255 255 255
-14.484965324401855 25.688940048217773 141.38662719726562 255 255 255
-15.964221954345703 21.00897789001465 137.80311584472656 255 255 255
-17.341808319091797 24.09926414489746 137.32884216308594 255 255 255
-16.921274185180664 21.990802764892578 137.52857971191406 255 255 255
-6.742354393005371 20.792692184448242 134.95523071289062 255 255 255
-16.691871643066406 21.430532455444336 138.27198791503906 255 255 255
-15.819795608520508 25.402297973632812 142.11070251464844 255 255 255
-17.419313430786133 24.57756233215332 137.50006103515625 255 255 255
-16.795612335205078 24.59392547607422 136.84616088867188 255 255 255
-21.07480239868164 19.999910354614258 135.53216552734375 255 255 255
-24.981447219848633 20.69292640686035 138.75794982910156 255 255 255
-16.932971954345703 24.589040756225586 136.88673400878906 255 255 255
-15.002182006835938 19.917823791503906 139.55331420898438 255 255 255
-15.230639457702637 24.184101104736328 135.16067504882812 255 255 255
-21.55141830444336 25.842771530151367 144.387451171875 255 255 255
-17.79275131225586 25.054410934448242 138.54324340820312 255 255 255
-18.583280563354492 24.991870880126953 138.6497039794922 255 255 255
-16.68922233581543 24.81798553466797 137.7568817138672 255 255 255
-18.17874526977539 25.439485549926758 142.07264709472656 255 255 255
-17.52860450744629 25.08436393737793 139.0534210205078 255 255 255
-18.402904510498047 25.454736709594727 142.35499572753906 255 255 255
-17.575607299804688 25.390647888183594 141.47744750976562 255 255 255
-18.317476272583008 25.62676239013672 143.34669494628906 255 255 255
-18.186920166015625 25.19498062133789 140.44027709960938 255 255 255
-16.357101440429688 24.880802154541016 138.76718139648438 255 255 255
-16.486024856567383 23.92707633972168 134.7115936279297 255 255 255
-16.6776180267334 19.831974029541016 137.28370666503906 255 255 255
-15.635698318481445 23.55777931213379 134.47128295898438 255 255 255
-12.97848129272461 16.292224884033203 136.1883087158203 255 255 255
-17.88079261779785 25.235944747924805 140.433349609375 255 255 255
-17.128320693969727 24.573604583740234 136.93955993652344 255 255 255
-14.926273345947266 25.010343551635742 138.4564666748047 255 255 255
-17.221067428588867 24.604585647583008 137.06739807128906 255 255 255
-11.779815673828125 16.67106819152832 135.16867065429688 255 255 255
-17.859094619750977 21.237314224243164 138.0586395263672 255 255 255
-9.448726654052734 15.048053741455078 134.81478881835938 255 255 255
-16.682048797607422 18.625812530517578 138.40194702148438 255 255 255
-16.130905151367188 24.047574996948242 134.64459228515625 255 255 255
-15.925065994262695 25.535062789916992 143.08409118652344 255 255 255
-16.46339225769043 25.19404411315918 141.0732879638672 255 255 255
-16.624977111816406 24.850820541381836 138.82334899902344 255 255 255
-10.072408676147461 17.880096435546875 134.48336791992188 255 255 255
-10.078049659729004 17.877870559692383 134.50352478027344 255 255 255
-14.17337703704834 19.612642288208008 138.88694763183594 255 255 255
-14.657771110534668 21.221797943115234 136.51226806640625 255 255 255
-14.983929634094238 20.361356735229492 137.025146484375 255 255 255
-9.631516456604004 20.744123458862305 138.2699432373047 255 255 255
-10.9727144241333 21.16122055053711 138.5039520263672 255 255 255
-7.498388767242432 20.058263778686523 137.53530883789062 255 255 255
-8.953661918640137 20.583263397216797 137.87924194335938 255 255 255
-8.744271278381348 17.94565200805664 135.8494873046875 255 255 255
-5.474174499511719 18.92406463623047 136.70521545410156 255 255 255
-5.722705841064453 19.303333282470703 136.99725341796875 255 255 255
-9.552212715148926 20.47516441345215 136.8186492919922 255 255 255
-14.569620132446289 19.549894332885742 137.28099060058594 255 255 255
-3.2031409740448 20.93140983581543 138.07603454589844 255 255 255
0.9297670722007751 19.6575984954834 139.5541534423828 255 255 255
5.994546890258789 17.57868003845215 135.55308532714844 255 255 255
25.98876190185547 18.425386428833008 135.40679931640625 255 255 255
10.26632022857666 17.98952865600586 136.6814727783203 255 255 255
13.7451171875 15.637024879455566 133.1251220703125 255 255 255
11.576749801635742 24.957195281982422 142.40786743164062 255 255 255
-4.213892459869385 20.897275924682617 138.40936279296875 255 255 255
0.7862525582313538 19.92648696899414 137.45835876464844 255 255 255
0.933630108833313 19.68754005432129 139.26486206054688 255 255 255
-2.8012423515319824 20.74711036682129 137.89584350585938 255 255 255
11.145792961120605 25.31329917907715 143.68368530273438 255 255 255
1.0827418565750122 20.363601684570312 139.79910278320312 255 255 255
9.190585136413574 17.338537216186523 139.1383819580078 255 255 255
0.6697860360145569 20.3343448638916 140.6348419189453 255 255 255
1.473008155822754 19.837499618530273 140.50054931640625 255 255 255
0.6575618982315063 20.47037124633789 140.72349548339844 255 255 255
2.73721981048584 19.29752540588379 137.1841583251953 255 255 255
25.490447998046875 18.366662979125977 133.89077758789062 255 255 255
29.183992385864258 19.069103240966797 130.14207458496094 255 255 255
28.76456069946289 19.214733123779297 130.33836364746094 255 255 255
25.59833335876465 17.853622436523438 131.23374938964844 255 255 255
25.726219177246094 17.970840454101562 131.6778564453125 255 255 255
28.13698959350586 15.326227188110352 128.54188537597656 255 255 255
30.187057495117188 13.788792610168457 127.08987426757812 255 255 255
29.043045043945312 14.649606704711914 127.98281860351562 255 255 255
25.563390731811523 18.02362632751465 131.49581909179688 255 255 255
23.52674102783203 18.85126304626465 131.91737365722656 255 255 255
23.106094360351562 19.38593292236328 131.9984588623047 255 255 255
27.213375091552734 16.484153747558594 129.5337371826172 255 255 255
25.226369857788086 18.70147705078125 132.77761840820312 255 255 255
27.94136619567871 18.968490600585938 129.44195556640625 255 255 255
28.692787170410156 17.378496170043945 128.10787963867188 255 255 255
25.98008155822754 18.678117752075195 130.13595581054688 255 255 255
31.216678619384766 16.633512496948242 132.81069946289062 255 255 255
31.488340377807617 16.514375686645508 132.7595672607422 255 255 255
29.528366088867188 17.5986270904541 130.18841552734375 255 255 255
27.46221351623535 16.648576736450195 130.23974609375 255 255 255
27.608200073242188 16.55092430114746 130.03489685058594 255 255 255
29.93248748779297 18.94577980041504 132.46417236328125 255 255 255
30.965322494506836 18.689027786254883 132.1375274658203 255 255 255
31.130756378173828 18.841400146484375 131.9813232421875 255 255 255
27.565677642822266 18.497278213500977 133.14479064941406 255 255 255
31.294292449951172 18.418054580688477 128.53024291992188 255 255 255
31.498435974121094 19.258623123168945 131.42222595214844 255 255 255
28.788179397583008 19.540185928344727 132.6437530517578 255 255 255
26.26264762878418 20.54621124267578 131.68089294433594 255 255 255
30.44801139831543 18.976119995117188 132.10691833496094 255 255 255
33.10359573364258 21.465641021728516 131.89749145507812 255 255 255
26.795007705688477 19.96992301940918 133.00161743164062 255 255 255
34.36341857910156 14.605870246887207 134.04373168945312 255 255 255
30.624406814575195 16.313663482666016 134.58631896972656 255 255 255
26.9506778717041 17.713985443115234 131.80577087402344 255 255 255
29.61663055419922 18.2696533203125 132.08815002441406 255 255 255
27.743629455566406 18.44917106628418 136.8794403076172 255 255 255
27.72332000732422 20.453529357910156 130.68594360351562 255 255 255
33.19245147705078 13.938517570495605 131.5990447998047 255 255 255
34.65054702758789 13.159425735473633 131.1171112060547 255 255 255
25.234703063964844 20.686487197875977 134.00808715820312 255 255 255
27.791858673095703 20.113964080810547 132.56394958496094 255 255 255
33.403018951416016 19.52980613708496 130.48284912109375 255 255 255
31.287988662719727 15.288970947265625 132.24134826660156 255 255 255
27.823049545288086 17.17366600036621 133.22914123535156 255 255 255
25.276880264282227 18.804271697998047 133.123779296875 255 255 255
31.855527877807617 15.658061981201172 135.69334411621094 255 255 255
34.237091064453125 17.465099334716797 134.788330078125 255 255 255
5.073245048522949 19.640972137451172 139.8618927001953 255 255 255
8.878478050231934 24.13616371154785 137.6479949951172 255 255 255
8.773871421813965 24.129056930541992 137.66796875 255 255 255
8.162067413330078 24.097618103027344 137.8647003173828 255 255 255
9.170148849487305 25.199100494384766 144.25205993652344 255 255 255
9.288755416870117 25.220325469970703 144.3016357421875 255 255 255
8.966312408447266 25.04464340209961 143.2375946044922 255 255 255
1.521358847618103 20.507200241088867 139.92723083496094 255 255 255
12.369619369506836 19.704626083374023 135.75927734375 255 255 255
5.740732669830322 19.940399169921875 139.86715698242188 255 255 255
6.817992687225342 19.192569732666016 139.42242431640625 255 255 255
11.583050727844238 23.809837341308594 135.88414001464844 255 255 255
11.785675048828125 20.04389762878418 135.37908935546875 255 255 255
12.444355964660645 18.595584869384766 135.62454223632812 255 255 255
12.868328094482422 23.387636184692383 135.6451873779297 255 255 255
10.99026870727539 23.433250427246094 136.36691284179688 255 255 255
26.195526123046875 18.06052589416504 130.12515258789062 255 255 255
29.33561134338379 19.42423439025879 132.1167755126953 255 255 255
13.751351356506348 19.234052658081055 136.247314453125 255 255 255
21.92427635192871 17.1124324798584 132.58311462402344 255 255 255
15.895241737365723 24.95778465270996 143.6966552734375 255 255 255
18.108335494995117 23.720266342163086 135.95950317382812 255 255 255
17.844547271728516 25.069665908813477 144.33958435058594 255 255 255
10.088723182678223 19.61770248413086 136.52125549316406 255 255 255
12.951584815979004 17.57823944091797 135.2705841064453 255 255 255
11.682904243469238 24.667484283447266 141.61936950683594 255 255 255
11.830611228942871 21.09305191040039 135.60714721679688 255 255 255
14.44129753112793 18.398509979248047 134.53355407714844 255 255 255
12.107813835144043 17.902624130249023 135.85928344726562 255 255 255
11.721312522888184 23.5270938873291 135.59153747558594 255 255 255
12.667925834655762 25.635208129882812 147.01768493652344 255 255 255
13.940505981445312 24.104110717773438 136.3603057861328 255 255 255
18.693828582763672 24.475025177001953 136.26490783691406 255 255 255
13.350014686584473 19.801044464111328 135.272705078125 255 255 255
19.633563995361328 23.673856735229492 136.20094299316406 255 255 255
15.198763847351074 23.32341957092285 134.51072692871094 255 255 255
25.00128746032715 23.615507125854492 136.11598205566406 255 255 255
26.79923439025879 24.342817306518555 141.78224182128906 255 255 255
26.127687454223633 23.12608528137207 131.93663024902344 255 255 255
31.8144474029541 13.092366218566895 132.01119995117188 255 255 255
22.081418991088867 23.701581954956055 135.68519592285156 255 255 255
14.01411247253418 20.277040481567383 137.18698120117188 255 255 255
14.34450626373291 23.789348602294922 136.40748596191406 255 255 255
19.36760711669922 23.731868743896484 135.8966827392578 255 255 255
13.9968900680542 19.48021697998047 137.09683227539062 255 255 255
28.741413116455078 23.85186004638672 137.7174530029297 255 255 255
25.34174156188965 20.25360870361328 134.1901397705078 255 255 255
25.472198486328125 18.675439834594727 131.32476806640625 255 255 255
19.032196044921875 23.805471420288086 135.02972412109375 255 255 255
16.815677642822266 24.54606819152832 140.88949584960938 255 255 255
17.583694458007812 23.701831817626953 136.23414611816406 255 255 255
25.134763717651367 24.616867065429688 141.83956909179688 255 255 255
24.86573600769043 23.464643478393555 135.9982452392578 255 255 255
24.588300704956055 24.754451751708984 143.2482452392578 255 255 255
25.77338409423828 23.253042221069336 133.1373291015625 255 255 255
18.40799331665039 23.675521850585938 136.31106567382812 255 255 255
24.746919631958008 18.459131240844727 132.30062866210938 255 255 255
29.511009216308594 23.904386520385742 137.61978149414062 255 255 255
25.676725387573242 22.84084129333496 128.6166534423828 255 255 255
30.07355499267578 20.47863006591797 132.1250762939453 255 255 255
30.5006046295166 18.866947174072266 132.82391357421875 255 255 255
34.281951904296875 15.232736587524414 133.05589294433594 255 255 255
28.251012802124023 19.487516403198242 133.6272735595703 255 255 255
27.77015495300293 19.62363624572754 133.79537963867188 255 255 255
29.95720672607422 15.353609085083008 131.4369354248047 255 255 255
26.770689010620117 16.46389389038086 133.659423828125 255 255 255
22.795846939086914 19.69518280029297 133.03411865234375 255 255 255
28.735084533691406 14.379666328430176 130.82791137695312 255 255 255
26.79692268371582 20.343229293823242 133.5387420654297 255 255 255
25.889097213745117 15.325864791870117 130.45611572265625 255 255 255
32.4200439453125 17.1746826171875 131.2804412841797 255 255 255
25.079347610473633 17.797412872314453 133.6586151123047 255 255 255
26.515056610107422 18.38416290283203 130.7058868408203 255 255 255
31.082223892211914 18.75124168395996 132.64947509765625 255 255 255
29.260635375976562 19.968387603759766 135.94131469726562 255 255 255
28.884225845336914 23.715559005737305 137.32533264160156 255 255 255
30.54973030090332 18.853565216064453 132.814697265625 255 255 255
31.060911178588867 23.806407928466797 135.61241149902344 255 255 255
32.97319030761719 23.89461326599121 135.06336975097656 255 255 255
28.901634216308594 15.914554595947266 131.3154296875 255 255 255
22.585599899291992 21.005332946777344 135.30087280273438 255 255 255
29.603734970092773 19.232017517089844 131.9264373779297 255 255 255
29.375566482543945 15.347755432128906 131.1818389892578 255 255 255
31.53106689453125 20.276412963867188 131.49314880371094 255 255 255
26.948978424072266 18.234819412231445 130.37680053710938 255 255 255
26.207996368408203 17.677026748657227 131.11181640625 255 255 255
24.267175674438477 23.62982940673828 136.21237182617188 255 255 255
27.010740280151367 17.256196975708008 133.68716430664062 255 255 255
24.995391845703125 19.4366397857666 131.98345947265625 255 255 255
27.38577651977539 19.88558006286621 132.9257049560547 255 255 255
28.479690551757812 17.088581085205078 130.52491760253906 255 255 255
30.266340255737305 16.493871688842773 129.4814910888672 255 255 255
30.76836395263672 16.262161254882812 129.17633056640625 255 255 255
26.188310623168945 23.623693466186523 136.37632751464844 255 255 255
25.592958450317383 23.035308837890625 132.11399841308594 255 255 255
31.434274673461914 24.82608985900879 142.74728393554688 255 255 255
24.786285400390625 24.58956527709961 141.75714111328125 255 255 255
19.446060180664062 24.15616798400879 138.9412384033203 255 255 255
19.639694213867188 23.189664840698242 133.14642333984375 255 255 255
21.10191535949707 24.203935623168945 139.02407836914062 255 255 255
23.169662475585938 24.465436935424805 140.57498168945312 255 255 255
23.035541534423828 24.449695587158203 140.57421875 255 255 255
16.987335205078125 23.74892807006836 136.0682830810547 255 255 255
17.733041763305664 23.711708068847656 136.21737670898438 255 255 255
15.61642837524414 23.59127426147461 137.70106506347656 255 255 255
21.82422637939453 23.848651885986328 137.75286865234375 255 255 255
22.123863220214844 23.597126007080078 136.5677490234375 255 255 255
22.029796600341797 24.36963653564453 141.2305450439453 255 255 255
27.055612564086914 24.94499969482422 143.71620178222656 255 255 255
26.10690689086914 24.54002571105957 141.97193908691406 255 255 255
25.94013023376465 14.511568069458008 130.93145751953125 255 255 255
26.060819625854492 17.89992332458496 131.1752166748047 255 255 255
25.56909942626953 15.762518882751465 130.4673309326172 255 255 255
32.750247955322266 16.825544357299805 133.94134521484375 255 255 255
26.67044448852539 14.767374992370605 130.6041259765625 255 255 255
24.216838836669922 20.0344295501709 133.4659423828125 255 255 255
31.119644165039062 14.30383586883545 131.83128356933594 255 255 255
28.400300979614258 16.585397720336914 128.8866729736328 255 255 255
27.953500747680664 17.66633415222168 130.00958251953125 255 255 255
29.658103942871094 15.764018058776855 138.6358184814453 255 255 255
31.044878005981445 17.896316528320312 130.45010375976562 255 255 255
33.6568603515625 17.941299438476562 131.05804443359375 255 255 255
33.038909912109375 19.206777572631836 128.67869567871094 255 255 255
26.129880905151367 13.011497497558594 131.11849975585938 255 255 255
29.664649963378906 20.540382385253906 132.2977752685547 255 255 255
31.25737953186035 19.173307418823242 133.17242431640625 255 255 255
29.901782989501953 21.136714935302734 132.9391326904297 255 255 255
22.975019454956055 23.511802673339844 136.6633758544922 255 255 255
28.64336585998535 17.304677963256836 134.66738891601562 255 255 255
30.296289443969727 18.92677116394043 132.9193878173828 255 255 255
27.092369079589844 16.25735092163086 133.54652404785156 255 255 255
25.322521209716797 14.718522071838379 130.9521484375 255 255 255
25.3315486907959 14.723051071166992 130.9893035888672 255 255 255
25.38713264465332 18.135351181030273 131.25537109375 255 255 255
27.724468231201172 14.242408752441406 131.94818115234375 255 255 255
25.174762725830078 18.771425247192383 134.95350646972656 255 255 255
29.452428817749023 20.674875259399414 132.32180786132812 255 255 255
29.700197219848633 23.926843643188477 137.73440551757812 255 255 255
30.406831741333008 16.588729858398438 134.1770782470703 255 255 255
27.201154708862305 16.999711990356445 129.21566772460938 255 255 255
33.34650802612305 17.13042449951172 132.49404907226562 255 255 255
26.520401000976562 17.933528900146484 132.6133270263672 255 255 255
26.32823371887207 18.018909454345703 132.66831970214844 255 255 255
27.81224250793457 17.505083084106445 131.9268035888672 255 255 255
22.90232276916504 19.145633697509766 134.2088165283203 255 255 255
30.880901336669922 19.004589080810547 131.85311889648438 255 255 255
27.883251190185547 19.71216583251953 132.71969604492188 255 255 255
31.168964385986328 16.653322219848633 127.71415710449219 255 255 255
20.63405418395996 23.163148880004883 133.22764587402344 255 255 255
24.826322555541992 24.877195358276367 143.74607849121094 255 255 255
21.871902465820312 23.091442108154297 132.3604736328125 255 255 255
24.581323623657227 24.570005416870117 142.71788024902344 255 255 255
26.45860481262207 24.689584732055664 142.9303741455078 255 255 255
28.34122085571289 25.047149658203125 146.11305236816406 255 255 255
25.953594207763672 18.121253967285156 130.31271362304688 255 255 255
29.856842041015625 16.80803680419922 134.32432556152344 255 255 255
25.893474578857422 19.451831817626953 132.5650634765625 255 255 255
31.28485679626465 18.655637741088867 130.65594482421875 255 255 255
27.76243019104004 17.058353424072266 129.62258911132812 255 255 255
25.956390380859375 18.182018280029297 136.88238525390625 255 255 255
30.98317527770996 18.716903686523438 132.71078491210938 255 255 255
24.22625160217285 22.965604782104492 130.94390869140625 255 255 255
28.578062057495117 23.662199020385742 135.8468780517578 255 255 255
25.7569522857666 20.187110900878906 133.97384643554688 255 255 255
30.245336532592773 14.312358856201172 130.7769317626953 255 255 255
28.475933074951172 18.27015495300293 128.66619873046875 255 255 255
31.19385528564453 12.647716522216797 129.594482421875 255 255 255
26.677677154541016 16.98212432861328 133.51467895507812 255 255 255
29.815654754638672 17.5541934967041 135.61817932128906 255 255 255
31.229448318481445 17.052019119262695 135.42481994628906 255 255 255
24.905658721923828 16.786863327026367 132.63560485839844 255 255 255
28.06755828857422 16.690685272216797 133.23666381835938 255 255 255
28.847211837768555 17.168437957763672 134.91143798828125 255 255 255
29.365324020385742 18.358144760131836 137.12710571289062 255 255 255
29.57809829711914 18.389036178588867 131.1513214111328 255 255 255
33.256134033203125 17.17061996459961 129.37017822265625 255 255 255
29.44364356994629 19.155519485473633 132.5894775390625 255 255 255
26.06088638305664 18.14244270324707 132.08453369140625 255 255 255
26.402263641357422 22.34908103942871 126.88497161865234 255 255 255
31.20404052734375 16.02469253540039 134.65122985839844 255 255 255
28.126022338867188 17.50432777404785 135.21116638183594 255 255 255
32.2931022644043 15.562599182128906 134.4158935546875 255 255 255
29.840917587280273 16.454391479492188 135.64244079589844 255 255 255
30.997146606445312 19.300609588623047 133.17724609375 255 255 255
32.16627502441406 19.07069206237793 131.22296142578125 255 255 255
26.944101333618164 17.880329132080078 130.96429443359375 255 255 255
26.789302825927734 17.966989517211914 131.07102966308594 255 255 255
28.979795455932617 18.230480194091797 129.83993530273438 255 255 255
26.014795303344727 19.051197052001953 134.12635803222656 255 255 255
27.286346435546875 19.77345085144043 133.96530151367188 255 255 255
26.319883346557617 18.30058479309082 135.26966857910156 255 255 255
30.54499053955078 13.878264427185059 132.46475219726562 255 255 255
26.877838134765625 23.444826126098633 133.939697265625 255 255 255
27.907047271728516 23.813941955566406 137.80825805664062 255 255 255
26.44535255432129 17.72013282775879 130.92086791992188 255 255 255
25.732648849487305 14.3413724899292 130.64698791503906 255 255 255
30.876195907592773 15.241923332214355 132.26551818847656 255 255 255
26.813316345214844 14.635407447814941 130.4217529296875 255 255 255
26.87101173400879 19.80817222595215 130.12893676757812 255 255 255
29.334138870239258 14.428176879882812 130.36834716796875 255 255 255
28.35668182373047 17.421525955200195 134.6983642578125 255 255 255
32.33210372924805 18.022907257080078 135.0421142578125 255 255 255
25.426485061645508 18.599525451660156 133.06272888183594 255 255 255
32.15728759765625 16.999958038330078 134.16392517089844 255 255 255
26.055463790893555 18.389806747436523 130.6392822265625 255 255 255
32.922794342041016 16.725793838500977 133.984619140625 255 255 255
28.00063705444336 18.6068115234375 137.15176391601562 255 255 255
33.22555923461914 15.043326377868652 135.54922485351562 255 255 255
29.08666229248047 17.01934051513672 135.93637084960938 255 255 255
28.918058395385742 16.141502380371094 130.4897003173828 255 255 255
32.460147857666016 14.423995971679688 131.7044677734375 255 255 255
27.856075286865234 17.552860260009766 136.06961059570312 255 255 255
28.3494873046875 19.908246994018555 132.98577880859375 255 255 255
29.021169662475586 18.956668853759766 129.83773803710938 255 255 255
26.039644241333008 19.875072479248047 131.58889770507812 255 255 255
28.137928009033203 21.656471252441406 133.5211944580078 255 255 255
29.409208297729492 17.876140594482422 132.7059326171875 255 255 255
29.225208282470703 17.94646644592285 132.75045776367188 255 255 255
30.713598251342773 13.750389099121094 132.4464111328125 255 255 255
31.71666145324707 12.56020450592041 131.8319549560547 255 255 255
25.44679069519043 17.5760440826416 133.42800903320312 255 255 255
30.351959228515625 23.139738082885742 134.70094299316406 255 255 255
32.462013244628906 18.953899383544922 132.78126525878906 255 255 255
25.442737579345703 18.663494110107422 135.51211547851562 255 255 255
34.21928787231445 17.456588745117188 134.81443786621094 255 255 255
26.39153480529785 23.1419677734375 132.7364959716797 255 255 255
33.48591995239258 16.805208206176758 136.07740783691406 255 255 255
29.1903133392334 16.050790786743164 136.0885009765625 255 255 255
26.8227596282959 14.286616325378418 129.96340942382812 255 255 255
31.746305465698242 15.191927909851074 138.0098114013672 255 255 255
26.088388442993164 14.920517921447754 130.52471923828125 255 255 255
26.785350799560547 16.75193977355957 129.57412719726562 255 255 255
31.811260223388672 18.205257415771484 139.98037719726562 255 255 255
26.922456741333008 20.414608001708984 133.48497009277344 255 255 255
26.531042098999023 18.20598602294922 131.63479614257812 255 255 255
25.050596237182617 18.776050567626953 133.23658752441406 255 255 255
26.99183464050293 14.914901733398438 131.03384399414062 255 255 255
32.842010498046875 13.957620620727539 135.01193237304688 255 255 255
33.53649139404297 17.67407989501953 134.90826416015625 255 255 255
25.45138931274414 19.749835968017578 133.80091857910156 255 255 255
25.011566162109375 23.412588119506836 136.53292846679688 255 255 255
29.714874267578125 14.286855697631836 132.483642578125 255 255 255
26.528932571411133 15.379433631896973 130.7678680419922 255 255 255
21.162384033203125 21.818267822265625 123.04960632324219 255 255 255
26.571887969970703 17.77069091796875 133.6992645263672 255 255 255
28.132726669311523 20.200075149536133 135.595458984375 255 255 255
27.92352294921875 20.052913665771484 133.96463012695312 255 255 255
28.31096839904785 20.13867950439453 135.6001434326172 255 255 255
35.22120666503906 17.5972900390625 130.44143676757812 255 255 255
33.33757019042969 18.117353439331055 131.1742401123047 255 255 255
26.133363723754883 20.51481056213379 133.71885681152344 255 255 255
29.51139259338379 20.499876022338867 132.36776733398438 255 255 255
28.902463912963867 18.713829040527344 137.56289672851562 255 255 255
25.954925537109375 20.507381439208984 133.7457733154297 255 255 255
30.023090362548828 14.966388702392578 132.2512664794922 255 255 255
29.307880401611328 15.406685829162598 132.49710083007812 255 255 255
29.517946243286133 15.174431800842285 132.3935089111328 255 255 255
27.92927360534668 23.029680252075195 133.9012908935547 255 255 255
27.297746658325195 18.29099464416504 136.48226928710938 255 255 255
29.83275032043457 18.214954376220703 132.145263671875 255 255 255
32.44660186767578 17.754295349121094 133.7465057373047 255 255 255
31.446439743041992 19.93149185180664 131.3454132080078 255 255 255
26.042156219482422 17.209402084350586 129.81304931640625 255 255 255
31.991762161254883 14.96699047088623 128.47665405273438 255 255 255
29.17899513244629 17.057588577270508 129.67286682128906 255 255 255
31.04353904724121 18.130979537963867 128.21102905273438 255 255 255
26.780406951904297 18.72757339477539 129.47760009765625 255 255 255
25.417808532714844 18.184268951416016 129.91152954101562 255 255 255
20.415327072143555 21.826459884643555 123.2264404296875 255 255 255
27.657522201538086 16.57379913330078 128.80340576171875 255 255 255
29.08401107788086 15.663850784301758 127.9458999633789 255 255 255
19.640491485595703 21.116607666015625 120.20879364013672 255 255 255
27.920135498046875 16.689756393432617 128.79345703125 255 255 255
25.18287467956543 18.286314010620117 129.98211669921875 255 255 255
29.714555740356445 17.446664810180664 127.80892944335938 255 255 255
28.018783569335938 16.65182876586914 128.609619140625 255 255 255
30.853775024414062 16.5426082611084 126.20523071289062 255 255 255
27.920623779296875 18.40785789489746 128.46681213378906 255 255 255
31.08302879333496 17.901823043823242 127.46102905273438 255 255 255
29.535181045532227 17.557193756103516 127.54833221435547 255 255 255
26.394763946533203 18.74504852294922 130.30410766601562 255 255 255
25.81209373474121 18.990951538085938 130.6227264404297 255 255 255
27.56012725830078 16.736907958984375 130.3645782470703 255 255 255
26.98383331298828 18.15186309814453 129.53778076171875 255 255 255
27.921171188354492 17.75033950805664 129.0828399658203 255 255 255
29.34020233154297 17.075403213500977 127.71095275878906 255 255 255
27.582996368408203 16.631418228149414 128.8436737060547 255 255 255
26.812013626098633 16.957853317260742 129.85353088378906 255 255 255
26.66014862060547 18.65650177001953 130.1663818359375 255 255 255
26.8206787109375 18.008230209350586 129.81362915039062 255 255 255
28.36840057373047 17.720701217651367 127.81645965576172 255 255 255
20.67135238647461 21.590412139892578 122.82766723632812 255 255 255
20.71343231201172 21.578716278076172 122.44650268554688 255 255 255
28.792457580566406 17.66885757446289 127.27228546142578 255 255 255
17.783544540405273 15.102534294128418 120.66966247558594 255 255 255
29.8170223236084 17.26573944091797 126.9794921875 255 255 255
18.955196380615234 20.913501739501953 120.57171630859375 255 255 255
18.91788673400879 21.0083065032959 119.92452239990234 255 255 255
18.928560256958008 21.00259017944336 120.04570770263672 255 255 255
19.055908203125 19.030027389526367 123.3523941040039 255 255 255
18.97792625427246 17.0579833984375 119.51600646972656 255 255 255
19.699085235595703 21.240076065063477 121.96979522705078 255 255 255
19.250904083251953 20.988948822021484 120.08194732666016 255 255 255
19.03584098815918 14.805270195007324 118.9881820678711 255 255 255
19.175254821777344 17.200796127319336 123.53515625 255 255 255
19.13532066345215 16.290878295898438 119.68397521972656 255 255 255
19.105918884277344 15.812979698181152 120.75701904296875 255 255 255
20.983837127685547 21.35167121887207 119.72600555419922 255 255 255
29.311193466186523 17.655521392822266 127.86907958984375 255 255 255
18.927621841430664 21.009803771972656 120.15304565429688 255 255 255
19.506484985351562 21.61077880859375 123.4746322631836 255 255 255
19.115285873413086 16.435901641845703 119.95362854003906 255 255 255
18.732568740844727 20.792654037475586 118.45155334472656 255 255 255
18.995010375976562 15.837065696716309 118.80551147460938 255 255 255
18.044668197631836 17.240402221679688 118.36137390136719 255 255 255
19.08698272705078 15.51927661895752 120.21824645996094 255 255 255
18.914623260498047 18.227264404296875 119.24107360839844 255 255 255
18.637678146362305 21.18817901611328 120.72703552246094 255 255 255
19.777807235717773 16.45350456237793 120.33922576904297 255 255 255
19.658281326293945 21.168254852294922 120.9102783203125 255 255 255
26.3470516204834 22.085933685302734 123.92598724365234 255 255 255
18.53115463256836 21.184688568115234 120.30560302734375 255 255 255
18.848535537719727 16.61776351928711 118.15971374511719 255 255 255
19.591012954711914 21.09307098388672 119.33954620361328 255 255 255
17.993896484375 17.473464965820312 117.2366714477539 255 255 255
18.066347122192383 17.6397647857666 118.73628234863281 255 255 255
19.21717071533203 20.989633560180664 119.72030639648438 255 255 255
19.9693660736084 17.34798240661621 120.95124816894531 255 255 255
19.98125457763672 17.16638946533203 120.54159545898438 255 255 255
25.85713005065918 22.062639236450195 124.50598907470703 255 255 255
19.806190490722656 18.249351501464844 120.85395812988281 255 255 255
21.18692970275879 21.82120704650879 122.84233093261719 255 255 255
23.471723556518555 22.056333541870117 124.14580535888672 255 255 255
19.17528533935547 21.025901794433594 119.4796142578125 255 255 255
20.988027572631836 21.338895797729492 120.54076385498047 255 255 255
19.009382247924805 18.496601104736328 120.07046508789062 255 255 255
19.072233200073242 16.681909561157227 121.20379638671875 255 255 255
18.970653533935547 16.125164031982422 120.04300689697266 255 255 255
18.958425521850586 16.12769889831543 120.10446166992188 255 255 255
19.940948486328125 21.962467193603516 125.43505859375 255 255 255
18.9620304107666 21.619396209716797 122.8790283203125 255 255 255
20.864381790161133 20.58164405822754 117.70356750488281 255 255 255
18.463478088378906 21.17221450805664 119.5228042602539 255 255 255
18.988460540771484 17.147714614868164 119.70274353027344 255 255 255
19.154428482055664 20.93597412109375 118.88629150390625 255 255 255
18.699995040893555 14.557247161865234 116.1656723022461 255 255 255
19.15247917175293 16.45924186706543 119.98168182373047 255 255 255
18.85704803466797 21.02189826965332 119.52490234375 255 255 255
24.41967010498047 21.657089233398438 121.26558685302734 255 255 255
19.722694396972656 21.110740661621094 119.29393768310547 255 255 255
19.353984832763672 22.081985473632812 119.64849853515625 255 255 255
20.389938354492188 21.834074020385742 123.6063232421875 255 255 255
21.640478134155273 21.62577247619629 121.6728515625 255 255 255
19.527822494506836 21.027542114257812 118.96255493164062 255 255 255
21.7120418548584 21.10795783996582 118.35834503173828 255 255 255
19.19284439086914 15.625876426696777 118.4662857055664 255 255 255
19.822141647338867 17.43985939025879 117.94984436035156 255 255 255
23.80246353149414 21.293413162231445 119.97859191894531 255 255 255
20.905786514282227 21.408226013183594 121.64847564697266 255 255 255
19.70075035095215 21.10738754272461 119.15711975097656 255 255 255
21.89747428894043 21.008888244628906 118.88374328613281 255 255 255
20.919418334960938 21.39441680908203 121.10169982910156 255 255 255
19.058984756469727 16.67365074157715 118.56756591796875 255 255 255
22.430313110351562 21.169586181640625 119.75824737548828 255 255 255
20.13170623779297 17.753515243530273 121.59764099121094 255 255 255
20.16189193725586 18.1263370513916 119.43963623046875 255 255 255
-5.547624588012695 18.61656379699707 139.5704803466797 255 255 255
-6.291807651519775 18.331491470336914 140.3871612548828 255 255 255
-5.7369232177734375 18.818796157836914 140.67324829101562 255 255 255
-6.246624946594238 18.70021629333496 138.96835327148438 255 255 255
-6.0190815925598145 20.442853927612305 140.12149047851562 255 255 255
-6.174415111541748 19.03116798400879 140.68072509765625 255 255 255
-7.233419895172119 19.798826217651367 140.22933959960938 255 255 255
-6.232658863067627 19.832677841186523 138.5644073486328 255 255 255
-6.8752617835998535 19.62276268005371 140.21421813964844 255 255 255
-5.7057647705078125 19.60902214050293 138.47071838378906 255 255 255
-6.591896057128906 19.317880630493164 141.3129119873047 255 255 255
-6.768553256988525 18.77582359313965 139.60362243652344 255 255 255
-7.032336711883545 19.03326988220215 140.85153198242188 255 255 255
-6.575451850891113 21.08565330505371 138.0873565673828 255 255 255
-75.48423767089844 -3.494788646697998 39.115074157714844 255 255 255
-60.460304260253906 -10.149463653564453 49.87891387939453 255 255 255
-64.43494415283203 4.47629976272583 48.30683135986328 255 255 255
-74.66935729980469 -4.764586925506592 45.25604248046875 255 255 255
-32.236412048339844 -6.201529026031494 77.0906982421875 255 255 255
-83.0771713256836 -15.816804885864258 51.6298942565918 255 255 255
-68.24439239501953 4.020333290100098 48.874114990234375 255 255 255
-68.94804382324219 0.7196968197822571 42.134490966796875 255 255 255
-71.22845458984375 -4.246713161468506 49.1158447265625 255 255 255
-6.74933385848999 19.621824264526367 140.86328125 255 255 255
-4.340607643127441 17.545330047607422 136.66558837890625 255 255 255
-6.434748649597168 18.474891662597656 137.9058837890625 255 255 255
-4.149980545043945 19.44842529296875 140.88131713867188 255 255 255
20.871801376342773 18.71328353881836 142.70640563964844 255 255 255
2.794834852218628 19.00322723388672 141.261962890625 255 255 255
6.0000176429748535 18.471729278564453 156.11920166015625 255 255 255
-7.755064964294434 20.65972328186035 140.7831268310547 255 255 255
-8.386238098144531 19.86211585998535 141.1392059326172 255 255 255
-7.812877655029297 20.59613800048828 140.3814697265625 255 255 255
-6.744283676147461 19.9332218170166 141.17681884765625 255 255 255
-1.3820509910583496 18.036401748657227 133.12852478027344 255 255 255
0.8989765644073486 20.076875686645508 151.8402557373047 255 255 255
-8.390302658081055 20.342641830444336 140.56646728515625 255 255 255
-6.627504348754883 19.71746253967285 140.7428436279297 255 255 255
-66.15631866455078 3.10697078704834 48.48331069946289 255 255 255
-76.39751434326172 -4.738715171813965 46.44759750366211 255 255 255
-51.13798522949219 8.127278327941895 93.8734130859375 255 255 255
-54.82559585571289 11.478411674499512 96.86665344238281 255 255 255
-52.814186096191406 26.013898849487305 159.6004638671875 255 255 255
-46.90679168701172 18.246335983276367 101.28497314453125 255 255 255
-62.11103820800781 13.805261611938477 122.23406982421875 255 255 255
-53.76768493652344 22.230741500854492 121.76217651367188 255 255 255
-54.894622802734375 18.577667236328125 101.00973510742188 255 255 255
-53.016075134277344 11.15546989440918 101.67182159423828 255 255 255
-50.03421401977539 18.151592254638672 157.4837646484375 255 255 255
-51.38508987426758 21.304832458496094 160.51805114746094 255 255 255
-38.830257415771484 26.141462326049805 157.502197265625 255 255 255
-43.33883285522461 26.04326057434082 155.31275939941406 255 255 255
-52.97545623779297 25.822925567626953 157.34146118164062 255 255 255
-39.19755554199219 16.451326370239258 159.17623901367188 255 255 255
-43.09567642211914 21.614341735839844 158.21815490722656 255 255 255
-46.776912689208984 20.24266815185547 158.39756774902344 255 255 255
-47.936973571777344 20.182985305786133 158.55397033691406 255 255 255
-78.87088012695312 1.0267878770828247 108.21859741210938 255 255 255
-63.61909484863281 8.028796195983887 106.8114242553711 255 255 255
-50.79169845581055 15.065646171569824 109.38072204589844 255 255 255
-54.635528564453125 12.14925765991211 99.27725219726562 255 255 255
-64.6170654296875 9.605781555175781 107.18610382080078 255 255 255
-58.56122589111328 19.52606201171875 157.56259155273438 255 255 255
-61.936851501464844 14.323452949523926 115.13890838623047 255 255 255
-61.14798355102539 26.09180450439453 142.2104949951172 255 255 255
-51.94157409667969 22.971343994140625 124.9220962524414 255 255 255
-53.52176284790039 22.173532485961914 122.6296615600586 255 255 255
-50.15278625488281 15.03138256072998 115.95419311523438 255 255 255
-48.89034652709961 15.54141902923584 116.22019958496094 255 255 255
-41.345943450927734 27.159557342529297 149.66162109375 255 255 255
-28.53809356689453 20.54134750366211 161.4250030517578 255 255 255
-36.41680145263672 13.473198890686035 158.49636840820312 255 255 255
-42.88002014160156 16.421573638916016 159.1264190673828 255 255 255
-33.04206085205078 26.64984130859375 157.13186645507812 255 255 255
-38.20983123779297 14.848733901977539 158.14358520507812 255 255 255
-53.08076095581055 12.546789169311523 100.03508758544922 255 255 255
-48.2634391784668 16.587003707885742 104.77339172363281 255 255 255
-65.429443359375 16.17044448852539 107.18739318847656 255 255 255
-51.419334411621094 18.038785934448242 100.79073333740234 255 255 255
-47.92959976196289 14.306624412536621 106.17725372314453 255 255 255
-44.61832809448242 10.561150550842285 159.73976135253906 255 255 255
-59.53158950805664 10.205290794372559 90.39261627197266 255 255 255
-55.86497497558594 10.069894790649414 97.68080139160156 255 255 255
-67.28705596923828 15.819173812866211 107.87995147705078 255 255 255
-42.368247985839844 17.291301727294922 105.79226684570312 255 255 255
-8.455790519714355 20.520706176757812 139.57559204101562 255 255 255
29.539897918701172 21.890886306762695 125.53804016113281 255 255 255
35.16139602661133 23.35445785522461 138.8925323486328 255 255 255
30.65607261657715 13.81863784790039 135.4989013671875 255 255 255
35.083282470703125 15.79433822631836 138.2071990966797 255 255 255
-29.76824188232422 24.094017028808594 136.7490234375 255 255 255
-54.139957427978516 20.073482513427734 158.98695373535156 255 255 255
-40.544368743896484 16.543020248413086 158.96237182617188 255 255 255
-43.92436599731445 27.4437198638916 150.44068908691406 255 255 255
-37.32674789428711 20.35469627380371 158.13180541992188 255 255 255
-48.146636962890625 28.340532302856445 153.58163452148438 255 255 255
-43.06593322753906 27.860519409179688 152.09315490722656 255 255 255
-38.49639129638672 20.37300682067871 158.0387725830078 255 255 255
-52.44542694091797 17.013906478881836 158.8426513671875 255 255 255
-44.50373077392578 27.270153045654297 149.75198364257812 255 255 255
-38.287353515625 15.806507110595703 158.8369903564453 255 255 255
1.4069479703903198 24.540096282958984 141.1744384765625 255 255 255
4.282495498657227 24.900379180908203 142.9463653564453 255 255 255
27.305086135864258 16.317113876342773 162.4641876220703 255 255 255
31.117958068847656 13.775674819946289 133.99575805664062 255 255 255
35.24919509887695 16.22889518737793 138.16680908203125 255 255 255
-24.90433692932129 21.472797393798828 134.63954162597656 255 255 255
-26.90843391418457 24.402462005615234 135.0398406982422 255 255 255
-28.082340240478516 20.94688606262207 137.95755004882812 255 255 255
-13.960590362548828 25.276798248291016 140.37802124023438 255 255 255
1.343746542930603 9.433915138244629 137.6285400390625 255 255 255
-5.747334957122803 22.066429138183594 132.27439880371094 255 255 255
5.699965953826904 24.609132766723633 140.44961547851562 255 255 255
-9.744089126586914 14.441142082214355 132.01083374023438 255 255 255
9.091623306274414 17.54388427734375 161.99346923828125 255 255 255
-12.703649520874023 26.576488494873047 149.46533203125 255 255 255
-24.282676696777344 25.859535217285156 144.32371520996094 255 255 255
-17.589191436767578 25.853647232055664 152.8788604736328 255 255 255
-15.581446647644043 21.093578338623047 138.31764221191406 255 255 255
-26.682600021362305 24.406898498535156 134.95799255371094 255 255 255
-30.493745803833008 24.502534866333008 135.33656311035156 255 255 255
-4.604203701019287 19.397796630859375 136.9991912841797 255 255 255
8.278547286987305 19.512048721313477 132.42520141601562 255 255 255
-30.064929962158203 22.507585525512695 138.27252197265625 255 255 255
-25.873977661132812 25.016971588134766 137.58743286132812 255 255 255
-5.750449180603027 20.904155731201172 129.6832275390625 255 255 255
-3.325967788696289 25.40479850769043 143.79478454589844 255 255 255
-6.144411563873291 18.446393966674805 140.6429901123047 255 255 255
-20.303308486938477 22.634185791015625 131.43948364257812 255 255 255
-34.75407791137695 27.550012588500977 151.67552185058594 255 255 255
-38.00226974487305 21.67689323425293 158.42041015625 255 255 255
-42.0723876953125 26.19703483581543 155.49188232421875 255 255 255
-42.97566223144531 26.936063766479492 148.7555694580078 255 255 255
5.905501842498779 18.381423950195312 153.91616821289062 255 255 255
31.32522201538086 15.662203788757324 163.49264526367188 255 255 255
30.982406616210938 16.33024024963379 137.98886108398438 255 255 255
26.967567443847656 16.734643936157227 138.4216766357422 255 255 255
28.53826904296875 18.065532684326172 161.48153686523438 255 255 255
-0.480753093957901 24.92401695251465 140.6119842529297 255 255 255
38.67111587524414 16.87312126159668 166.39346313476562 255 255 255
0.32743915915489197 20.450359344482422 140.97378540039062 255 255 255
30.768640518188477 15.937816619873047 138.10423278808594 255 255 255
27.647554397583008 22.494136810302734 133.98683166503906 255 255 255
28.107830047607422 20.221433639526367 124.1153335571289 255 255 255
28.94306755065918 14.740828514099121 129.30030822753906 255 255 255
24.766918182373047 15.5004301071167 130.8109130859375 255 255 255
33.320064544677734 16.495468139648438 138.051513671875 255 255 255
26.433002471923828 17.646148681640625 130.17247009277344 255 255 255
30.14101219177246 14.461348533630371 129.8574676513672 255 255 255
