-31.29814910888672 10.964950561523438 40.03268814086914 75 205 254
-30.12421226501465 10.71534538269043 40.92644500732422 74 205 254
-29.109115600585938 10.784418106079102 39.96528625488281 75 204 254
-28.946876525878906 11.36867618560791 42.39839172363281 75 205 254
-31.340286254882812 11.2949800491333 42.0075569152832 75 205 254
-28.572280883789062 11.045964241027832 41.440067291259766 74 204 254
-30.951507568359375 11.05908489227295 41.059478759765625 74 204 254
-31.248111724853516 11.489300727844238 43.115623474121094 74 205 254
-30.96949005126953 11.143853187561035 41.520851135253906 74 204 254
-28.481008529663086 10.830961227416992 39.984928131103516 75 205 254
-29.49703598022461 10.421390533447266 39.10781478881836 74 205 254
-28.945280075073242 11.461662292480469 42.92163848876953 75 205 254
-30.969707489013672 10.870662689208984 40.08405303955078 74 205 254
-29.475730895996094 10.881743431091309 39.89626693725586 74 205 254
-28.285009384155273 11.145480155944824 42.424468994140625 74 205 254
-31.036325454711914 11.202205657958984 42.051753997802734 74 205 254
-29.835979461669922 10.590271949768066 39.00523376464844 75 205 254
-29.85224151611328 11.023796081542969 40.19929122924805 75 205 254
-29.86321449279785 11.1366548538208 40.68552780151367 75 205 254
-31.256858825683594 10.924492835998535 39.49515914916992 75 205 254
-29.477754592895508 10.905491828918457 40.219295501708984 74 204 254
-29.76312255859375 10.847140312194824 38.802978515625 74 205 254
-31.729280471801758 10.678838729858398 41.277217864990234 75 205 254
-31.181520462036133 10.47251033782959 40.3166618347168 75 205 254
-29.196998596191406 9.8088960647583 41.456268310546875 75 205 254
-28.879871368408203 9.623199462890625 40.16212463378906 75 205 254
-31.498916625976562 10.552302360534668 39.764556884765625 74 205 254
-31.89800262451172 10.376858711242676 38.52568817138672 75 205 254
-32.2869873046875 11.2931489944458 44.27207565307617 74 204 254
-31.17106819152832 10.364553451538086 39.26893997192383 74 205 254
-32.03557205200195 10.616731643676758 38.19117736816406 75 205 254
-30.783214569091797 10.369867324829102 41.36979675292969 75 205 254
-32.349735260009766 11.089102745056152 42.3322639465332 75 204 254
-31.829605102539062 10.285606384277344 38.4990348815918 75 204 254
-31.763235092163086 11.016369819641113 43.129600524902344 75 205 254
-28.427255630493164 9.759134292602539 42.948089599609375 74 205 254
-31.235885620117188 11.020523071289062 43.86429977416992 75 205 254
-31.720579147338867 10.601968765258789 40.801353454589844 75 205 254
-28.474241256713867 9.753090858459473 42.59413146972656 74 204 254
-29.355243682861328 9.982373237609863 41.97531509399414 75 204 254
-29.743274688720703 9.81674575805664 39.063541412353516 74 205 254
-29.664657592773438 9.868840217590332 39.397945404052734 75 205 254
-30.79813003540039 10.443017959594727 41.843448638916016 74 204 254
-32.37623977661133 10.833065032958984 39.6213493347168 75 205 254
-31.440866470336914 10.480381965637207 39.331329345703125 75 204 254
-28.691162109375 9.63244342803955 40.958038330078125 75 205 254
-32.15582275390625 10.411561012268066 38.37410354614258 75 205 254
-31.309024810791016 10.60459041595459 41.763614654541016 75 205 254
-31.554630279541016 10.44803237915039 38.249916076660156 75 205 254
-32.37907028198242 10.433115005493164 38.229156494140625 75 205 254
-32.37599182128906 10.810717582702637 39.20749282836914 75 205 254
-31.75996971130371 10.868354797363281 42.243534088134766 74 205 254
-32.304534912109375 10.651880264282227 37.71231460571289 75 205 254
-32.419471740722656 10.823760986328125 40.03046798706055 75 205 254
-32.60443878173828 11.415024757385254 44.46096420288086 75 205 254
-31.751014709472656 10.743109703063965 41.75048065185547 74 204 254
-31.772953033447266 11.215899467468262 43.74348449707031 74 205 254
-31.697216033935547 10.291891098022461 38.60686111450195 74 205 254
-31.802913665771484 11.13726806640625 43.363304138183594 74 205 254
-29.98773765563965 10.601645469665527 43.95280075073242 74 205 254
-32.20256805419922 10.826306343078613 41.24131393432617 75 205 254
-32.558589935302734 11.421555519104004 44.08491897583008 75 205 254
-31.233728408813477 10.424768447875977 40.773834228515625 74 205 254
-31.899703979492188 11.239425659179688 44.00373458862305 74 205 254
-32.022274017333984 10.623774528503418 38.73524475097656 74 205 254
-32.465858459472656 10.909144401550293 41.12411117553711 75 205 254
-32.1785774230957 10.760951042175293 40.09191131591797 74 205 254
-32.3274040222168 11.37558364868164 44.012943267822266 75 205 254
-32.23442459106445 11.002418518066406 42.156307220458984 75 205 254
-30.879180908203125 10.789443016052246 43.27615737915039 75 205 254
-28.857929229736328 9.925824165344238 42.919273376464844 75 205 254
-29.831178665161133 10.142117500305176 41.933467864990234 75 204 254
-32.518062591552734 11.201746940612793 42.63322448730469 75 205 254
-30.79329490661621 10.54733657836914 42.31779861450195 75 205 254
-31.154651641845703 10.433813095092773 39.81017303466797 75 205 254
-29.3903865814209 10.124922752380371 42.90760803222656 74 205 254
-31.66168975830078 10.509471893310547 38.728515625 75 205 254
-32.5877571105957 11.355626106262207 44.251380920410156 75 204 254
-31.517629623413086 10.367654800415039 37.978721618652344 75 205 254
-30.700008392333984 10.110818862915039 38.47193908691406 75 204 254
-32.15789794921875 10.709415435791016 40.307411193847656 75 205 254
-31.702219009399414 10.631420135498047 39.81217575073242 75 205 254
-29.862438201904297 10.230057716369629 42.37510299682617 74 204 254
-32.042022705078125 10.570996284484863 37.8463249206543 75 205 254
-31.582660675048828 11.14231014251709 43.964839935302734 75 205 254
-30.307432174682617 10.28516960144043 41.863609313964844 75 204 254
-29.27651023864746 9.751153945922852 39.95457077026367 74 205 254
-30.830289840698242 10.636200904846191 42.82006072998047 75 205 254
-28.910003662109375 9.662835121154785 40.50102615356445 75 205 254
-32.48643493652344 11.05555248260498 42.01530838012695 75 205 254
-31.26768684387207 10.708091735839844 42.280235290527344 75 205 254
-32.314579010009766 10.664238929748535 38.13587951660156 75 205 254
-32.476531982421875 10.824950218200684 40.671348571777344 75 205 254
-32.15205383300781 11.1290283203125 43.100101470947266 75 204 254
-32.5432014465332 11.4767484664917 43.7611198425293 75 204 254
-31.31648826599121 10.930978775024414 43.264339447021484 74 205 254
-29.03757095336914 9.513809204101562 39.38992691040039 75 205 254
-31.235868453979492 10.387945175170898 38.7374382019043 74 205 254
-29.8660831451416 10.055585861206055 41.44838333129883 74 205 254
-29.862960815429688 10.303163528442383 42.903602600097656 74 205 254
-32.0870361328125 10.709537506103516 39.227359771728516 75 205 254
-31.425046920776367 11.098836898803711 43.65678024291992 75 205 254
-32.22248840332031 10.887534141540527 41.72690963745117 75 205 254
-32.50759506225586 10.962870597839355 41.62950897216797 75 204 254
-32.37805938720703 11.156782150268555 42.72077941894531 74 205 254
-30.83441734313965 10.880095481872559 43.83300018310547 74 204 254
-30.721166610717773 10.294785499572754 40.798255920410156 74 205 254
-30.320280075073242 10.45768928527832 42.858802795410156 74 204 254
-31.083839416503906 10.244070053100586 38.292964935302734 74 205 254
-30.698463439941406 10.351426124572754 40.37104797363281 74 204 254
-30.33936309814453 10.394255638122559 42.34907150268555 74 204 254
-28.772266387939453 9.8606595993042 42.484100341796875 74 204 254
-32.17647933959961 10.746687889099121 40.77560806274414 75 205 254
-32.11912155151367 10.76059627532959 39.70050811767578 75 205 254
-29.357324600219727 10.05477523803711 42.40675735473633 75 204 254
-29.088640213012695 10.113546371459961 43.22792053222656 75 204 254
-31.100143432617188 10.326133728027344 38.811500549316406 74 205 254
-31.289274215698242 10.540363311767578 41.295963287353516 75 205 254
-31.665708541870117 10.603607177734375 40.26036834716797 75 205 254
-28.837568283081055 9.697141647338867 41.52056884765625 75 204 254
-32.27354431152344 11.384790420532227 43.71666717529297 75 205 254
-32.616302490234375 10.822358131408691 42.24736785888672 74 205 254
-33.216407775878906 10.764304161071777 39.81304168701172 75 205 254
-31.69913673400879 10.632530212402344 42.80630874633789 74 204 254
-33.37229919433594 10.826142311096191 40.809791564941406 74 205 254
-32.5952262878418 10.576772689819336 40.87590789794922 75 205 254
-33.52718734741211 11.3705472946167 43.72775650024414 75 205 254
-31.690338134765625 10.683773040771484 43.32189178466797 74 204 254
-32.016597747802734 10.401652336120605 39.82762908935547 75 204 254
-31.14327049255371 10.128585815429688 40.426876068115234 75 204 254
-33.12548065185547 11.089755058288574 42.66133117675781 74 205 254
-32.51996612548828 10.540035247802734 39.40951156616211 75 205 254
-33.511112213134766 11.419000625610352 44.311031341552734 74 205 254
-31.99062728881836 10.330166816711426 40.210670471191406 74 205 254
-31.173866271972656 10.202731132507324 41.387550354003906 74 204 254
-30.67327880859375 10.043049812316895 41.487735748291016 74 204 254
-30.18860626220703 9.7611722946167 41.07213592529297 74 204 254
-33.44091033935547 11.22184944152832 42.78778839111328 74 205 254
-31.10186195373535 10.292951583862305 41.93394088745117 75 205 254
-33.38776397705078 10.773650169372559 40.21945571899414 74 205 254
-29.96758460998535 9.871150016784668 41.74042510986328 75 205 254
-32.41320037841797 10.48153018951416 39.65317153930664 75 205 254
-33.043556213378906 10.849861145019531 41.70983123779297 74 205 254
-30.304187774658203 10.114728927612305 42.59006881713867 75 205 254
-33.358795166015625 10.769639015197754 39.59724044799805 74 205 254
-31.1494140625 10.365422248840332 42.28300857543945 75 205 254
-32.702117919921875 11.10013484954834 43.70423889160156 75 205 254
-33.039432525634766 10.78443717956543 41.24465560913086 74 205 254
-31.666316986083984 10.278717994689941 41.035072326660156 74 205 254
-32.179847717285156 10.845451354980469 43.263702392578125 74 205 254
-30.16027069091797 9.810423851013184 41.416954040527344 74 204 254
-30.608034133911133 9.872801780700684 41.056156158447266 74 205 254
-31.209184646606445 10.522879600524902 43.35526657104492 74 204 254
-30.069843292236328 10.073884010314941 43.11280059814453 74 205 254
-33.283348083496094 10.397098541259766 37.82059860229492 75 205 254
-32.15230178833008 10.55832576751709 39.67975616455078 74 205 254
-30.256559371948242 9.853793144226074 40.898311614990234 75 205 254
-29.73299789428711 9.663260459899902 41.49046325683594 75 204 254
-30.701900482177734 10.240102767944336 42.429378509521484 75 204 254
-32.67046356201172 10.557429313659668 40.360755920410156 74 205 254
-30.326576232910156 10.019161224365234 41.78986740112305 74 205 254
-33.16352844238281 11.292919158935547 44.2165412902832 74 205 254
-32.17750930786133 10.684152603149414 42.27797317504883 74 205 254
-29.2615909576416 9.499517440795898 41.59699249267578 75 204 254
-33.50051498413086 11.426724433898926 44.10543441772461 74 205 254
-33.13991165161133 11.230323791503906 43.684078216552734 74 205 254
-32.57304000854492 10.62801742553711 39.275630950927734 74 204 254
-31.52716827392578 9.93433666229248 38.86445999145508 75 205 254
-32.99897003173828 10.476502418518066 37.784912109375 75 204 254
-31.640453338623047 10.356983184814453 41.37130355834961 74 204 254
-30.663101196289062 9.943717002868652 40.79988098144531 74 204 254
-33.47926712036133 11.266162872314453 43.04129409790039 74 205 254
-33.27133560180664 10.834137916564941 38.69507598876953 75 205 254
-33.32659149169922 11.370556831359863 44.06647872924805 75 204 254
-31.203096389770508 10.463048934936523 42.85543441772461 74 204 254
-33.41189193725586 10.959391593933105 41.65803527832031 74 205 254
-30.780031204223633 10.035913467407227 40.61092758178711 75 205 254
-33.36623764038086 10.875688552856445 41.17012405395508 74 205 254
-32.65021896362305 11.002703666687012 43.23695373535156 74 205 254
-30.471738815307617 9.863239288330078 41.23128890991211 75 205 254
-32.836669921875 10.590402603149414 39.263980865478516 74 205 254
-32.09821701049805 10.490959167480469 41.28166198730469 74 204 254
-33.039710998535156 10.69709300994873 40.7304801940918 75 205 254
-33.470699310302734 11.154717445373535 42.52301788330078 74 205 254
-33.471553802490234 11.264808654785156 43.28313446044922 74 205 254
-33.247825622558594 10.524989128112793 37.59217834472656 75 205 254
-32.12800216674805 10.571847915649414 41.79000473022461 74 204 254
-32.862152099609375 10.3313570022583 37.82743835449219 74 205 254
-32.6275520324707 10.659823417663574 41.24168014526367 74 205 254
-32.6314697265625 10.734046936035156 41.76971435546875 74 205 254
-32.16144943237305 10.930399894714355 43.77948760986328 74 205 254
-33.03421401977539 10.53147029876709 38.07804489135742 75 205 254
-33.12876510620117 11.15555191040039 43.18927764892578 74 205 254
-33.00443649291992 10.755144119262695 38.854896545410156 74 205 254
-31.181201934814453 9.81371021270752 39.062313079833984 75 205 254
-31.668331146240234 10.315534591674805 40.00117492675781 75 205 254
-31.5071964263916 10.242182731628418 40.208072662353516 74 204 254
-30.72505760192871 10.165997505187988 41.87145233154297 75 204 254
-32.31658172607422 10.627994537353516 39.571815490722656 75 204 254
-33.03556442260742 10.669356346130371 40.18779373168945 75 205 254
-33.34666442871094 10.465563774108887 37.385169982910156 75 205 254
-31.63410186767578 10.413576126098633 41.80706024169922 74 204 254
-32.65296173095703 10.425719261169434 38.20186233520508 75 205 254
-31.697162628173828 10.779619216918945 43.80747604370117 74 204 254
-33.36016845703125 10.757834434509277 39.77732849121094 74 205 254
-33.10985565185547 10.968826293945312 42.21913146972656 74 204 254
-33.0812873840332 10.683097839355469 39.801876068115234 75 205 254
-31.659379959106445 10.519105911254883 42.33975601196289 74 204 254
-32.442752838134766 10.247943878173828 38.27764129638672 75 205 254
-32.04136276245117 10.102828025817871 38.454498291015625 74 205 254
-31.969484329223633 10.093195915222168 38.67124557495117 74 205 254
-33.47100830078125 11.316388130187988 43.597930908203125 74 205 254
-33.34465789794922 10.747614860534668 39.25044250488281 75 204 254
-30.32762908935547 9.949189186096191 41.58828353881836 75 205 254
-32.13190841674805 10.432476043701172 40.96488571166992 75 205 254
-31.218294143676758 10.62406063079834 43.876644134521484 75 204 254
-32.80205535888672 10.348207473754883 38.20570755004883 75 205 254
-31.13590431213379 10.078130722045898 40.99586868286133 75 205 254
-29.94717788696289 10.028156280517578 43.05678176879883 75 205 254
-30.248310089111328 10.123889923095703 42.9249267578125 75 204 254
-33.439476013183594 11.069421768188477 42.22114944458008 74 205 254
-32.764713287353516 10.057928085327148 38.881134033203125 74 204 254
-33.41925048828125 9.97392463684082 37.510337829589844 75 205 254
-34.49378967285156 10.715828895568848 39.202842712402344 74 205 254
-32.92903137207031 10.680191993713379 43.78315734863281 74 204 254
-33.23683166503906 10.39411449432373 40.24717330932617 74 205 254
-34.349185943603516 11.098113059997559 43.15079879760742 75 205 254
-34.44974899291992 10.680319786071777 38.87630844116211 75 205 254
-31.87783432006836 10.121465682983398 42.331172943115234 74 204 254
-32.464134216308594 10.529919624328613 43.82007598876953 74 204 254
-34.37548065185547 11.177050590515137 43.674415588378906 74 204 254
-33.19422912597656 9.944092750549316 37.80067825317383 74 205 254
-33.7598762512207 10.548941612243652 40.221656799316406 75 205 254
-32.83905029296875 10.2992525100708 40.27489471435547 75 204 254
-31.030818939208984 9.845698356628418 42.43648910522461 75 204 254
-31.06996726989746 9.99621295928955 43.51008987426758 74 204 254
-32.212650299072266 10.051328659057617 41.219635009765625 74 205 254
-33.33182907104492 10.398064613342285 40.804317474365234 75 205 254
-30.234272003173828 9.431137084960938 41.809078216552734 75 205 254
-32.427772521972656 10.327988624572754 42.36104202270508 74 204 254
-32.88750457763672 10.469669342041016 42.30906295776367 74 204 254
-33.817317962646484 10.556588172912598 40.75154113769531 75 205 254
-33.869197845458984 10.786258697509766 42.2166633605957 75 205 254
-33.66210174560547 10.296457290649414 38.28297805786133 74 205 254
-33.599754333496094 10.077275276184082 37.61753845214844 75 205 254
-34.695289611816406 11.279994010925293 43.682533264160156 74 205 254
-30.528980255126953 9.623924255371094 42.34617614746094 75 205 254
-32.830596923828125 10.315296173095703 41.327571868896484 74 205 254
-34.24385452270508 10.440075874328613 37.81155776977539 74 205 254
-33.184120178222656 10.237035751342773 38.8187141418457 75 205 254
-33.84003448486328 10.560826301574707 38.7452392578125 74 205 254
-33.89270782470703 10.963968276977539 43.20724868774414 74 205 254
-34.630184173583984 10.789603233337402 40.655555725097656 74 205 254
-34.22649002075195 10.68932056427002 39.69023132324219 75 205 254
-32.54509353637695 10.594001770019531 44.21874237060547 75 205 254
-33.38247299194336 10.729530334472656 42.74919509887695 75 205 254
-31.40045166015625 9.784027099609375 41.00244903564453 75 205 254
-30.90963363647461 9.337158203125 39.593544006347656 75 205 254
-31.662580490112305 9.649295806884766 39.32320785522461 74 205 254
-32.88713073730469 10.56578540802002 42.776302337646484 74 204 254
-34.10090637207031 10.748030662536621 39.05105209350586 75 204 254
-32.47142791748047 9.744157791137695 38.23804473876953 75 205 254
-34.35112380981445 11.029585838317871 42.63935852050781 74 205 254
-33.876129150390625 10.893336296081543 42.728458404541016 74 205 254
-31.897199630737305 9.667781829833984 39.0715217590332 74 205 254
-32.32342529296875 9.855865478515625 38.943233489990234 75 205 254
-34.42736053466797 10.532331466674805 37.97319412231445 75 205 254
-33.197574615478516 10.40096378326416 39.788631439208984 75 204 254
-34.15749740600586 10.492022514343262 38.2036018371582 75 205 254
-33.844940185546875 10.715977668762207 41.716697692871094 75 205 254
-33.912601470947266 11.023577690124512 43.67392349243164 75 205 254
-31.456514358520508 9.999204635620117 42.425968170166016 75 204 254
-31.860570907592773 9.970337867736816 41.402442932128906 74 204 254
-34.487064361572266 10.741920471191406 38.66733169555664 74 205 254
-33.8175048828125 10.659128189086914 41.25037384033203 75 205 254
-34.5609245300293 10.757059097290039 39.189903259277344 75 204 254
-33.27138137817383 10.378677368164062 39.416297912597656 75 205 254
-32.40439224243164 10.256775856018066 41.8290901184082 74 204 254
-32.39471435546875 10.409708023071289 42.84110641479492 75 204 254
-34.654056549072266 10.949590682983398 41.608314514160156 74 205 254
-34.61210632324219 10.815478324890137 39.51890182495117 75 205 254
-34.1750602722168 10.67204761505127 38.677242279052734 75 205 254
-33.410980224609375 10.811452865600586 43.23276901245117 74 205 254
-33.69240951538086 10.486858367919922 39.191612243652344 74 204 254
-33.95033645629883 10.71393871307373 39.67176818847656 75 205 254
-33.411922454833984 10.842143058776855 43.731319427490234 75 205 254
-32.18918228149414 10.43128490447998 43.80570983886719 75 205 254
-34.34102249145508 10.622559547424316 38.31801986694336 74 205 254
-32.86117935180664 10.400470733642578 41.796695709228516 74 204 254
-32.837886810302734 9.845002174377441 38.00151443481445 74 205 254
-34.189029693603516 10.621879577636719 39.22489929199219 75 205 254
-33.356536865234375 10.558317184448242 41.77144241333008 74 205 254
-32.72578048706055 9.855024337768555 38.25912857055664 75 204 254
-32.23960494995117 10.032407760620117 41.01022720336914 75 205 254
-34.451839447021484 10.519246101379395 37.8400764465332 74 205 254
-33.21600341796875 10.122498512268066 38.41792678833008 74 205 254
-31.938417434692383 10.339698791503906 43.84202575683594 74 204 254
-34.40079879760742 11.23388957977295 44.156494140625 74 204 254
-33.335113525390625 10.493257522583008 41.28330612182617 75 205 254
-32.42790985107422 10.48434829711914 43.320133209228516 74 204 254
-31.344266891479492 9.56678581237793 39.54082107543945 74 204 254
-31.4141845703125 9.811809539794922 41.44891357421875 75 204 254
-30.55342674255371 9.78441333770752 43.53329086303711 74 204 254
-32.038047790527344 10.228117942810059 42.50426483154297 75 205 254
-34.47052764892578 10.660977363586426 38.2427978515625 74 205 254
-31.835987091064453 9.902236938476562 40.98994064331055 74 205 254
-34.74006271362305 11.330879211425781 44.151275634765625 74 205 254
-33.90703201293945 11.096580505371094 44.209869384765625 75 205 254
-32.13192367553711 9.648399353027344 38.664588928222656 75 205 254
-32.911136627197266 10.648336410522461 43.28129196166992 74 204 254
-33.421756744384766 10.926553726196289 44.225128173828125 75 205 254
-34.094635009765625 10.560057640075684 38.68107223510742 75 205 254
-34.33427429199219 10.925008773803711 42.18784713745117 74 204 254
-34.72786331176758 11.210774421691895 43.11936569213867 74 205 254
-34.29371643066406 10.697700500488281 40.7030029296875 75 205 254
-34.55345153808594 10.793438911437988 39.68125915527344 74 205 254
-34.23164367675781 10.683234214782715 40.215484619140625 75 205 254
-34.355308532714844 10.871903419494629 41.69227600097656 74 204 254
-34.70180130004883 11.027027130126953 42.1434211730957 74 205 254
-33.383487701416016 10.627545356750488 42.26652526855469 75 205 254
-31.552793502807617 9.49271297454834 39.18687057495117 75 205 254
-35.76979446411133 10.683960914611816 39.10285949707031 74 205 254
-34.681358337402344 10.944158554077148 44.26576232910156 74 205 254
-35.45150375366211 10.599686622619629 39.19424057006836 75 205 254
-31.648391723632812 9.375096321105957 41.231956481933594 74 205 254
-34.62580108642578 10.043450355529785 38.49570846557617 75 204 254
-35.9088020324707 10.954375267028809 41.589027404785156 75 205 254
-33.05701446533203 9.858176231384277 40.3682746887207 74 204 254
-34.500511169433594 10.85647964477539 44.1187629699707 74 205 254
-35.209617614746094 10.142838478088379 38.149452209472656 75 205 254
-35.03675842285156 10.704996109008789 41.722816467285156 75 205 254
-34.13038635253906 10.62983512878418 43.28089904785156 74 204 254
-34.24747085571289 10.569979667663574 42.28468704223633 74 205 254
-35.853057861328125 10.77741527557373 40.70266342163086 74 205 254
-32.6469841003418 9.701231002807617 40.91569519042969 74 204 254
-31.969409942626953 9.45378589630127 41.287315368652344 75 205 254
-33.614376068115234 10.036917686462402 40.895530700683594 74 205 254
-33.17642593383789 10.307526588439941 43.35479736328125 74 204 254
-33.616512298583984 10.35523509979248 42.31807327270508 74 204 254
-34.013057708740234 10.48292064666748 42.25440979003906 75 205 254
-35.64781188964844 10.645362854003906 40.3200569152832 75 205 254
-35.90561294555664 10.732834815979004 40.26359939575195 75 205 254
-34.071746826171875 10.294892311096191 41.298255920410156 74 204 254
-34.059940338134766 10.565895080566406 42.771629333496094 75 205 254
-33.86479568481445 10.092184066772461 39.558536529541016 75 205 254
-32.807640075683594 10.077217102050781 42.397605895996094 75 205 254
-35.422760009765625 10.578842163085938 39.55337905883789 75 205 254
-34.07997131347656 10.393210411071777 41.78664016723633 74 204 254
-31.815736770629883 9.516883850097656 41.55244445800781 75 205 254
-32.14866638183594 9.624654769897461 41.47214889526367 75 204 254
-35.047088623046875 10.608428955078125 41.2001838684082 75 205 254
-34.07984161376953 10.184113502502441 39.7402229309082 75 205 254
-33.048988342285156 9.83297348022461 39.87704849243164 74 204 254
-34.43259811401367 10.231823921203613 38.765594482421875 75 205 254
-34.95487594604492 10.312969207763672 38.25721740722656 74 205 254
-34.0007438659668 10.117470741271973 39.294593811035156 75 205 254
-34.41173553466797 10.900803565979004 44.442604064941406 75 205 254
-32.16776657104492 9.699536323547363 41.86702346801758 74 204 254
-32.64175033569336 9.726910591125488 40.48274612426758 75 205 254
-34.977134704589844 10.441251754760742 40.397464752197266 75 205 254
-32.780296325683594 10.250105857849121 43.83964920043945 74 204 254
-34.600807189941406 10.589017868041992 41.83665084838867 75 205 254
-33.09880447387695 9.961711883544922 41.3745002746582 74 204 254
-34.96112823486328 10.448016166687012 39.183475494384766 75 205 254
-34.04166793823242 10.177750587463379 40.85660934448242 74 205 254
-33.10790252685547 10.069282531738281 41.88089370727539 74 204 254
-35.935340881347656 11.226175308227539 43.13845443725586 74 205 254
-35.62917709350586 11.21774959564209 44.1426887512207 74 205 254
-35.07404327392578 10.99407958984375 43.687660217285156 74 205 254
-34.16937255859375 10.708873748779297 43.79006576538086 75 204 254
-34.51529312133789 10.300638198852539 39.253902435302734 75 205 254
-33.5620002746582 10.00954532623291 40.33134841918945 75 205 254
-33.91542053222656 10.129249572753906 39.87009811401367 75 205 254
-33.1549186706543 10.242280006408691 42.83819580078125 75 204 254
-35.72740936279297 10.4904203414917 38.03787612915039 75 204 254
-34.04209899902344 10.115032196044922 38.87505340576172 75 205 254
-31.768768310546875 9.426398277282715 41.09525680541992 75 205 254
-34.59354019165039 10.67760944366455 42.21772766113281 74 204 254
-34.42854690551758 10.729230880737305 43.30414581298828 74 205 254
-34.930999755859375 10.440176963806152 39.67485809326172 75 205 254
-35.40806198120117 10.51612377166748 37.76949691772461 75 205 254
-35.14936065673828 11.074454307556152 44.1995849609375 75 205 254
-35.34645080566406 10.394824028015137 38.09538269042969 75 205 254
-35.795318603515625 10.691341400146484 38.73919677734375 74 205 254
-33.11979293823242 10.184081077575684 42.35102462768555 75 204 254
-35.359947204589844 10.540982246398926 38.688323974609375 75 205 254
-33.54121398925781 9.96644401550293 39.411842346191406 75 205 254
-34.7299690246582 10.455465316772461 40.879783630371094 75 205 254
-35.718505859375 10.583972930908203 37.70089340209961 75 205 254
-34.26206970214844 10.528862953186035 41.9781608581543 75 205 254
-35.576839447021484 11.158738136291504 43.64265441894531 74 205 254
-35.05646514892578 10.822752952575684 42.184593200683594 74 204 254
-35.57672882080078 11.10899543762207 43.14731979370117 75 205 254
-34.46696853637695 10.48704719543457 41.63759994506836 75 205 254
-35.50259780883789 10.84714126586914 41.680084228515625 74 205 254
-35.56163787841797 10.771097183227539 41.16046905517578 74 205 254
-34.59385681152344 10.318337440490723 40.033660888671875 75 204 254
-35.94269943237305 11.302366256713867 44.110145568847656 75 205 254
-35.051910400390625 10.552412033081055 40.842262268066406 75 205 254
-32.64903259277344 9.806801795959473 41.41105651855469 75 204 254
-34.514488220214844 10.018867492675781 38.57787322998047 74 205 254
-34.748416900634766 10.5119047164917 41.231285095214844 74 205 254
-35.528812408447266 10.962141036987305 42.14492416381836 74 204 254
-33.66335678100586 10.474806785583496 43.32255172729492 74 204 254
-33.10463333129883 9.844921112060547 40.88167190551758 74 205 254
-32.659854888916016 9.9055757522583 41.90011978149414 75 204 254
-34.004051208496094 10.14216136932373 40.236663818359375 75 205 254
-34.4920654296875 10.310553550720215 39.766502380371094 75 205 254
-35.51810836791992 10.68996524810791 40.77827453613281 75 205 254
-33.62666702270508 10.409245491027832 42.80289840698242 74 204 254
-35.76115036010742 10.66405963897705 39.4106559753418 75 205 254
-32.16653823852539 9.546331405639648 40.981632232666016 74 204 254
-33.52989196777344 10.002787590026855 39.82160949707031 74 205 254
-32.70601272583008 10.13552474975586 43.33058166503906 75 204 254
-34.69282150268555 10.86613655090332 43.694427490234375 75 205 254
-35.93964385986328 11.271171569824219 43.61628723144531 75 205 254
-34.52766799926758 10.813962936401367 43.83128356933594 75 205 254
-33.590633392333984 10.131829261779785 41.33210372924805 74 204 254
-33.17993927001953 10.39180850982666 43.83169937133789 75 204 254
-33.6475830078125 10.538321495056152 43.766170501708984 75 204 254
-34.87963104248047 10.071476936340332 38.361446380615234 74 205 254
-35.394309997558594 10.758699417114258 42.433406829833984 75 205 254
-36.61308288574219 10.841711044311523 41.2573356628418 74 204 254
-36.91667556762695 10.831088066101074 40.683349609375 75 205 254
-35.761878967285156 10.928267478942871 42.620182037353516 75 205 254
-34.697818756103516 10.250245094299316 41.35785675048828 75 204 254
-35.43986129760742 10.174703598022461 38.123477935791016 74 205 254
-34.769779205322266 10.175244331359863 40.53203201293945 74 205 254
-36.05696105957031 10.147459983825684 37.46010208129883 75 204 254
-35.97755813598633 10.727338790893555 41.56830978393555 74 205 254
-35.897804260253906 10.213793754577637 38.02584457397461 75 205 254
-36.670074462890625 10.760794639587402 40.671627044677734 75 205 254
-36.2867431640625 10.778552055358887 41.352909088134766 74 205 254
-34.5241584777832 9.746929168701172 38.769775390625 75 205 254
-35.21949005126953 10.633710861206055 42.18680191040039 75 205 254
-35.13414764404297 10.297046661376953 40.897945404052734 74 204 254
-35.87680435180664 11.112211227416992 44.18677520751953 74 205 254
-35.14658737182617 10.381387710571289 41.30654525756836 75 204 254
-34.757972717285156 9.805837631225586 38.539161682128906 74 205 254
-35.637081146240234 10.66476058959961 41.71704864501953 75 204 254
-36.45486068725586 10.209760665893555 37.42831802368164 75 205 254
-36.85666275024414 10.885931015014648 39.576847076416016 74 205 254
-36.77357482910156 10.56410026550293 37.438987731933594 75 205 254
-36.121463775634766 11.043211936950684 42.728397369384766 75 204 254
-35.4704704284668 10.713889122009277 42.157901763916016 74 205 254
-36.20524215698242 11.205984115600586 44.16264343261719 75 204 254
-35.97433853149414 10.575406074523926 40.05125427246094 74 205 254
-35.568260192871094 10.980915069580078 43.952030181884766 74 205 254
-35.90773010253906 10.271519660949707 37.69249725341797 75 205 254
-35.30241394042969 10.904902458190918 43.92314910888672 75 205 254
-34.87963104248047 10.071476936340332 38.361446380615234 74 205 254
-36.66017150878906 11.383540153503418 43.646331787109375 75 204 254
-35.619911193847656 10.512078285217285 40.12548065185547 74 205 254
-36.96929168701172 11.218192100524902 42.145965576171875 75 205 254
-35.96949768066406 11.1636962890625 44.45408630371094 75 205 254
-35.687252044677734 10.81811237335205 42.27359390258789 74 204 254
-36.41440963745117 10.445333480834961 37.649330139160156 74 205 254
-33.733665466308594 9.789270401000977 41.05502700805664 75 205 254
-36.5356559753418 10.309566497802734 36.91169357299805 74 205 254
-36.96893310546875 11.262937545776367 42.61599349975586 75 205 254
-35.082420349121094 10.257566452026367 40.450531005859375 75 205 254
-35.52212905883789 10.05383586883545 37.87154769897461 75 205 254
-35.91656494140625 10.120244026184082 37.7181282043457 74 205 254
-34.2452278137207 10.080501556396484 41.35991287231445 74 204 254
-36.86819839477539 10.453853607177734 37.42293167114258 75 205 254
-36.18178939819336 11.23418140411377 43.78982162475586 75 204 254
-34.6652717590332 10.134230613708496 40.89619827270508 75 204 254
-37.05654525756836 11.497808456420898 44.597938537597656 75 205 254
-36.95834732055664 11.053804397583008 41.62301254272461 75 205 254
-36.600406646728516 10.953302383422852 41.662010192871094 74 204 254
-35.25967788696289 10.116023063659668 38.190460205078125 75 205 254
-36.49787521362305 10.651901245117188 40.3911247253418 75 205 254
-36.67372131347656 11.321694374084473 44.12553024291992 75 204 254
-35.07704162597656 9.930375099182129 38.33872604370117 74 204 254
-35.47722244262695 10.030136108398438 38.206817626953125 74 205 254
-36.904510498046875 10.789336204528809 40.209190368652344 74 205 254
-36.17330551147461 10.5528564453125 40.32453918457031 74 205 254
-36.26364517211914 11.171693801879883 43.05025863647461 75 204 254
-36.019615173339844 10.263538360595703 37.331871032714844 74 204 254
-35.82105255126953 10.122525215148926 38.06077575683594 75 205 254
-36.15568542480469 10.833654403686523 41.737552642822266 74 205 254
-36.76893997192383 10.343825340270996 36.77827835083008 74 205 254
-36.499412536621094 10.711648941040039 40.75993728637695 75 205 254
-36.541358947753906 10.79317569732666 39.7266960144043 75 205 254
-36.97869110107422 11.45996379852295 43.5196418762207 75 204 254
-36.726078033447266 11.404441833496094 44.63249206542969 74 204 254
-35.60258102416992 10.440930366516113 40.84156036376953 75 205 254
-35.80230712890625 11.09972095489502 43.88420867919922 75 205 254
-35.455894470214844 10.976717948913574 43.821510314941406 75 205 254
-34.3628044128418 10.199554443359375 41.686309814453125 75 204 254
-33.93231964111328 9.974908828735352 41.46126174926758 74 205 254
-36.6327018737793 10.7078275680542 40.16438674926758 74 205 254
-36.156455993652344 10.960137367248535 42.20785903930664 74 204 254
-36.96015930175781 10.923487663269043 41.17110824584961 75 205 254
-35.794673919677734 10.762774467468262 41.887298583984375 74 205 254
-35.57814025878906 10.399868965148926 40.334102630615234 75 205 254
-35.27896499633789 9.992834091186523 38.061485290527344 75 205 254
-35.23839569091797 10.895066261291504 44.25816345214844 75 204 254
-36.29261779785156 11.268577575683594 44.569786071777344 75 205 254
-36.454322814941406 10.754634857177734 41.08760452270508 74 205 254
-36.10267639160156 10.663622856140137 39.90423583984375 74 205 254
-32.659854888916016 9.9055757522583 41.90011978149414 75 204 254
-35.59667205810547 10.169378280639648 37.79535675048828 75 205 254
-36.35233688354492 10.265966415405273 37.110076904296875 75 205 254
-34.004051208496094 10.14216136932373 40.236663818359375 75 205 254
-34.4920654296875 10.310553550720215 39.766502380371094 75 205 254
-35.51810836791992 10.68996524810791 40.77827453613281 75 205 254
-33.62666702270508 10.409245491027832 42.80289840698242 74 204 254
-35.76115036010742 10.66405963897705 39.4106559753418 75 205 254
-34.869632720947266 9.87675666809082 38.6180534362793 75 205 254
-36.986419677734375 11.384196281433105 43.18621063232422 75 205 254
-32.16653823852539 9.546331405639648 40.981632232666016 74 204 254
-36.42246627807617 10.21800708770752 37.52304458618164 75 205 254
-33.52989196777344 10.002787590026855 39.82160949707031 74 205 254
-35.64743423461914 10.539758682250977 41.276302337646484 74 204 254
-37.06647491455078 11.424649238586426 44.15193176269531 75 205 254
-36.95341873168945 10.752399444580078 40.41740417480469 75 205 254
-35.64205551147461 11.032332420349121 44.22144317626953 74 204 254
-36.61091232299805 11.097246170043945 42.139892578125 75 205 254
-36.62324142456055 11.161442756652832 42.67436981201172 74 204 254
-32.70601272583008 10.13552474975586 43.33058166503906 75 204 254
-34.69282150268555 10.86613655090332 43.694427490234375 75 205 254
-35.93964385986328 11.271171569824219 43.61628723144531 75 205 254
-34.52766799926758 10.813962936401367 43.83128356933594 75 205 254
-35.16096878051758 10.529256820678711 41.77440643310547 75 204 254
-33.590633392333984 10.131829261779785 41.33210372924805 74 204 254
-33.17993927001953 10.39180850982666 43.83169937133789 75 204 254
-36.66868591308594 11.293655395507812 43.16980743408203 75 204 254
-33.6475830078125 10.538321495056152 43.766170501708984 75 204 254
-36.090179443359375 10.673748016357422 41.224830627441406 74 205 254
-34.27573013305664 10.006951332092285 40.9468879699707 75 204 254
-34.779293060302734 10.379650115966797 41.71706008911133 74 205 254
-36.1031379699707 10.592844009399414 40.74043273925781 74 205 254
-34.61638641357422 9.62077808380127 41.45565414428711 75 204 254
-34.68923568725586 9.583230972290039 41.158203125 74 205 254
-37.4755744934082 10.471915245056152 40.721763610839844 74 205 254
-36.76782989501953 10.79331111907959 44.14513397216797 75 204 254
-36.1524543762207 10.359599113464355 41.93636703491211 74 205 254
-36.499027252197266 10.177143096923828 40.83830261230469 74 204 254
-38.12635803222656 10.302912712097168 37.97685623168945 75 205 254
-37.8096923828125 10.205201148986816 38.11517333984375 74 205 254
-37.57460403442383 11.070696830749512 43.672149658203125 74 205 254
-37.87199783325195 10.56541919708252 40.10069274902344 75 205 254
-35.98633575439453 10.434558868408203 42.98824691772461 74 205 254
-36.35672378540039 10.547536849975586 43.11355209350586 75 205 254
-35.6113395690918 10.346116065979004 43.859378814697266 75 204 254
-36.12309646606445 10.127458572387695 40.38515090942383 75 204 254
-36.0323486328125 10.038125991821289 40.9102783203125 74 205 254
-37.96921157836914 10.986875534057617 42.15522384643555 75 204 254
-36.10366439819336 10.529341697692871 43.77592086791992 74 204 254
-36.50795364379883 10.231658935546875 41.29814147949219 74 204 254
-36.036224365234375 10.484630584716797 43.26481246948242 74 204 254
-36.5360221862793 10.653861045837402 43.27970504760742 74 204 254
-34.641021728515625 9.683177947998047 41.794776916503906 74 205 254
-35.09992218017578 9.735343933105469 41.03046798706055 75 205 254
-37.836875915527344 10.646613121032715 39.64163589477539 74 205 254
-35.5594482421875 10.039584159851074 41.81441116333008 75 204 254
-36.46873092651367 10.314910888671875 41.6963005065918 75 205 254
-37.215938568115234 9.996098518371582 38.42461013793945 75 205 254
-38.3541145324707 11.21092414855957 43.14882278442383 75 205 254
-36.90912628173828 10.360692024230957 41.28060531616211 75 205 254
-35.73842239379883 9.97305679321289 40.584129333496094 75 205 254
-38.02864456176758 10.789656639099121 38.97129440307617 75 204 254
-38.22561264038086 10.739410400390625 39.603172302246094 74 205 254
-37.401100158691406 10.549431800842285 39.718772888183594 74 205 254
-37.06475067138672 10.894599914550781 44.1908073425293 74 205 254
-36.23634338378906 10.562450408935547 43.29472732543945 74 205 254
-36.9245719909668 10.325373649597168 40.23749923706055 74 205 254
-36.57467269897461 10.488849639892578 41.91513442993164 74 204 254
-38.30378341674805 11.068742752075195 42.14112091064453 75 205 254
-36.01152038574219 10.04886531829834 40.51130294799805 75 205 254
-37.41677474975586 10.435200691223145 40.233154296875 75 205 254
-37.51699447631836 10.558202743530273 41.22953796386719 75 205 254
-37.5239372253418 10.958924293518066 43.14832305908203 74 205 254
-38.02610397338867 11.227588653564453 44.126708984375 74 204 254
-37.02848434448242 9.93768310546875 38.530731201171875 75 205 254
-36.974422454833984 10.534502029418945 41.7773323059082 74 204 254
-36.027896881103516 10.080964088439941 41.34669876098633 74 204 254
-35.54030227661133 9.923574447631836 41.39208984375 75 204 254
-36.648738861083984 10.663250923156738 42.4043083190918 75 205 254
-35.14896774291992 10.181337356567383 43.881221771240234 75 204 254
-38.32896423339844 10.924285888671875 41.63774490356445 75 205 254
-36.03177261352539 10.196980476379395 41.776939392089844 74 204 254
-36.42110061645508 10.152311325073242 40.47901153564453 74 205 254
-37.917259216308594 10.679967880249023 41.1873893737793 74 205 254
-38.1497802734375 10.812885284423828 38.94638442993164 74 205 254
-38.3454704284668 11.14376163482666 42.60639572143555 75 205 254
-37.038238525390625 10.031002044677734 38.51347351074219 75 204 254
-36.53861618041992 10.613953590393066 42.7504768371582 75 204 254
-36.27883529663086 10.601673126220703 43.53289031982422 75 205 254
-37.9354248046875 10.613956451416016 40.680328369140625 75 205 254
-35.083858489990234 9.777298927307129 41.423866271972656 75 204 254
-35.11843490600586 9.869949340820312 41.80280685424805 74 204 254
-37.853912353515625 10.712494850158691 39.26285171508789 75 205 254
-36.82865524291992 10.390691757202148 41.550785064697266 75 205 254
-37.48588943481445 10.702250480651855 41.75569152832031 74 204 254
-35.15400314331055 10.163208961486816 43.542388916015625 75 205 254
-38.36152267456055 11.338133811950684 44.11457824707031 75 205 254
-36.88716125488281 9.951603889465332 38.61088180541992 75 204 254
-38.29582595825195 10.728585243225098 40.679466247558594 74 205 254
-35.72569274902344 10.344407081604004 43.02100372314453 74 205 254
-36.982418060302734 10.004364013671875 38.567726135253906 75 205 254
-36.52085494995117 10.233665466308594 40.25985336303711 75 205 254
-37.993282318115234 11.047897338867188 42.65562057495117 74 204 254
-38.308387756347656 10.800894737243652 41.16600799560547 75 205 254
-37.017086029052734 10.80262565612793 43.2126579284668 74 204 254
-38.194740295410156 10.78544807434082 39.195648193359375 74 205 254
-36.456661224365234 10.659327507019043 43.836299896240234 75 205 254
-36.88474655151367 10.27966022491455 40.76768493652344 75 205 254
-37.047183990478516 10.878446578979492 43.69120407104492 75 205 254
-38.01813888549805 11.210700988769531 43.63111877441406 74 205 254
-37.015846252441406 10.753988265991211 42.716346740722656 75 204 254
-37.511878967285156 10.905862808227539 42.67792510986328 74 204 254
-35.67722702026367 10.365760803222656 43.37714385986328 74 204 254
-34.71084213256836 9.987706184387207 43.623023986816406 74 205 254
-37.391693115234375 10.076555252075195 38.33562088012695 74 205 254
-37.48311996459961 10.878177642822266 42.166908264160156 75 204 254
-36.63031768798828 10.723214149475098 43.701961517333984 75 205 254
-38.00287628173828 11.108878135681152 43.15447235107422 74 204 254
-37.11085510253906 10.293861389160156 40.51002883911133 75 205 254
-36.99805450439453 10.755390167236328 42.20254898071289 75 204 254
-36.172950744628906 10.503800392150879 42.81807327270508 74 205 254
-38.34617614746094 10.684576988220215 40.10898208618164 75 205 254
-37.98431396484375 10.261069297790527 37.89759063720703 75 204 254
-37.077598571777344 10.364068031311035 40.83188247680664 75 205 254
-36.89170455932617 10.839509963989258 44.39397048950195 75 205 254
-37.17028045654297 10.4413423538208 41.228004455566406 75 205 254
-37.55780029296875 11.071866035461426 44.160831451416016 74 204 254
-38.21928787231445 10.777802467346191 38.27668762207031 75 204 254
-38.355079650878906 11.31304931640625 43.61104965209961 75 205 254
-35.52231979370117 9.876230239868164 40.92460250854492 74 205 254
-37.00127029418945 10.4227876663208 39.917911529541016 75 205 254
-37.9671745300293 10.838959693908691 41.713104248046875 74 204 254
-38.20981979370117 10.6284818649292 41.60988998413086 75 205 254
-39.57574462890625 11.39941120147705 44.07997512817383 75 205 254
-38.24108123779297 10.504044532775879 41.210174560546875 74 204 254
-37.24392318725586 10.109359741210938 40.82841873168945 74 204 254
-38.710811614990234 10.58849811553955 40.65384292602539 74 204 254
-38.64859390258789 10.570588111877441 39.61488723754883 74 205 254
-37.51713943481445 10.702017784118652 43.504241943359375 75 204 254
-39.59504699707031 11.53457260131836 44.58470916748047 75 205 254
-36.17788314819336 9.69597339630127 40.97946548461914 75 204 254
-38.14533615112305 10.409637451171875 39.91356658935547 74 205 254
-37.47031784057617 10.66008472442627 43.37375259399414 74 205 254
-38.48554611206055 11.095227241516113 43.90546798706055 75 205 254
-37.7721061706543 10.474760055541992 41.633399963378906 75 205 254
-38.4675407409668 11.096993446350098 43.80184555053711 74 205 254
-36.892723083496094 10.149713516235352 41.62535858154297 75 205 254
-38.717811584472656 10.617767333984375 39.22974395751953 75 205 254
-39.25028610229492 11.481246948242188 44.59798049926758 75 205 254
-36.884639739990234 9.974538803100586 40.51908493041992 74 205 254
-38.385337829589844 11.225676536560059 44.67095947265625 75 205 254
-38.9627799987793 10.807064056396484 41.41586685180664 75 205 254
-39.45806121826172 10.763280868530273 40.16115188598633 74 205 254
-38.60194778442383 10.128408432006836 37.82084274291992 74 205 254
-38.61721420288086 11.062962532043457 43.55564880371094 74 205 254
-38.65163803100586 10.299750328063965 37.858360290527344 75 204 254
-37.68191909790039 9.878050804138184 38.38888168334961 75 205 254
-37.26597595214844 10.223280906677246 41.27305603027344 75 205 254
-39.059322357177734 10.380498886108398 37.6446533203125 74 205 254
-37.77488327026367 10.765249252319336 43.310882568359375 75 205 254
-37.18994140625 9.744434356689453 38.70945739746094 75 205 254
-39.339866638183594 10.874720573425293 41.20446014404297 74 205 254
-39.417972564697266 10.708971977233887 40.3088493347168 75 205 254
-39.3698616027832 10.799751281738281 38.74482727050781 74 205 254
-38.62761688232422 10.720893859863281 41.49151611328125 74 205 254
-38.33591079711914 10.789145469665527 41.738128662109375 74 205 254
-38.7386474609375 11.131758689880371 43.16484451293945 74 204 254
-39.21767807006836 10.690421104431152 40.02189254760742 74 205 254
-39.44960403442383 10.818708419799805 40.622684478759766 74 205 254
-38.18123245239258 10.062250137329102 38.1390380859375 74 205 254
-39.0146598815918 10.209245681762695 37.5810432434082 75 205 254
-38.258583068847656 10.472915649414062 39.75115203857422 75 205 254
-39.31047058105469 10.767807960510254 40.58183288574219 74 205 254
-39.38225555419922 11.440423965454102 44.8294677734375 74 205 254
-36.27883529663086 10.601673126220703 43.53289031982422 75 205 254
-38.51595687866211 10.473396301269531 39.8534049987793 75 204 254
-37.9354248046875 10.613956451416016 40.680328369140625 75 205 254
-37.8205451965332 10.828512191772461 43.61995315551758 74 204 254
-39.08626937866211 10.719710350036621 39.13785171508789 75 205 254
-38.718482971191406 10.516061782836914 40.29149627685547 74 205 254
-39.102237701416016 10.710494041442871 40.646549224853516 75 205 254
-39.08058547973633 10.617198944091797 40.22983932495117 74 205 254
-35.083858489990234 9.777298927307129 41.423866271972656 75 204 254
-35.11843490600586 9.869949340820312 41.80280685424805 74 204 254
-39.38467788696289 10.392704010009766 37.06367874145508 75 205 254
-39.54426193237305 11.469704627990723 44.814510345458984 75 205 254
-37.853912353515625 10.712494850158691 39.26285171508789 75 205 254
-38.23698806762695 10.933107376098633 43.303157806396484 75 205 254
-36.82865524291992 10.390691757202148 41.550785064697266 75 205 254
-37.48588943481445 10.702250480651855 41.75569152832031 74 204 254
-37.29920959472656 10.103898048400879 40.37349319458008 75 205 254
-35.15400314331055 10.163208961486816 43.542388916015625 75 205 254
-38.38174819946289 11.115001678466797 43.95676803588867 75 205 254
-38.36152267456055 11.338133811950684 44.11457824707031 75 205 254
-36.88716125488281 9.951603889465332 38.61088180541992 75 204 254
-37.28818130493164 10.299778938293457 41.652435302734375 74 204 254
-39.45579528808594 10.837530136108398 40.973628997802734 75 205 254
-39.115970611572266 10.676058769226074 39.541622161865234 75 205 254
-38.29582595825195 10.728585243225098 40.679466247558594 74 205 254
-35.72569274902344 10.344407081604004 43.02100372314453 74 205 254
-36.982418060302734 10.004364013671875 38.567726135253906 75 205 254
-39.4265251159668 10.755677223205566 39.47693634033203 75 204 254
-39.20629119873047 11.030244827270508 41.60784912109375 75 205 254
-36.52085494995117 10.233665466308594 40.25985336303711 75 205 254
-39.125511169433594 10.766870498657227 41.10717010498047 75 205 254
-37.993282318115234 11.047897338867188 42.65562057495117 74 204 254
-38.25352096557617 10.961996078491211 43.60042190551758 75 205 254
-38.308387756347656 10.800894737243652 41.16600799560547 75 205 254
-39.510013580322266 10.921341896057129 41.16500473022461 74 205 254
-37.017086029052734 10.80262565612793 43.2126579284668 74 204 254
-38.21169662475586 10.436478614807129 40.72929763793945 74 204 254
-36.93671417236328 10.128865242004395 41.304420471191406 75 205 254
-38.42875289916992 10.180594444274902 38.01333999633789 75 205 254
-38.14668655395508 10.361713409423828 40.08430099487305 74 205 254
