-87.3311767578125 13.67524528503418 73.08828735351562 255 255 255
-76.61908721923828 14.909576416015625 70.852294921875 255 255 255
-75.37222290039062 14.637396812438965 68.28238677978516 255 255 255
-75.08094024658203 9.395869255065918 75.50064086914062 255 255 255
-79.88883209228516 2.7167439460754395 71.54053497314453 255 255 255
-63.125389099121094 11.649435997009277 88.6773681640625 255 255 255
-83.91763305664062 3.8469390869140625 72.57500457763672 255 255 255
-74.90735626220703 14.698715209960938 71.49847412109375 255 255 255
-80.39446258544922 9.622145652770996 76.88069152832031 255 255 255
-77.74092864990234 13.510009765625 73.6535415649414 255 255 255
-73.59403228759766 7.604141712188721 77.10983276367188 255 255 255
-74.06102752685547 14.649765968322754 71.63871002197266 255 255 255
-62.9630241394043 16.84062957763672 85.78363037109375 255 255 255
-76.0274887084961 17.001802444458008 81.25308227539062 255 255 255
-61.57302474975586 17.023656845092773 87.68897247314453 255 255 255
-62.511924743652344 14.984848976135254 73.1207046508789 255 255 255
-75.23799896240234 15.782920837402344 75.93159484863281 255 255 255
-61.99505615234375 11.82304859161377 87.62821197509766 255 255 255
-67.98868560791016 -4.577260971069336 -8.791069984436035 255 255 255
-83.81572723388672 -5.853017807006836 -10.653986930847168 255 255 255
-80.11246490478516 -15.63739013671875 -25.876455307006836 255 255 255
-74.84044647216797 5.23228645324707 50.287452697753906 255 255 255
-73.59864807128906 1.3446065187454224 45.4607048034668 255 255 255
-76.72591400146484 17.85805320739746 85.74890899658203 255 255 255
-75.5853500366211 19.273284912109375 92.23345184326172 255 255 255
-77.92860412597656 17.242198944091797 81.51297760009766 255 255 255
-80.71037292480469 10.007987976074219 78.89836120605469 255 255 255
-69.47783660888672 -3.970348596572876 -8.50059700012207 255 255 255
-67.95447540283203 -3.141557455062866 -8.626056671142578 255 255 255
-75.45381927490234 12.336995124816895 76.13614654541016 255 255 255
-75.28386688232422 18.393949508666992 89.4177017211914 255 255 255
-77.75833129882812 18.183914184570312 87.06348419189453 255 255 255
-90.01346588134766 13.377626419067383 78.92304992675781 255 255 255
-65.99805450439453 3.9766266345977783 48.35512161254883 255 255 255
-56.8698616027832 -11.78587532043457 3.44844126701355 255 255 255
-78.55708312988281 4.9377336502075195 15.204385757446289 255 255 255
-72.05057525634766 -4.065385341644287 -27.98642921447754 255 255 255
-80.15666961669922 -0.7482038736343384 -11.64081859588623 255 255 255
-71.0023422241211 -5.695057392120361 -6.094998359680176 255 255 255
-70.34132385253906 -4.551266193389893 -8.568873405456543 255 255 255
-62.44157028198242 11.604629516601562 89.3963394165039 255 255 255
-55.423397064208984 2.428234338760376 71.10211181640625 255 255 255
-90.01483917236328 13.099729537963867 81.83737182617188 255 255 255
-81.95902252197266 13.440885543823242 69.24909210205078 255 255 255
-77.26478576660156 15.197094917297363 74.48274230957031 255 255 255
-75.64131927490234 14.232478141784668 68.78845977783203 255 255 255
-76.12628173828125 9.088066101074219 64.185546875 255 255 255
-77.01671600341797 7.926638603210449 69.03038024902344 255 255 255
-80.80652618408203 0.10029979050159454 45.40167999267578 255 255 255
-75.625 4.197460651397705 58.39544677734375 255 255 255
-75.28199768066406 7.739464282989502 58.125370025634766 255 255 255
-55.54517364501953 16.774499893188477 77.77082824707031 255 255 255
-65.08482360839844 1.8919891119003296 49.02507019042969 255 255 255
-61.72593307495117 9.414447784423828 44.45759201049805 255 255 255
-63.51076889038086 17.4595890045166 89.4354476928711 255 255 255
-58.777565002441406 8.714996337890625 73.17893981933594 255 255 255
-65.91954040527344 15.85625171661377 77.04685974121094 255 255 255
-54.687259674072266 3.118497133255005 69.27879333496094 255 255 255
-66.5522689819336 2.8358542919158936 54.25730514526367 255 255 255
-59.01441192626953 -14.220269203186035 0.312869131565094 255 255 255
-66.845703125 -10.16467571258545 2.3114073276519775 255 255 255
-66.89887237548828 10.260371208190918 44.30340576171875 255 255 255
-54.68410110473633 9.589860916137695 73.6263198852539 255 255 255
-53.86738967895508 10.37830638885498 73.64247131347656 255 255 255
-55.02334976196289 6.746264934539795 65.79560089111328 255 255 255
-51.862030029296875 7.297562122344971 65.46879577636719 255 255 255
-63.494651794433594 3.3426167964935303 67.89773559570312 255 255 255
-56.4935188293457 3.7028872966766357 65.68666076660156 255 255 255
-58.87248611450195 6.7671589851379395 67.89865112304688 255 255 255
-60.80630874633789 4.293234825134277 65.33220672607422 255 255 255
-56.8946418762207 4.517899990081787 65.98039245605469 255 255 255
-66.17981719970703 -0.39070239663124084 1.8592838048934937 255 255 255
-71.57752990722656 9.77956771850586 40.51472854614258 255 255 255
-55.88160705566406 14.361685752868652 72.02593994140625 255 255 255
-63.29948806762695 -1.9442014694213867 69.06216430664062 255 255 255
-53.12492752075195 6.212368011474609 67.73727416992188 255 255 255
-59.76461410522461 -0.0735120177268982 69.27507019042969 255 255 255
-60.77433776855469 2.9127230644226074 71.33769989013672 255 255 255
-65.21956634521484 2.7082016468048096 69.93484497070312 255 255 255
-57.93873596191406 2.510692834854126 69.87818145751953 255 255 255
-59.44450759887695 1.687927007675171 67.4361801147461 255 255 255
-56.24061965942383 6.602832317352295 67.28836059570312 255 255 255
-57.8555908203125 4.3415656089782715 66.05016326904297 255 255 255
-71.26639556884766 7.554572105407715 67.50975799560547 255 255 255
-61.50477600097656 6.177993297576904 69.23011016845703 255 255 255
-52.130374908447266 14.772632598876953 75.02021026611328 255 255 255
-53.82326126098633 9.962056159973145 74.22503662109375 255 255 255
-74.31072998046875 15.20865535736084 73.67205047607422 255 255 255
-88.89057159423828 9.285221099853516 86.16600036621094 255 255 255
-80.9854507446289 18.50316047668457 87.36610412597656 255 255 255
-55.71175765991211 14.293109893798828 71.83259582519531 255 255 255
-79.17718505859375 -3.2438714504241943 9.28062915802002 255 255 255
-83.02670288085938 -16.711740493774414 -41.899776458740234 255 255 255
-77.19257354736328 -12.858473777770996 -14.408355712890625 255 255 255
-81.2804183959961 -14.894868850708008 -11.979214668273926 255 255 255
-68.90411376953125 -2.290614604949951 -7.870267391204834 255 255 255
-63.05973815917969 -6.288584232330322 0.5454519391059875 255 255 255
-67.66974639892578 0.3804284632205963 5.166982650756836 255 255 255
-75.94434356689453 -11.752981185913086 -49.6004524230957 255 255 255
-51.365665435791016 13.661115646362305 69.46773529052734 255 255 255
-71.03045654296875 -13.1736478805542 -41.03369140625 255 255 255
-63.61627960205078 -6.5624260902404785 -24.1848201751709 255 255 255
-80.36445617675781 -8.38608455657959 -15.746849060058594 255 255 255
-81.65828704833984 -9.504040718078613 -23.286449432373047 255 255 255
-68.6668701171875 13.17564582824707 65.65499877929688 255 255 255
-65.27253723144531 2.987382411956787 54.36093521118164 255 255 255
-55.67241287231445 17.22612762451172 87.25276184082031 255 255 255
-60.79608154296875 0.027727555483579636 69.04084777832031 255 255 255
-77.31784057617188 -0.41438955068588257 -11.274735450744629 255 255 255
-57.31174850463867 2.9163620471954346 72.9223861694336 255 255 255
-70.86317443847656 -14.441118240356445 -43.29494857788086 255 255 255
-69.01424407958984 -12.031516075134277 -41.753746032714844 255 255 255
-71.3633804321289 -13.860299110412598 -43.151092529296875 255 255 255
-58.352752685546875 -9.726387023925781 -40.02025604248047 255 255 255
-63.25759506225586 -12.524309158325195 -41.54472351074219 255 255 255
-84.75798797607422 -0.20739521086215973 46.86195755004883 255 255 255
-76.33246612548828 2.630519151687622 51.952125549316406 255 255 255
-58.83720397949219 2.608795404434204 73.16482543945312 255 255 255
-54.322242736816406 10.404397010803223 74.43413543701172 255 255 255
-53.62560272216797 10.020951271057129 74.22151947021484 255 255 255
-59.53184127807617 11.863555908203125 86.55049896240234 255 255 255
-77.74427795410156 9.31014633178711 79.63121795654297 255 255 255
-57.04882049560547 16.77948570251465 83.18401336669922 255 255 255
-63.211307525634766 16.494245529174805 81.21642303466797 255 255 255
-56.76496124267578 6.325541973114014 66.34754943847656 255 255 255
-64.24630737304688 -9.79854965209961 2.704890727996826 255 255 255
-67.28022003173828 10.34642505645752 45.27893829345703 255 255 255
-66.21431732177734 12.050407409667969 53.25067901611328 255 255 255
-76.57367706298828 9.152259826660156 57.49618911743164 255 255 255
-76.6265640258789 10.021893501281738 48.67750549316406 255 255 255
-67.08297729492188 10.588122367858887 45.694801330566406 255 255 255
-63.2982292175293 -21.570064544677734 -46.98582458496094 255 255 255
-68.48539733886719 -9.031341552734375 2.804070472717285 255 255 255
-61.67469787597656 11.544651985168457 88.6519775390625 255 255 255
-53.83672332763672 13.935300827026367 72.47325134277344 255 255 255
-53.60423278808594 5.668905258178711 66.46520233154297 255 255 255
-59.04682540893555 7.587244033813477 66.21965026855469 255 255 255
-58.9052734375 2.8908002376556396 65.49951171875 255 255 255
-55.191932678222656 6.700870990753174 66.60147094726562 255 255 255
-57.77119445800781 4.7182416915893555 66.3282241821289 255 255 255
-57.88872528076172 6.852600574493408 75.12269592285156 255 255 255
-54.449466705322266 6.222655773162842 70.45127868652344 255 255 255
-56.76218032836914 3.395432949066162 66.23300170898438 255 255 255
-78.807861328125 9.75657844543457 76.85375213623047 255 255 255
-77.37506866455078 10.482834815979004 78.11219024658203 255 255 255
-77.23516082763672 10.56080150604248 78.11937713623047 255 255 255
-77.9644775390625 6.219583988189697 25.647289276123047 255 255 255
-79.10797119140625 -3.2029168605804443 19.944976806640625 255 255 255
-79.85206604003906 -10.3261137008667 3.8523824214935303 255 255 255
-70.70675659179688 6.571260929107666 23.031763076782227 255 255 255
-84.51171875 -9.52052116394043 5.81692361831665 255 255 255
-60.87654495239258 -7.813037395477295 -7.1585588455200195 255 255 255
-93.69685363769531 -11.175530433654785 -27.275007247924805 255 255 255
-69.41437530517578 -3.884781837463379 -10.017752647399902 255 255 255
-71.08277130126953 -0.9945414066314697 -12.79763126373291 255 255 255
-68.39622497558594 -3.053058624267578 -15.41916275024414 255 255 255
-59.60784149169922 -11.522645950317383 -0.14955388009548187 255 255 255
-78.12445831298828 -6.836806297302246 9.611331939697266 255 255 255
-64.33650970458984 7.221735954284668 27.65254783630371 255 255 255
-74.44995880126953 -18.543188095092773 -46.560237884521484 255 255 255
-78.92816162109375 -8.621840476989746 -11.995569229125977 255 255 255
-80.24520111083984 -0.7721946239471436 -11.935175895690918 255 255 255
-84.24114227294922 -4.108290195465088 -31.958362579345703 255 255 255
-71.59141540527344 -7.867275238037109 -42.65720748901367 255 255 255
-78.680908203125 -4.730664253234863 -32.91362380981445 255 255 255
-72.22010803222656 -3.1953790187835693 -21.6949462890625 255 255 255
-81.35397338867188 0.9486404657363892 8.359230995178223 255 255 255
-79.73167419433594 -2.263615131378174 1.3213248252868652 255 255 255
-79.84392547607422 -2.118809938430786 9.302705764770508 255 255 255
-66.44940185546875 -10.999592781066895 1.2229268550872803 255 255 255
-68.90557861328125 5.258175373077393 15.968175888061523 255 255 255
-58.16663360595703 -14.568658828735352 -0.1352444291114807 255 255 255
-56.72333526611328 -10.20402717590332 0.5888916254043579 255 255 255
-79.4429931640625 -0.9514909982681274 10.605618476867676 255 255 255
-67.13896942138672 -0.517302393913269 -0.46215417981147766 255 255 255
-81.59845733642578 -7.161143779754639 -41.32154846191406 255 255 255
-69.5947265625 -8.97433853149414 -38.08757400512695 255 255 255
-73.57434844970703 -8.584783554077148 -46.210357666015625 255 255 255
-62.69906997680664 6.923336982727051 24.539104461669922 255 255 255
-77.8074722290039 -6.293428897857666 10.670007705688477 255 255 255
-78.01225280761719 -6.584761142730713 10.178011894226074 255 255 255
-79.97956085205078 -13.047040939331055 -14.934725761413574 255 255 255
-73.65857696533203 -4.450074672698975 -0.440143346786499 255 255 255
-73.65889739990234 -3.7720494270324707 0.4311573803424835 255 255 255
-71.81612396240234 -6.510326862335205 -1.045505166053772 255 255 255
-76.52467346191406 -9.919088363647461 -44.13444137573242 255 255 255
-59.0341682434082 -9.572286605834961 -36.58259201049805 255 255 255
-72.39704132080078 -15.396498680114746 -43.40398025512695 255 255 255
-74.57234191894531 -0.1670994907617569 -11.437685012817383 255 255 255
-70.76858520507812 -0.5653184056282043 -5.2035932540893555 255 255 255
-87.67500305175781 -7.320426940917969 -18.908504486083984 255 255 255
-78.82599639892578 -7.858384132385254 7.748054504394531 255 255 255
-61.30524826049805 -5.937891483306885 -16.01174545288086 255 255 255
-69.4940185546875 7.5312957763671875 27.86653709411621 255 255 255
-55.08382797241211 -3.90641450881958 17.384540557861328 255 255 255
-60.68415832519531 -0.7294800877571106 18.41712760925293 255 255 255
-65.26991271972656 7.714650630950928 30.949811935424805 255 255 255
-62.35569763183594 -15.853804588317871 -6.668336868286133 255 255 255
-61.43316650390625 -7.905104160308838 2.7571325302124023 255 255 255
-66.27879333496094 -0.1988629698753357 2.30747652053833 255 255 255
-73.68991088867188 1.6020255088806152 43.30836486816406 255 255 255
-73.60580444335938 1.8353056907653809 43.70634078979492 255 255 255
-62.782352447509766 -1.0969394445419312 31.43890380859375 255 255 255
-72.31723022460938 2.2238917350769043 43.700157165527344 255 255 255
-65.88497161865234 9.462972640991211 44.39997863769531 255 255 255
-68.56456756591797 9.927867889404297 41.25963592529297 255 255 255
-69.26245880126953 -9.103412628173828 0.7123001217842102 255 255 255
-70.80354309082031 4.448413372039795 44.02540969848633 255 255 255
-72.63121032714844 9.456665992736816 36.32029724121094 255 255 255
-72.05602264404297 5.6681365966796875 43.84733200073242 255 255 255
-74.90805053710938 8.653772354125977 36.87162780761719 255 255 255
-68.94483184814453 -1.156571388244629 10.686830520629883 255 255 255
-72.40309143066406 4.7007341384887695 43.104671478271484 255 255 255
-63.556827545166016 8.927441596984863 41.70203399658203 255 255 255
-69.95191955566406 -8.744312286376953 -17.196849822998047 255 255 255
-66.50263214111328 -4.995088577270508 -21.15243911743164 255 255 255
-76.14161682128906 -8.7866792678833 -11.674705505371094 255 255 255
-83.05036163330078 -18.079200744628906 -39.04069900512695 255 255 255
-74.33769226074219 -7.051550388336182 -41.72176742553711 255 255 255
-65.28996276855469 6.356410026550293 40.55217361450195 255 255 255
-67.97571563720703 -1.7877129316329956 -4.126979827880859 255 255 255
-72.76065826416016 5.276224613189697 43.15431594848633 255 255 255
-78.00981903076172 6.280274391174316 27.993629455566406 255 255 255
-63.818687438964844 -4.120963096618652 2.8646914958953857 255 255 255
-72.2877426147461 -8.363194465637207 -5.27951192855835 255 255 255
-61.355796813964844 -5.8198161125183105 3.292027235031128 255 255 255
-71.41222381591797 -6.691679954528809 3.086402177810669 255 255 255
-73.24716186523438 -17.921619415283203 -42.990821838378906 255 255 255
-65.76885986328125 4.910142421722412 47.36789321899414 255 255 255
-58.45714569091797 3.084115505218506 23.0130672454834 255 255 255
-76.83040618896484 -8.253779411315918 -10.749842643737793 255 255 255
-69.90863800048828 -5.040521621704102 -10.729321479797363 255 255 255
-64.18586730957031 -4.498922824859619 -17.041664123535156 255 255 255
-81.8064956665039 -10.306848526000977 -17.54450798034668 255 255 255
-61.8657341003418 -6.307650089263916 -23.84613037109375 255 255 255
-72.11245727539062 4.721445083618164 43.23447036743164 255 255 255
-66.15426635742188 4.924564838409424 49.09478759765625 255 255 255
-61.76811218261719 -8.363752365112305 3.676067590713501 255 255 255
-73.2178955078125 -5.543818473815918 0.34959936141967773 255 255 255
-73.01268005371094 -5.099935531616211 -4.261566162109375 255 255 255
-72.4241714477539 -3.435561180114746 -2.1855173110961914 255 255 255
-86.95195007324219 5.056821346282959 26.26201057434082 255 255 255
-81.49229431152344 6.29578161239624 38.6427116394043 255 255 255
-72.72086334228516 1.9282869100570679 44.451904296875 255 255 255
-62.649715423583984 9.35931396484375 43.89337158203125 255 255 255
-71.63058471679688 9.666565895080566 39.77293395996094 255 255 255
-73.5438461303711 -8.253517150878906 -34.95598602294922 255 255 255
-59.94144821166992 -17.36635398864746 -12.157238960266113 255 255 255
-69.65300750732422 4.074994087219238 10.401388168334961 255 255 255
-54.94779968261719 4.555502414703369 19.468149185180664 255 255 255
-78.76429748535156 2.702998638153076 27.971744537353516 255 255 255
-77.9341049194336 4.892299175262451 25.015478134155273 255 255 255
-78.16705322265625 -9.064196586608887 -14.248353004455566 255 255 255
-80.00420379638672 3.6538047790527344 8.359576225280762 255 255 255
-78.82719421386719 -1.1835061311721802 9.926136016845703 255 255 255
-80.89407348632812 -13.215262413024902 -30.315427780151367 255 255 255
-71.1448974609375 -8.201366424560547 1.7525001764297485 255 255 255
-80.93291473388672 -11.725316047668457 -18.991573333740234 255 255 255
-79.02007293701172 -1.8499552011489868 -18.275171279907227 255 255 255
-78.58759307861328 -9.620630264282227 -12.831822395324707 255 255 255
-73.72383117675781 -5.162883281707764 0.14504007995128632 255 255 255
-79.81765747070312 -10.412434577941895 -7.26895809173584 255 255 255
-71.5406494140625 -4.73494291305542 -6.803375720977783 255 255 255
-72.9798812866211 4.461300849914551 43.12429428100586 255 255 255
-75.55498504638672 10.204551696777344 42.824180603027344 255 255 255
-68.48176574707031 7.087574005126953 29.72893524169922 255 255 255
-72.45176696777344 4.572362899780273 45.25627136230469 255 255 255
-71.00516510009766 4.320052146911621 43.78293991088867 255 255 255
-74.17813873291016 3.8755738735198975 43.26247787475586 255 255 255
-66.0036392211914 7.060896396636963 27.334001541137695 255 255 255
-77.8898696899414 6.159809112548828 25.67909812927246 255 255 255
-84.0610122680664 -8.213376998901367 -45.443973541259766 255 255 255
-71.2835922241211 -7.348117828369141 1.790423035621643 255 255 255
-72.89947509765625 -5.5576491355896 0.20462371408939362 255 255 255
-80.37381744384766 -14.118664741516113 -13.842928886413574 255 255 255
-79.06668090820312 -9.264936447143555 -12.561319351196289 255 255 255
-88.0114517211914 -14.088765144348145 -30.526424407958984 255 255 255
-82.8641128540039 -5.864309310913086 -27.78355598449707 255 255 255
-72.75393676757812 -15.427221298217773 -41.3214225769043 255 255 255
-71.64556121826172 -9.30134105682373 -43.8802604675293 255 255 255
-76.06283569335938 9.383381843566895 38.617713928222656 255 255 255
-72.0694808959961 5.648718357086182 43.81409454345703 255 255 255
-74.03812408447266 9.815237045288086 42.90479278564453 255 255 255
-56.93920135498047 -15.178899765014648 -1.056535243988037 255 255 255
-68.71540832519531 9.543785095214844 39.0463981628418 255 255 255
-72.4203872680664 4.385485649108887 43.152557373046875 255 255 255
-53.809722900390625 6.346766948699951 32.36925506591797 255 255 255
-66.51104736328125 10.114419937133789 42.90471267700195 255 255 255
-77.94188690185547 4.688174724578857 25.95718765258789 255 255 255
-74.31117248535156 2.090296506881714 46.13957214355469 255 255 255
-76.97724914550781 7.158655166625977 34.850067138671875 255 255 255
-70.6622314453125 -4.576751232147217 -6.597521781921387 255 255 255
-77.36717987060547 -11.168883323669434 -13.871084213256836 255 255 255
-79.43155670166016 -9.203123092651367 -14.735705375671387 255 255 255
-83.25178527832031 -6.88681697845459 -26.15387725830078 255 255 255
-74.28008270263672 -0.7042790055274963 -11.078454971313477 255 255 255
-73.75921630859375 -8.56389045715332 -44.950950622558594 255 255 255
-78.77777862548828 -8.209257125854492 -13.813790321350098 255 255 255
-79.71561431884766 -10.414942741394043 -8.899734497070312 255 255 255
-67.82003784179688 -4.762600898742676 -9.343191146850586 255 255 255
-96.82280731201172 -6.105476379394531 -39.4637451171875 255 255 255
-74.02737426757812 -18.185611724853516 -43.766136169433594 255 255 255
-62.20106506347656 0.8328825235366821 22.169137954711914 255 255 255
-73.14810180664062 6.078047275543213 43.329776763916016 255 255 255
-68.63506317138672 9.391496658325195 37.672271728515625 255 255 255
-73.47403717041016 4.802003383636475 42.937034606933594 255 255 255
-70.232666015625 9.3478364944458 37.30226516723633 255 255 255
-68.27595520019531 9.785731315612793 39.868370056152344 255 255 255
-73.68375396728516 -18.210966110229492 -44.10755920410156 255 255 255
-71.01712036132812 -13.894543647766113 -41.46036911010742 255 255 255
-69.7907943725586 -9.3254976272583 -41.50636672973633 255 255 255
-82.4954833984375 -12.815409660339355 -42.17582702636719 255 255 255
-72.95970153808594 -3.725492000579834 -2.0932488441467285 255 255 255
-59.31507110595703 -2.045947790145874 -10.645600318908691 255 255 255
-78.12871551513672 -14.37234878540039 -13.316073417663574 255 255 255
-71.78228759765625 -8.843761444091797 -43.513641357421875 255 255 255
-67.6071548461914 -10.76001262664795 -38.092403411865234 255 255 255
-72.40182495117188 -7.450050354003906 -43.181129455566406 255 255 255
-78.96051025390625 -7.295720100402832 11.312686920166016 255 255 255
-68.34940338134766 9.863397598266602 40.55255126953125 255 255 255
-73.72037506103516 4.407664775848389 42.55131912231445 255 255 255
-78.96137237548828 -16.550628662109375 -16.68501853942871 255 255 255
-68.85755157470703 9.527441024780273 39.18051528930664 255 255 255
-58.38459014892578 5.386292457580566 40.90162658691406 255 255 255
-89.02230072021484 1.5687426328659058 3.2415294647216797 255 255 255
-57.01956558227539 -13.274331092834473 -0.467600017786026 255 255 255
-65.06319427490234 4.395261287689209 47.65498352050781 255 255 255
-64.25701141357422 9.495318412780762 44.12139892578125 255 255 255
-77.58064270019531 10.692904472351074 64.18348693847656 255 255 255
-73.13648223876953 11.272075653076172 65.5576171875 255 255 255
-75.19234466552734 3.759139060974121 62.37385559082031 255 255 255
-75.20813751220703 13.812451362609863 67.23504638671875 255 255 255
-75.55877685546875 8.962027549743652 70.14226531982422 255 255 255
-75.32901763916016 14.177085876464844 68.21903991699219 255 255 255
-77.16231536865234 12.646966934204102 75.07308959960938 255 255 255
-78.62972259521484 7.870307922363281 71.51244354248047 255 255 255
-80.29166412353516 9.101055145263672 76.17108917236328 255 255 255
-89.45573425292969 6.995628356933594 80.97703552246094 255 255 255
-84.19751739501953 -8.974209785461426 -27.27311134338379 255 255 255
-72.01692199707031 -15.612224578857422 -41.450111389160156 255 255 255
-69.25745391845703 -7.438260078430176 -40.245548248291016 255 255 255
-68.94344329833984 -5.447736740112305 -25.35662078857422 255 255 255
-81.58834838867188 -1.7877520322799683 -17.382221221923828 255 255 255
-74.28942108154297 12.013346672058105 56.60637283325195 255 255 255
-76.50664520263672 3.191315174102783 45.990760803222656 255 255 255
-60.18486022949219 9.340860366821289 48.08790969848633 255 255 255
-65.83366394042969 10.805404663085938 49.6129035949707 255 255 255
-66.90280151367188 -4.47166633605957 3.251940965652466 255 255 255
-64.64864349365234 -10.583333015441895 1.653580904006958 255 255 255
-74.1217269897461 2.982668876647949 43.279869079589844 255 255 255
-65.66149139404297 12.70647144317627 57.19800567626953 255 255 255
-80.1838150024414 17.542442321777344 82.30443572998047 255 255 255
-74.84728240966797 15.195213317871094 76.2004623413086 255 255 255
-73.4215087890625 8.28660774230957 76.86573791503906 255 255 255
-77.09949493408203 18.089168548583984 86.80643463134766 255 255 255
-66.05997467041016 17.52016258239746 86.44286346435547 255 255 255
-73.11654663085938 -3.5934243202209473 -25.906963348388672 255 255 255
-66.02066802978516 -4.771729946136475 -22.8703556060791 255 255 255
-70.13336944580078 11.07436752319336 55.12875747680664 255 255 255
-65.39507293701172 10.795019149780273 48.84029006958008 255 255 255
-72.10066986083984 11.549239158630371 49.92789840698242 255 255 255
-66.66984558105469 4.146045684814453 48.14275360107422 255 255 255
-66.00782775878906 4.092750072479248 48.58193588256836 255 255 255
-72.23902893066406 1.7727645635604858 46.00244903564453 255 255 255
-71.68074035644531 4.5717549324035645 45.735225677490234 255 255 255
-60.78434753417969 -5.54614782333374 2.647998332977295 255 255 255
-62.863285064697266 -0.4168842136859894 16.449840545654297 255 255 255
-61.75402069091797 -9.061766624450684 1.8740103244781494 255 255 255
-64.95439910888672 -7.915009021759033 0.1005103588104248 255 255 255
-76.5252456665039 14.730013847351074 70.9426498413086 255 255 255
-72.52213287353516 11.437978744506836 48.54948806762695 255 255 255
-66.02455139160156 6.881180286407471 25.922988891601562 255 255 255
-59.03935241699219 5.991043567657471 41.671836853027344 255 255 255
-64.9065170288086 8.004035949707031 32.37557601928711 255 255 255
-56.310752868652344 -10.083467483520508 0.7516699433326721 255 255 255
-66.36259460449219 -11.133712768554688 0.8866484761238098 255 255 255
-65.28939056396484 2.3784284591674805 48.82206726074219 255 255 255
-73.15209197998047 2.674591302871704 43.514495849609375 255 255 255
-61.98462677001953 9.45714282989502 44.76960372924805 255 255 255
-72.60672760009766 -6.609949588775635 -27.66832733154297 255 255 255
-69.5263671875 -4.819958209991455 -17.817415237426758 255 255 255
-73.08137512207031 -9.187901496887207 -45.573951721191406 255 255 255
-80.16303253173828 -0.7947786450386047 -12.319792747497559 255 255 255
-59.20137023925781 -16.62375259399414 0.640175998210907 255 255 255
-57.336795806884766 3.8196587562561035 18.72632598876953 255 255 255
-72.70349884033203 4.424318790435791 43.31492233276367 255 255 255
-71.89754486083984 4.7988409996032715 44.00808334350586 255 255 255
-65.03267669677734 -8.258296012878418 -0.378959596157074 255 255 255
-66.97312927246094 7.317946434020996 29.360544204711914 255 255 255
-72.36627960205078 9.688358306884766 38.70464324951172 255 255 255
-63.546836853027344 4.164010524749756 26.449995040893555 255 255 255
-65.57889556884766 -2.4128293991088867 -3.899188756942749 255 255 255
-64.00593566894531 4.699823379516602 46.818851470947266 255 255 255
-80.91256713867188 4.408712863922119 19.144001007080078 255 255 255
-63.6750373840332 0.8408992886543274 19.48984146118164 255 255 255
-66.16976165771484 10.144332885742188 44.00940704345703 255 255 255
-64.05062866210938 4.14002799987793 46.09028625488281 255 255 255
-75.9054183959961 -1.6481692790985107 -17.43185806274414 255 255 255
-71.95816802978516 -1.2110466957092285 -14.563923835754395 255 255 255
-71.16032409667969 -0.954625129699707 -12.913558959960938 255 255 255
-75.75116729736328 -1.2865080833435059 -14.856902122497559 255 255 255
-71.92838287353516 4.4155592918396 43.68693923950195 255 255 255
-64.3323745727539 3.5916926860809326 48.93012237548828 255 255 255
-76.37084197998047 1.3743447065353394 44.67609405517578 255 255 255
-66.28400421142578 10.10114574432373 44.523529052734375 255 255 255
-75.54823303222656 -8.735612869262695 -42.64207077026367 255 255 255
-72.15425872802734 -15.394269943237305 -42.11907196044922 255 255 255
-69.81282043457031 -1.4491974115371704 -5.557425498962402 255 255 255
-59.674293518066406 -14.064473152160645 -37.29727554321289 255 255 255
-75.2020263671875 -19.22725486755371 -48.22772216796875 255 255 255
-71.49431610107422 -7.837843894958496 -0.5636149644851685 255 255 255
-72.16807556152344 4.807122230529785 44.605045318603516 255 255 255
-75.19856262207031 10.211875915527344 48.594268798828125 255 255 255
-77.93682861328125 2.816288948059082 28.01222038269043 255 255 255
-75.3493881225586 1.0930100679397583 46.315120697021484 255 255 255
-65.3111343383789 2.5551679134368896 -17.3289852142334 255 255 255
-75.58089447021484 17.715425491333008 85.32743835449219 255 255 255
-77.19293975830078 14.581416130065918 69.71510314941406 255 255 255
-81.951171875 6.626897811889648 67.77188873291016 255 255 255
-72.2474136352539 4.463014602661133 44.864967346191406 255 255 255
-73.99800109863281 0.11008749157190323 45.93025588989258 255 255 255
-83.62110137939453 11.5403413772583 78.84388732910156 255 255 255
-56.352996826171875 -8.26753044128418 0.1942499428987503 255 255 255
-71.68219757080078 -7.098912715911865 0.9660215377807617 255 255 255
-78.96814727783203 -9.470087051391602 -12.789729118347168 255 255 255
-71.65235137939453 -3.875467538833618 -25.483137130737305 255 255 255
-65.60164642333984 3.9136404991149902 47.105228424072266 255 255 255
-72.81952667236328 5.150392055511475 46.97077560424805 255 255 255
-72.14208221435547 4.496453762054443 45.95614242553711 255 255 255
-73.70654296875 4.156330108642578 41.32144546508789 255 255 255
-65.58915710449219 5.6527509689331055 25.57697105407715 255 255 255
-66.36966705322266 7.708402633666992 42.42076110839844 255 255 255
-61.16377639770508 -0.19071079790592194 18.726224899291992 255 255 255
-78.20673370361328 5.136289119720459 16.356155395507812 255 255 255
-77.03974914550781 1.8463631868362427 34.84397888183594 255 255 255
-65.6690673828125 6.314419269561768 41.91514587402344 255 255 255
-71.35645294189453 -8.025165557861328 -0.7819218635559082 255 255 255
-77.39945983886719 -11.666659355163574 -14.52277946472168 255 255 255
-73.03021240234375 -1.3990702629089355 -15.869741439819336 255 255 255
-65.9942398071289 4.592215061187744 48.2775764465332 255 255 255
-72.85816192626953 2.63635516166687 43.154685974121094 255 255 255
-66.86480712890625 10.454176902770996 43.743350982666016 255 255 255
-79.83399963378906 -7.388178825378418 -11.606937408447266 255 255 255
-94.13164520263672 -5.154759407043457 -33.612571716308594 255 255 255
-73.23310852050781 -5.678757667541504 -2.240055799484253 255 255 255
-69.8849105834961 -3.647587299346924 -8.898162841796875 255 255 255
-74.7269515991211 9.179935455322266 74.81016540527344 255 255 255
-76.25349426269531 9.541717529296875 79.86490631103516 255 255 255
-75.32852935791016 10.154998779296875 79.46160888671875 255 255 255
-75.26578521728516 9.719117164611816 79.0269546508789 255 255 255
-73.16910552978516 4.71381950378418 43.61485290527344 255 255 255
-72.49311065673828 4.870866775512695 43.53742218017578 255 255 255
-80.20671844482422 3.77994966506958 72.15581512451172 255 255 255
-56.09050369262695 16.4746150970459 83.40442657470703 255 255 255
-81.91289520263672 17.200420379638672 80.94109344482422 255 255 255
-78.93395233154297 17.871803283691406 85.19590759277344 255 255 255
-77.02061462402344 10.636336326599121 78.19117736816406 255 255 255
-77.30244445800781 12.640923500061035 73.51068878173828 255 255 255
-79.67295837402344 12.803675651550293 74.67552947998047 255 255 255
-77.10114288330078 15.346961975097656 74.54386901855469 255 255 255
-81.27164459228516 11.589900970458984 80.50557708740234 255 255 255
-60.24323654174805 16.84852409362793 84.75507354736328 255 255 255
-60.71848678588867 -3.3638079166412354 -7.853902339935303 255 255 255
-69.49909973144531 -3.9397668838500977 -7.863438606262207 255 255 255
-73.88636016845703 1.6975053548812866 -2.5896174907684326 255 255 255
-57.45643997192383 3.615832805633545 67.20050811767578 255 255 255
-58.89863967895508 6.468544960021973 72.04796600341797 255 255 255
-57.26462173461914 6.005474090576172 72.8350601196289 255 255 255
-76.57677459716797 -8.834847450256348 -11.492918014526367 255 255 255
-72.09736633300781 -0.35603463649749756 -11.106189727783203 255 255 255
-81.99835968017578 -14.925167083740234 -36.86015319824219 255 255 255
-72.22190856933594 -4.852421283721924 -6.181137561798096 255 255 255
-78.24457550048828 -14.178362846374512 -13.581603050231934 255 255 255
-62.607112884521484 16.968639373779297 86.11244201660156 255 255 255
-58.26834487915039 14.079652786254883 69.43718719482422 255 255 255
-60.93406677246094 5.064732074737549 71.14393615722656 255 255 255
-61.42871856689453 14.38532829284668 70.56255340576172 255 255 255
-82.06613159179688 -2.57367205619812 79.83235168457031 255 255 255
-65.38034057617188 7.2959184646606445 28.969532012939453 255 255 255
-73.05116271972656 9.890827178955078 41.35853576660156 255 255 255
-73.58006286621094 -8.567327499389648 -45.16133499145508 255 255 255
-80.02623748779297 -18.328960418701172 -20.888864517211914 255 255 255
-78.23571014404297 -15.26417350769043 -14.5987548828125 255 255 255
-82.43627166748047 16.50588035583496 78.72537994384766 255 255 255
-81.63106536865234 10.595304489135742 82.90177917480469 255 255 255
-54.0355339050293 7.078127384185791 73.51068878173828 255 255 255
-59.943748474121094 5.0689802169799805 71.72743225097656 255 255 255
-52.463294982910156 10.517966270446777 73.53971862792969 255 255 255
-62.3671989440918 13.585000991821289 69.93070220947266 255 255 255
-60.194602966308594 4.997499942779541 71.83880615234375 255 255 255
-57.75591278076172 7.853672981262207 71.54338836669922 255 255 255
-53.86275100708008 8.907974243164062 73.74275207519531 255 255 255
-70.02176666259766 -3.733053684234619 -8.618770599365234 255 255 255
-70.20574951171875 -12.107499122619629 -42.239253997802734 255 255 255
-75.7284164428711 11.793861389160156 57.760047912597656 255 255 255
-81.13370513916016 7.869531631469727 44.33708953857422 255 255 255
-75.7939453125 0.19088633358478546 40.786407470703125 255 255 255
-72.6650390625 4.417366981506348 45.14328384399414 255 255 255
-84.8583755493164 11.487248420715332 62.202674865722656 255 255 255
-64.27510833740234 17.03275489807129 86.49464416503906 255 255 255
-86.72628784179688 13.547456741333008 86.07828521728516 255 255 255
-85.03892517089844 10.919960975646973 85.84901428222656 255 255 255
-74.13230895996094 12.012950897216797 56.360740661621094 255 255 255
-66.9810791015625 12.476028442382812 55.07312774658203 255 255 255
-70.79119873046875 11.479592323303223 50.36557388305664 255 255 255
-61.89266586303711 5.865886211395264 74.21551513671875 255 255 255
-61.19035339355469 6.158483028411865 71.44461822509766 255 255 255
-54.12071228027344 6.708461761474609 73.18350219726562 255 255 255
-64.46220397949219 17.43561363220215 86.5930404663086 255 255 255
-62.06788635253906 17.158811569213867 86.65264129638672 255 255 255
-52.17647171020508 7.857785701751709 73.39555358886719 255 255 255
-76.07129669189453 17.06304359436035 81.46491241455078 255 255 255
-52.00326919555664 15.841288566589355 81.62339782714844 255 255 255
-58.56728744506836 4.753126621246338 71.35920715332031 255 255 255
-77.40345001220703 17.96184539794922 85.94255065917969 255 255 255
-67.37995147705078 -3.285369396209717 -8.84468936920166 255 255 255
-61.86194610595703 -5.798497200012207 -21.75705337524414 255 255 255
-72.48047637939453 -1.0994678735733032 -13.2243070602417 255 255 255
-82.01632690429688 -8.313616752624512 -28.261945724487305 255 255 255
-83.982177734375 -19.671613693237305 -40.46052932739258 255 255 255
-71.10556030273438 -4.205485820770264 -29.191999435424805 255 255 255
-68.80524444580078 -6.313685417175293 -40.44708251953125 255 255 255
-68.21333312988281 -6.596651077270508 -38.17894744873047 255 255 255
-66.15245056152344 10.079082489013672 43.974388122558594 255 255 255
-72.75405883789062 2.7590763568878174 43.36833190917969 255 255 255
-77.23119354248047 -12.889765739440918 -14.168184280395508 255 255 255
-59.56606674194336 -11.91915225982666 -40.10733413696289 255 255 255
-72.53931427001953 -9.060068130493164 -43.97652053833008 255 255 255
-80.4909896850586 11.696123123168945 84.52149200439453 255 255 255
-75.75695037841797 15.727660179138184 75.20816040039062 255 255 255
-53.7404899597168 8.938281059265137 73.7474136352539 255 255 255
-56.329681396484375 8.217428207397461 71.40026092529297 255 255 255
-60.773101806640625 7.344377040863037 67.74847412109375 255 255 255
-63.538753509521484 14.471216201782227 69.68841552734375 255 255 255
-75.8797836303711 16.010297775268555 76.96701049804688 255 255 255
-72.3149185180664 16.639503479003906 81.35749053955078 255 255 255
-75.66905212402344 9.362661361694336 79.50690460205078 255 255 255
-88.30571746826172 12.673640251159668 78.63057708740234 255 255 255
-74.8482437133789 17.022722244262695 81.96305084228516 255 255 255
-76.2970199584961 1.187453031539917 34.74806213378906 255 255 255
-66.1946029663086 5.819405555725098 28.223466873168945 255 255 255
-63.174922943115234 3.274850368499756 17.422916412353516 255 255 255
-91.79630279541016 -3.1359364986419678 -16.089359283447266 255 255 255
-62.05490493774414 -3.5847325325012207 -8.940652847290039 255 255 255
-76.7290267944336 -10.104966163635254 -13.625715255737305 255 255 255
-74.04985046386719 -17.344688415527344 -46.17616653442383 255 255 255
-71.86287689208984 -9.420372009277344 -43.038551330566406 255 255 255
-73.6476058959961 -14.476943969726562 -47.05016326904297 255 255 255
-73.40840148925781 -19.040653228759766 -45.60453414916992 255 255 255
-67.74874877929688 -7.7022318840026855 -39.17345428466797 255 255 255
-74.32178497314453 -18.326919555664062 -45.95850372314453 255 255 255
-76.99610137939453 3.3670852184295654 33.327049255371094 255 255 255
-85.81478118896484 4.249756813049316 62.59640121459961 255 255 255
-73.38378143310547 8.996691703796387 66.89669036865234 255 255 255
-83.36243438720703 1.7540662288665771 65.37433624267578 255 255 255
-75.48015594482422 5.285187721252441 65.65410614013672 255 255 255
-79.81401062011719 9.499263763427734 65.416748046875 255 255 255
-76.6712875366211 12.316539764404297 75.56119537353516 255 255 255
-80.1385726928711 12.654582977294922 62.28180694580078 255 255 255
-53.68547821044922 10.214272499084473 72.03948211669922 255 255 255
-62.21830749511719 16.783767700195312 82.53474426269531 255 255 255
-88.87100982666016 15.013420104980469 79.1426773071289 255 255 255
-77.77536010742188 17.25982666015625 81.4198226928711 255 255 255
-87.70101928710938 11.168746948242188 76.33668518066406 255 255 255
-81.90653991699219 15.635985374450684 73.85176849365234 255 255 255
-81.41712188720703 9.25874137878418 77.64164733886719 255 255 255
-78.27195739746094 10.566049575805664 77.60753631591797 255 255 255
-86.85597229003906 7.483840465545654 66.05076599121094 255 255 255
-82.41141510009766 5.06225061416626 67.97811889648438 255 255 255
-74.25180053710938 10.12999153137207 75.42083740234375 255 255 255
-79.07357788085938 10.004063606262207 77.0114517211914 255 255 255
-80.51530456542969 17.591121673583984 82.74886322021484 255 255 255
-77.64886474609375 12.709482192993164 76.35116577148438 255 255 255
-81.80866241455078 18.653179168701172 89.20317077636719 255 255 255
-69.22630310058594 4.431154727935791 11.662418365478516 255 255 255
-62.66938400268555 -5.166842937469482 -18.94671058654785 255 255 255
-56.91034698486328 8.419123649597168 42.67321014404297 255 255 255
-62.550662994384766 7.968498229980469 49.39055252075195 255 255 255
-69.35852813720703 -9.123056411743164 -37.06938552856445 255 255 255
-79.04106140136719 -8.712976455688477 -14.097695350646973 255 255 255
-71.93307495117188 -8.07111644744873 -40.24519348144531 255 255 255
-63.206695556640625 -6.564608573913574 -24.631237030029297 255 255 255
-67.42268371582031 -2.6330955028533936 -8.94593620300293 255 255 255
-76.89124298095703 -12.804673194885254 -14.265190124511719 255 255 255
-80.63655090332031 16.15479850769043 78.73047637939453 255 255 255
-71.17543029785156 13.521535873413086 66.94078826904297 255 255 255
-57.754085540771484 7.381251335144043 70.77645111083984 255 255 255
-71.02299499511719 -14.37783432006836 -42.839569091796875 255 255 255
-79.1280746459961 -9.731101036071777 -12.516894340515137 255 255 255
-68.90679931640625 -5.342784404754639 -24.388463973999023 255 255 255
-68.68243408203125 -5.005555152893066 -24.655214309692383 255 255 255
-68.68476104736328 3.7129878997802734 10.482934951782227 255 255 255
-69.77259063720703 -7.851258277893066 2.8489062786102295 255 255 255
-55.93806838989258 -13.235001564025879 0.31616878509521484 255 255 255
-67.08241271972656 3.2362613677978516 6.470541954040527 255 255 255
-77.28311157226562 14.24990463256836 67.00360107421875 255 255 255
-90.02592468261719 7.955025672912598 45.211570739746094 255 255 255
-78.14668273925781 13.822416305541992 73.36528778076172 255 255 255
-55.22134017944336 7.270561218261719 39.284080505371094 255 255 255
-64.19068145751953 0.7432513236999512 43.40287780761719 255 255 255
-80.50123596191406 10.00070571899414 78.00794982910156 255 255 255
-83.00119018554688 12.628213882446289 82.56185913085938 255 255 255
-53.46870040893555 7.739203929901123 73.78952026367188 255 255 255
-53.834205627441406 8.909883499145508 73.7867202758789 255 255 255
-57.12112045288086 7.387833595275879 71.80583953857422 255 255 255
-74.14107513427734 12.077627182006836 56.92536544799805 255 255 255
-75.59706115722656 0.013197055086493492 44.873836517333984 255 255 255
-69.60762023925781 4.120262622833252 10.485529899597168 255 255 255
-64.96109008789062 -0.013327575288712978 44.891944885253906 255 255 255
-66.4254379272461 10.555574417114258 50.48723220825195 255 255 255
-74.94892120361328 1.7385191917419434 53.536407470703125 255 255 255
-75.99700927734375 18.10602569580078 87.49200439453125 255 255 255
-78.87834930419922 15.614522933959961 77.25741577148438 255 255 255
-70.23609924316406 -9.771093368530273 -38.82264709472656 255 255 255
-62.12980270385742 11.899258613586426 89.86114501953125 255 255 255
-62.493045806884766 5.177519798278809 69.84344482421875 255 255 255
-55.39396667480469 7.4116950035095215 68.74153137207031 255 255 255
-59.04670333862305 4.599783897399902 67.62391662597656 255 255 255
-58.46384048461914 4.931163787841797 72.59960174560547 255 255 255
-59.34291458129883 7.6286516189575195 67.98121643066406 255 255 255
-57.80621337890625 3.8948514461517334 72.03672790527344 255 255 255
-53.26447296142578 7.817261219024658 74.00186920166016 255 255 255
-53.908409118652344 8.310562133789062 73.18795776367188 255 255 255
-54.749412536621094 5.917746067047119 72.81229400634766 255 255 255
-59.150726318359375 10.117415428161621 75.53614044189453 255 255 255
-54.28734588623047 14.083453178405762 71.82157135009766 255 255 255
-61.4676399230957 5.565112113952637 30.428024291992188 255 255 255
-54.50892639160156 5.732573509216309 33.723270416259766 255 255 255
-78.93305206298828 16.53098487854004 77.94667053222656 255 255 255
-77.57369995117188 13.292108535766602 73.38908386230469 255 255 255
-79.24402618408203 8.340332984924316 69.55968475341797 255 255 255
-85.54065704345703 4.5708184242248535 68.20223236083984 255 255 255
-77.06153869628906 16.01137351989746 76.10895538330078 255 255 255
-78.12726593017578 13.236635208129883 73.19287109375 255 255 255
-72.60004425048828 8.794257164001465 69.0797119140625 255 255 255
-75.99542236328125 9.90961742401123 79.91893768310547 255 255 255
-62.57560729980469 -5.513870716094971 -20.525991439819336 255 255 255
-69.9553451538086 -4.336161136627197 -9.124900817871094 255 255 255
-62.34196853637695 -5.645293712615967 -20.961973190307617 255 255 255
-86.19004821777344 -11.581480026245117 -24.069242477416992 255 255 255
-69.19490051269531 -5.0749616622924805 -23.165851593017578 255 255 255
-81.28538513183594 -9.71339225769043 -22.30000114440918 255 255 255
-69.16336822509766 -4.9326066970825195 -23.40981674194336 255 255 255
-78.7530288696289 -16.38164520263672 -16.176172256469727 255 255 255
-72.5601806640625 13.839909553527832 78.885009765625 255 255 255
-61.564453125 9.332366943359375 49.22282409667969 255 255 255
-75.3406753540039 7.416951656341553 30.77899932861328 255 255 255
-62.56276321411133 2.5218188762664795 48.76144790649414 255 255 255
-66.75886535644531 -10.431917190551758 -37.809879302978516 255 255 255
-67.53404235839844 -11.31656551361084 -38.894134521484375 255 255 255
-58.304176330566406 -11.245760917663574 -37.999977111816406 255 255 255
-66.67048645019531 -9.189229965209961 -38.391387939453125 255 255 255
-67.08446502685547 -9.985572814941406 -38.27976989746094 255 255 255
-64.98875427246094 -10.609203338623047 -41.85060501098633 255 255 255
-67.28018188476562 -9.087910652160645 -38.03141784667969 255 255 255
-53.410736083984375 7.858448505401611 73.61766052246094 255 255 255
-74.77262878417969 17.19621467590332 82.97270965576172 255 255 255
-53.47593307495117 9.273618698120117 73.61626434326172 255 255 255
-62.593482971191406 17.264371871948242 87.06458282470703 255 255 255
-73.70536041259766 -13.605751991271973 -47.85243225097656 255 255 255
-68.96630859375 -7.086320877075195 -21.583919525146484 255 255 255
-59.223846435546875 5.354986667633057 71.74649810791016 255 255 255
-54.20331954956055 8.187901496887207 73.23267364501953 255 255 255
-83.42388153076172 16.369659423828125 78.65247344970703 255 255 255
-79.53684997558594 9.825028419494629 70.10150146484375 255 255 255
-57.815185546875 5.047603130340576 71.34815216064453 255 255 255
-56.49614715576172 7.606443881988525 73.67462158203125 255 255 255
-55.65251922607422 5.785828590393066 69.62855529785156 255 255 255
-54.362125396728516 14.061365127563477 71.72826385498047 255 255 255
-59.206260681152344 3.7308497428894043 70.00816345214844 255 255 255
-58.762115478515625 7.154821395874023 71.84321594238281 255 255 255
-58.357154846191406 7.587725639343262 66.45626068115234 255 255 255
-58.57731246948242 6.820423126220703 70.70751953125 255 255 255
-53.83904266357422 5.268117427825928 66.90058898925781 255 255 255
-58.20941162109375 3.684847116470337 72.68318939208984 255 255 255
-57.95758819580078 13.94678783416748 69.50665283203125 255 255 255
-59.69215774536133 16.89482307434082 85.35518646240234 255 255 255
-59.966129302978516 8.006617546081543 70.18292999267578 255 255 255
-73.32622528076172 7.6040449142456055 64.04386138916016 255 255 255
-74.71636962890625 5.743514060974121 60.831180572509766 255 255 255
-77.22346496582031 2.239475727081299 48.98246765136719 255 255 255
-82.34748077392578 16.849937438964844 80.74935150146484 255 255 255
-53.41013717651367 7.761698246002197 73.78224182128906 255 255 255
-57.93609619140625 7.509926795959473 74.06814575195312 255 255 255
-80.07840728759766 7.499434947967529 35.182228088378906 255 255 255
-66.7474594116211 5.285253047943115 49.44786834716797 255 255 255
-67.36502075195312 10.299164772033691 45.006656646728516 255 255 255
-66.24693298339844 9.787420272827148 43.39916229248047 255 255 255
-74.31172180175781 12.210721015930176 56.227848052978516 255 255 255
-54.49020767211914 10.10245418548584 73.69189453125 255 255 255
-74.08558654785156 -16.59821319580078 -46.51103973388672 255 255 255
-92.78904724121094 -4.613615036010742 -30.889528274536133 255 255 255
-73.16993713378906 -3.8413238525390625 -1.602649450302124 255 255 255
-57.48594284057617 3.551703691482544 66.40092468261719 255 255 255
-69.24516296386719 -8.73827075958252 1.7036629915237427 255 255 255
-52.27608108520508 15.822531700134277 80.44523620605469 255 255 255
-74.06856536865234 15.66701602935791 74.71653747558594 255 255 255
-65.18424987792969 14.326594352722168 68.26168823242188 255 255 255
-57.614540100097656 14.26627254486084 72.77099609375 255 255 255
-59.20170593261719 16.807231903076172 82.22782135009766 255 255 255
-63.54880905151367 17.127670288085938 86.73931884765625 255 255 255
-77.8001480102539 10.904892921447754 78.12300109863281 255 255 255
-71.83377838134766 -6.402497291564941 -0.8679952621459961 255 255 255
-78.6871109008789 3.5853161811828613 7.828085899353027 255 255 255
-68.57707214355469 -5.49965763092041 -4.96346378326416 255 255 255
