-653.7476285071268 11.914749831688468 121.45818680967031 255 255 255
-645.3129286212886 10.827481613414715 129.36378117687005 255 255 255
-642.7013227224185 16.8022344443641 207.35164504498763 255 255 255
-641.7713385536932 8.328480185927624 116.23245484177022 255 255 255
-648.5038373290719 4.675372750069382 112.83013941456241 255 255 255
-645.965454043578 8.715342815280387 117.33011443053711 255 255 255
-641.7588842362447 17.630563445135273 206.9306501608672 255 255 255
-649.3823016928417 6.569129644629907 109.11027610180453 255 255 255
-648.5211483823567 12.43267667525388 118.11610748453658 255 255 255
-622.907616103981 5.8687537943890185 104.30313091869495 255 255 255
-622.1200982598677 11.185340768841044 103.18102457817272 255 255 255
-643.8945117327307 10.759195673007802 112.71425450412953 255 255 255
-650.9544836938317 4.097012456770894 107.93117955011313 255 255 255
-646.7129988345416 7.3010508662527265 110.87413128404268 255 255 255
-653.7730751590748 8.927764044089997 129.08044707071022 255 255 255
-646.0650135974482 6.895797463526247 126.76659773620985 255 255 255
-650.1820667061824 11.838930196696573 107.634551949626 255 255 255
-647.531211842271 11.51676148630461 131.56312810081425 255 255 255
-643.0000845454958 8.600311457030656 119.41469000461956 255 255 255
-650.3237333640589 6.913885740193216 128.22901822267377 255 255 255
-650.5334426558117 5.530389998937206 109.25486021946486 255 255 255
-648.4866929511119 5.244186488783452 110.36863749281963 255 255 255
-640.8406210504843 9.947470870600554 126.6980274572748 255 255 255
-634.7270423614386 6.844630688294913 138.71596720697423 255 255 255
-636.2171384771469 3.9439312558904387 136.6778596540676 255 255 255
-641.3248393357677 13.930200218553178 126.26056523168087 255 255 255
-634.7189740150794 6.875578485685605 139.3028055419716 255 255 255
-636.2049238417272 1.7802509543378804 140.6923372426161 255 255 255
-644.9139670951643 10.490100905483377 137.32300560550252 255 255 255
-630.7878782248426 5.048297804334485 106.16754259718358 255 255 255
-621.3545175547149 11.13834464928588 104.62816305730688 255 255 255
-639.6455669830937 19.43520318272909 206.566435218685 255 255 255
-636.8549945293224 7.335726775244591 137.8962713981336 255 255 255
-643.4031736264749 14.361740880482177 133.8269550654741 255 255 255
-644.0556842904224 6.740213699316682 132.4485615023463 255 255 255
-643.8378731126684 6.97070687120824 133.07564548714703 255 255 255
-644.0428762760353 8.324916783995933 133.57565818268688 255 255 255
-632.5476805619318 13.43536781839379 145.09465460931528 255 255 255
-639.3399127190759 15.036091907831342 210.81848800304795 255 255 255
-621.6598560808201 6.778181714618313 103.24530297470379 255 255 255
-636.8822896299697 7.242860910196281 138.28457848264804 255 255 255
-634.8935551360482 10.192205012756785 140.2621107485258 255 255 255
-622.5952237941214 11.127588115558613 102.3150088934069 255 255 255
-621.7055268310705 6.780694879929879 103.25510499009299 255 255 255
-646.491880790363 9.457575258403821 129.9957732771284 255 255 255
-635.7527053713801 0.8315113735361628 146.33111419649043 255 255 255
-647.8207404471106 4.906159236138661 129.07942357519119 255 255 255
-649.1596471769711 1.8807494707173191 110.35863351332189 255 255 255
-644.6876668796165 5.214998033689037 121.60968319156757 255 255 255
-648.0373649497238 11.941213170015686 121.43815837678002 255 255 255
-649.7342572752868 6.298929762995222 111.94365246972743 255 255 255
-638.2238690507883 7.643511542788994 138.07756725346593 255 255 255
-642.9936031709123 8.585984405126762 131.25674073974216 255 255 255
-632.5897235603278 11.762466059722975 139.85796546400223 255 255 255
-651.5189187265213 13.165920287263958 184.15836991322988 255 255 255
-663.1471768420666 15.893200973894494 199.9629770812307 255 255 255
-652.4336189304145 18.425823970407272 194.68807199893936 255 255 255
-637.5031412963641 14.361876111410176 142.6948465674787 255 255 255
-644.9707651473456 13.791581617134824 136.02119247174542 255 255 255
-644.1148443593585 13.390301702285196 133.28188126093002 255 255 255
-643.9400642588953 14.236006427292203 134.95653334961034 255 255 255
-639.378400497735 9.42504610138605 137.58349537199976 255 255 255
-644.2659999868437 14.472619484380097 135.6770940648467 255 255 255
-649.733051955467 11.686927703327049 173.70056796347595 255 255 255
-627.851239611504 8.77456287674018 108.77114575903498 255 255 255
-649.1509730841684 1.9337861667504885 114.79591182382137 255 255 255
-648.2508808744163 2.144950592240587 115.8048905416592 255 255 255
-643.1289317666268 4.926743056183859 115.5669881798677 255 255 255
-645.0335120296457 11.519085771195815 129.0643206926028 255 255 255
-652.5011725054575 13.132624562599826 129.09840098774671 255 255 255
-644.7248494864953 13.594532878415716 124.20277207222851 255 255 255
-649.3512763680822 12.178521241272097 121.69464418948598 255 255 255
-650.6968669298816 4.3114139764422745 110.6118721649014 255 255 255
-649.7434944028861 11.903526732697106 107.51630446280976 255 255 255
-653.8397660789565 16.656751225005124 203.10738722583469 255 255 255
-655.4506914397632 16.652581468684467 207.0770169631137 255 255 255
-652.4193868731059 11.041130534015869 178.07659219914314 255 255 255
-636.7563938144596 10.459588987838542 147.92694689324964 255 255 255
-647.4457116423498 1.7207246653145223 110.52548499807561 255 255 255
-633.5219595130043 12.045898376996032 105.75893267339114 255 255 255
-647.2833573527482 4.351472148927334 127.70115468046237 255 255 255
-649.7159380433375 4.63640852877549 111.67770945557274 255 255 255
-646.6067606417656 3.8468726478718374 133.46797096294537 255 255 255
-645.5696695237881 9.864032512131532 197.30143694642746 255 255 255
-637.0915104226942 11.307232486510475 152.1517716917706 255 255 255
-649.6493130769985 11.587457695604023 149.3100906077466 255 255 255
-648.3622483791308 3.3690209471251507 127.91299236454822 255 255 255
-648.4696193920755 10.732282240769916 116.9541673353065 255 255 255
-642.3887130804735 7.020452687311874 117.2816374230176 255 255 255
-642.8706828610455 2.863692722101966 116.28626182754122 255 255 255
-652.2377870736391 9.424415696443322 127.83095219238209 255 255 255
-654.157819453016 -0.9630848509828036 130.2703153435626 255 255 255
-650.170513866048 5.753318678587764 126.82466084263365 255 255 255
-644.7862987087132 2.619897620538385 118.86301088375888 255 255 255
-641.2340777260644 4.941727565410282 114.42737925544775 255 255 255
-648.7512358697228 2.3529921858432665 117.20787942867896 255 255 255
-644.3876425961762 3.305512549973429 119.64766397965131 255 255 255
-645.3173568383586 3.687858315421275 116.30095563827702 255 255 255
-641.331917253553 6.837834432648464 111.95690053580833 255 255 255
-645.7251646615499 4.429038585276832 109.57777230452588 255 255 255
-643.6129842759444 12.064781733669506 115.47772165639233 255 255 255
-647.2865992707364 3.315927359820048 114.39756660939437 255 255 255
-653.5200139472101 17.354870909193984 189.16097116109057 255 255 255
-637.8373426366409 6.844813916829947 136.904539219368 255 255 255
-646.9617139089061 13.760400641604079 135.77065574253743 255 255 255
-650.3797530225373 4.811473978277569 109.63417335511424 255 255 255
-650.0565926435967 8.280819666627364 176.54181414174013 255 255 255
-639.2166520450817 9.117092597390704 137.39745290063118 255 255 255
-651.041195543104 4.842790535475693 108.13602479193561 255 255 255
-650.883391275139 6.305204403264629 108.57876778376055 255 255 255
-633.2998561562566 11.60811838938254 105.12137534020982 255 255 255
-628.5827622612575 11.460037698040331 104.54749455187206 255 255 255
-650.990537728781 1.4899508754818687 110.91835365303007 255 255 255
-643.9908132723901 15.943435064087868 151.98621043525276 255 255 255
-639.3369064616272 9.74177152426705 159.669305099192 255 255 255
-646.9665609176213 11.72224879119312 134.72135072567426 255 255 255
-649.3923253491006 8.928313346892725 124.3298081668941 255 255 255
-639.0154829986487 14.740588191206928 139.76924306829042 255 255 255
-635.6324020366355 9.237506786975553 138.2712423444611 255 255 255
-628.825323880463 11.639170718446202 148.602008602701 255 255 255
-639.4904892659482 3.278996939965037 189.63425832799194 255 255 255
-638.6419054734787 5.593001454044112 165.34199646482375 255 255 255
-640.2103445396589 16.76314774160077 170.833171631943 255 255 255
-664.6226612898223 4.051097408839887 177.3873717199685 255 255 255
-636.3249106805335 10.673508839148372 148.25807787433212 255 255 255
-654.3010364360425 15.550913981987058 182.41535198159826 255 255 255
-647.8631534448209 11.168777914322595 177.73008278685757 255 255 255
-651.05454670936 11.142356683918402 184.57263528605046 255 255 255
-650.4606435598442 11.225497561916324 108.14239483122675 255 255 255
-646.0617574038242 7.8748517609058375 129.82581603084358 255 255 255
-643.5753047611579 6.340782449753235 117.34105343580426 255 255 255
-644.3437074503748 13.485322918983158 123.72518066592099 255 255 255
-645.6060320181859 3.164156873334747 129.51841716970978 255 255 255
-654.0871663045676 18.77343629529666 201.8996503554168 255 255 255
-646.0868824836699 18.30090183624437 191.45532474423453 255 255 255
-645.5451356562969 18.820546188616937 205.07870643366184 255 255 255
-655.6077770889617 14.921936476405376 196.3293050830589 255 255 255
-636.5550549688043 13.362347085867928 124.73664033999422 255 255 255
-634.6875185858388 7.149568965217595 137.95551968544046 255 255 255
-644.3228525442645 7.771590825183598 128.21608837786061 255 255 255
-648.0184908107054 5.891016364507383 130.41564274472265 255 255 255
-656.9853677150224 13.20323604623692 137.36150675524033 255 255 255
-634.1310954016469 13.516653402914791 129.5705987647576 255 255 255
-649.947422052731 10.627609890875924 127.36611461554577 255 255 255
-634.0791174365215 13.555550087453998 136.68376001896974 255 255 255
-639.9772513525376 19.57323042833696 206.89900482599649 255 255 255
-644.7568875147372 5.848220033789694 116.4237303912954 255 255 255
-647.2463812766025 3.9705366669871047 112.31123748972408 255 255 255
-635.8440833362298 11.78887841166182 104.1753719450793 255 255 255
-647.7930292349065 6.115854664640663 129.08830666369374 255 255 255
-646.7856422262008 4.789726244890716 130.4926265427723 255 255 255
-650.5029690210959 10.708918673413855 124.33931473943302 255 255 255
-644.0984105363456 1.8250517470219947 110.28906577351339 255 255 255
-648.6850049309105 5.3185446338280435 108.56116813532076 255 255 255
-648.61256728514 4.417701183814767 109.74233941723453 255 255 255
-644.3611221321339 10.703159216532761 210.44797973922078 255 255 255
-641.58454276483 16.40703819769602 164.18300995196208 255 255 255
-662.3455065813761 2.4467354532323293 176.36402615822718 255 255 255
-642.0466186513679 10.668471542277384 210.11503824918023 255 255 255
-650.1143176471421 7.986746114790925 127.70101817830772 255 255 255
-648.0787622541851 6.559303029034238 131.64020063645904 255 255 255
-648.3550295195104 2.8018459671354066 128.83796395559503 255 255 255
-646.0275304845526 4.4254083431013225 119.08334443214397 255 255 255
-642.8182151695731 4.363810036421741 118.68055609286552 255 255 255
-643.8280694313577 9.510127834790666 134.2804918390748 255 255 255
-653.745618776966 15.225970637012725 175.88241966404578 255 255 255
-625.7592540441275 10.903364184113517 105.99623536253668 255 255 255
-626.0181625444704 11.05516631558882 106.87139096861941 255 255 255
-645.9540441691887 1.3739960235731008 110.7189689286688 255 255 255
-648.5639525046251 10.569923737071669 119.89248229564573 255 255 255
-649.9984483084305 5.715512186613257 108.54867704133794 255 255 255
-647.4026892576031 3.7174154632355645 110.42749411459704 255 255 255
-646.5399167118621 -0.36162046941328363 110.7266409379183 255 255 255
-634.7150250730845 12.001421945591641 110.82042006175054 255 255 255
-650.861558371741 5.653323242622523 107.46430542839514 255 255 255
-644.7129442966848 5.567977781861416 114.149062762108 255 255 255
-641.4808072847361 7.283887542410298 114.83651934698696 255 255 255
-642.279987755804 9.10556332237119 116.55415821694356 255 255 255
-645.7941605693962 3.8129019896687275 112.22237611031575 255 255 255
-643.4920065002806 4.81070787800445 115.73353170308853 255 255 255
-651.8829580691374 6.175008591959912 112.65613971476135 255 255 255
-644.5041143222037 7.944300946878055 119.935518522155 255 255 255
-624.6918674559347 10.632955104634767 101.68586307042567 255 255 255
-624.9466638699181 11.342717591820907 105.18270833695303 255 255 255
-639.9952091145225 11.078830084862119 108.98007118865283 255 255 255
-623.9862416137004 6.781251958704431 103.91697664957171 255 255 255
-655.4098731413212 -1.2832638403174084 132.42572071806435 255 255 255
-646.7762003025972 7.891911218745779 110.89837233517586 255 255 255
-647.8016144315156 5.571900855436738 111.37973920569209 255 255 255
-640.0178419820791 9.031580886914174 137.40239029199907 255 255 255
-641.9584908636417 14.093559488226365 131.5234127070058 255 255 255
-637.2648088185347 13.450773347999975 154.14667620744137 255 255 255
-645.0819792861698 1.876846823181964 110.66966323403493 255 255 255
-646.6829748817214 6.826188734216739 121.41526384071483 255 255 255
-635.3244054593882 9.842917213425757 146.39035792732687 255 255 255
-643.3795402287304 14.033558897673025 133.7311427099026 255 255 255
-653.9610625804917 15.31663384601967 173.5313394543442 255 255 255
-662.5620467471952 8.202081376934633 167.77204952933366 255 255 255
-647.7326730574415 8.64396416644912 196.8770220614651 255 255 255
-637.0303898466691 9.432260206985827 152.55497472123784 255 255 255
-647.7666542757986 4.184999781002386 110.66366515986012 255 255 255
-650.8888688516967 5.554722270431618 127.61235517085413 255 255 255
-644.6251048490458 3.957119012350825 115.70937145118661 255 255 255
-638.5985854789632 6.481625157307732 114.01315351706603 255 255 255
-641.0955803148695 5.147636974863861 115.73041047606966 255 255 255
-646.1857348587976 3.233383236874708 114.7388803737765 255 255 255
-643.3427387926787 5.707809287984212 117.39502186617881 255 255 255
-621.7665360837708 10.82913886269623 100.0793409835526 255 255 255
-633.2583224840864 7.907164808481575 125.62484286688574 255 255 255
-636.9563488489985 6.513104565376338 138.0930353001324 255 255 255
-643.3375225089546 8.754900374432598 129.628156453593 255 255 255
-647.7068147883908 2.882684339139395 130.64020617659796 255 255 255
-632.2300050492864 11.42334810184201 102.73245271673831 255 255 255
-628.3292583472112 8.832648697325123 109.64087399294986 255 255 255
-623.3294761610597 4.147172597262617 104.11936931731492 255 255 255
-647.7712264666361 11.701656377536992 118.67393810667706 255 255 255
-649.9064238187196 2.9924411329570937 108.6895969891381 255 255 255
-664.5218698530933 4.0733244484770115 177.3496229978963 255 255 255
-647.7116862175299 3.442749665901122 127.2043258257383 255 255 255
-645.8483984155224 2.7333040079857867 118.873403852278 255 255 255
-650.2142193272658 8.071916061069775 127.73819228909925 255 255 255
-646.389744402313 3.1326240583706078 114.8679851472467 255 255 255
-649.2443833783946 10.92990081008736 117.11107471496484 255 255 255
-622.8583266476844 11.434187964791612 106.91571846506307 255 255 255
-647.1915953024381 12.601236239645473 114.98357776594003 255 255 255
-642.895864113045 8.08620171820957 132.3376202208613 255 255 255
-638.6287916876543 7.6916949456770585 138.45471628293197 255 255 255
-647.4096154190972 11.576071759057214 115.53163687704459 255 255 255
-647.1805154845625 5.326626193496846 109.63191530370159 255 255 255
-649.5489535253356 2.183600942647418 111.35507176270482 255 255 255
-645.1331342083239 15.662405182174862 148.61674069238765 255 255 255
-634.2852116727379 11.324767246777492 154.0463695450081 255 255 255
-651.0396485034775 5.4369073569266035 109.35337406919658 255 255 255
-644.5027273578515 1.8826266929360251 116.05951524019167 255 255 255
-651.4875356924488 9.117494901902539 126.93259887638949 255 255 255
-652.361352297513 12.523287052749748 126.94110866133224 255 255 255
-642.8665526869574 2.9463483578233056 116.89881879716984 255 255 255
-651.2431267638154 4.778792426608714 109.19899531641563 255 255 255
-636.0663207766474 3.917100077042189 137.76156873970803 255 255 255
-646.6090141130102 12.629880958016638 119.00418831001106 255 255 255
-628.8036887892023 5.775963205619618 105.54910446325955 255 255 255
-645.3562979485936 2.514755706884964 109.47890676742402 255 255 255
-642.1525140506358 7.601950859474325 117.43142038999787 255 255 255
-645.817603124763 -0.5312987366926105 111.70398162687923 255 255 255
-634.2203796083866 12.09319956608196 111.19212750764399 255 255 255
-649.799806207771 6.91694168671712 107.34567571230696 255 255 255
-649.528695505171 2.266829159680544 112.05818298766766 255 255 255
-642.734256086703 3.7614763289309554 116.20892377803304 255 255 255
-633.595136291029 10.50264974022248 143.34500732267315 255 255 255
-636.5785980627522 14.113342404798804 152.95519612757369 255 255 255
-638.6690513374148 8.87609356909253 136.54064175234242 255 255 255
-635.8604725666665 7.180918762734505 135.28582597412003 255 255 255
-644.777323152179 10.683903424124047 128.36973048618458 255 255 255
-633.331537936821 13.391497873512922 129.5306741720596 255 255 255
-633.2912740600659 10.44323842789149 146.63835452178307 255 255 255
-653.6365591884207 12.866131806166766 133.7831517996129 255 255 255
-641.629342213475 9.499725223253765 126.40439341789597 255 255 255
-623.0019320384012 11.082225540537003 101.04340752759808 255 255 255
-624.5542125196117 11.22561855043186 103.20366929887938 255 255 255
-628.1047414327595 8.759067839025231 108.93444179114644 255 255 255
-632.8662799505971 11.77264805224982 107.78664918667576 255 255 255
-622.8840867859827 11.250466883025688 103.30071471590122 255 255 255
-645.3553745144259 11.491422961078591 110.71525442762076 255 255 255
-620.9940671802448 6.595191307926495 103.23189774725721 255 255 255
-650.0478421882855 4.496200788349757 108.49752506307995 255 255 255
-642.1303461501682 8.393570783961067 118.22617878453987 255 255 255
-650.5875427723091 8.762248576511933 129.63442113194242 255 255 255
-637.0469980394612 14.735650684785142 143.89110760633676 255 255 255
-635.7245542914617 7.3643479876635265 140.13966825882008 255 255 255
-636.9493506152205 7.485262378824734 137.38617969890197 255 255 255
-638.9058253872787 7.8429465261827715 117.68872047603467 255 255 255
-638.5012510901654 15.18009884754397 159.96300183867785 255 255 255
-638.0121815270028 9.13508650348007 134.95487939621887 255 255 255
-638.9836565909023 10.144056414503261 137.39028695556684 255 255 255
-657.8054651004048 9.992056091904768 173.1560757409474 255 255 255
-637.7422953811317 14.844841635898806 142.5880009501633 255 255 255
-636.4048091332232 5.481873956299582 137.91001043782012 255 255 255
-644.1815868864882 13.296656677352612 121.79914450163746 255 255 255
-643.9324499934188 7.89933180605156 127.52644363445924 255 255 255
-650.1363134597013 7.431110664540533 127.01912675311239 255 255 255
-651.0149498850569 7.834413426071794 126.34241926120137 255 255 255
-648.6873526078459 6.601420943647486 108.88363711720778 255 255 255
-634.6019326726924 9.088163296702614 110.52425660245015 255 255 255
-625.597639010476 11.193365434368676 101.67834717079364 255 255 255
-649.5409380898343 11.825256365452237 108.42399012544064 255 255 255
-626.5303590435489 11.311296304809833 101.79568312814789 255 255 255
-624.2553711457269 11.215081687045124 103.18248791943357 255 255 255
-623.9850730777982 11.116884698767688 101.14232587479489 255 255 255
-650.6740413546374 3.921863556241796 109.93735216584616 255 255 255
-650.916444424797 3.182995853709574 109.75733877995445 255 255 255
-647.2208739951516 6.804107286627115 128.54927674018677 255 255 255
-650.383090645229 3.439398665455851 109.1076816673645 255 255 255
-636.1196880128792 4.522711291106948 139.69685012776895 255 255 255
-635.7793146246486 3.9755310764138105 138.17277796659982 255 255 255
-636.702859804653 14.307606471466148 150.48162657455924 255 255 255
-636.5955629406333 9.14502252436408 134.56978156540438 255 255 255
-651.1343510845509 11.29396960678827 108.77949399349778 255 255 255
-645.6887092204521 18.74158838472055 207.25226386783498 255 255 255
-653.3204061772266 14.373303137447593 182.25460509626978 255 255 255
-662.5715785943881 19.526670207252884 200.55124526284698 255 255 255
-662.6626416463821 19.593359586207306 200.72926520934817 255 255 255
-644.8246484933261 14.947554994030792 194.6171927496389 255 255 255
-652.7798521692014 13.230674328336084 186.02779868159047 255 255 255
-644.4214718983849 6.1376413075252305 132.5119419621147 255 255 255
-636.8861868472344 4.88445940545518 137.22386054342527 255 255 255
-628.5697871020193 10.022697529826534 106.63042576087385 255 255 255
-648.9030022811559 12.45454228540282 117.8799544030824 255 255 255
-641.7658779774424 7.3574638348762065 114.62375491039964 255 255 255
-645.409419683312 5.010671771745102 108.71194142107328 255 255 255
-650.6296637864939 12.204836484152601 139.58048806087695 255 255 255
-628.2297881524156 6.095595955703505 105.61976571798114 255 255 255
-623.7638661414659 11.205968823155054 103.14748398502557 255 255 255
-652.7070158872118 8.622120151166127 187.8339872574068 255 255 255
-638.1229455809868 8.363663250029626 161.12312696555853 255 255 255
-637.533330820386 7.718741101169341 163.21034373401292 255 255 255
-649.9352753799988 11.934688048078286 140.00455370125434 255 255 255
-652.2349648425256 14.08968375034058 152.49487310416927 255 255 255
-667.2823655977801 11.06318122222046 191.96957078035746 255 255 255
-646.6706501342005 3.660068213108783 109.3265625888776 255 255 255
-641.1592315453285 14.934311222802158 140.16553634870547 255 255 255
-631.0694651643685 1.8271243771699193 161.0586364293685 255 255 255
-637.711298410988 9.80927914084391 138.58670015067895 255 255 255
-635.1081591526017 10.236064746826484 147.1489532619816 255 255 255
-646.9760498046612 18.387676331037195 195.96464944167238 255 255 255
-657.5861254416152 18.453967880239006 194.73416114721797 255 255 255
-662.6366793862289 7.003865882418886 174.90797694463384 255 255 255
-646.737853900979 14.958295833704472 141.84433530861207 255 255 255
-624.7805799245458 11.29369684231612 103.30321193333286 255 255 255
-648.0276265421921 13.775064061508271 134.06843585700227 255 255 255
-650.3153409610775 7.961608013787213 109.84432905690139 255 255 255
-650.8863157549322 7.6962400726734295 108.40053748101026 255 255 255
-641.4816168601274 4.538390179759723 116.51247008092075 255 255 255
-646.6794931761709 2.8451348890331634 111.23278824671365 255 255 255
-643.9817639662326 8.62721854526812 133.85275641826283 255 255 255
-638.1198915013559 6.893978220514224 138.17588446532895 255 255 255
-639.8964580010753 14.859461456218778 140.47547261694032 255 255 255
-650.5051647369468 8.175617964999805 182.25588998508726 255 255 255
-647.9756599687466 11.490780440517664 209.40147871785373 255 255 255
-634.372392699859 9.372432005587932 130.38390379462646 255 255 255
-640.2257270388651 8.988083140792423 147.71058339119313 255 255 255
-643.8304741047426 6.228702236116064 129.92104921119707 255 255 255
-650.2802579881469 3.4729001608485213 109.00141436798523 255 255 255
-626.9432382483068 6.306515859393883 104.65980816905369 255 255 255
-625.4140292897096 11.275015107344956 102.6840421133139 255 255 255
-641.4396441974934 9.484098610999965 110.95390744993715 255 255 255
-636.8656030252719 3.961810803220189 138.20974184345894 255 255 255
-646.0169718878958 17.846780022888147 202.41601976216992 255 255 255
-650.279703402918 6.048246368490718 129.02662429268574 255 255 255
-646.967628008317 15.654882158254463 149.7655024572408 255 255 255
-662.2067864797597 17.82185022519895 194.48189586202267 255 255 255
-638.9125418574391 8.92920000042418 134.73110264999517 255 255 255
-646.3477195209452 4.00054380410729 128.32152210503 255 255 255
-648.322681554047 6.2012373947524075 124.9588968098891 255 255 255
-647.6259797325232 4.532604919779061 126.48973085731441 255 255 255
-636.8682932896564 8.117845797387195 135.81355441027605 255 255 255
-632.759910848286 11.456253009205895 104.87356204546715 255 255 255
-641.9867974050883 10.63335285107652 111.9259488833621 255 255 255
-645.5621971510882 10.813796334069309 113.49086823878642 255 255 255
-630.053238590419 11.547345659024554 108.81848572901755 255 255 255
-642.6139292177538 10.620810756419537 112.24869860994009 255 255 255
-649.175466435328 11.896826012591081 114.822611755278 255 255 255
-628.3607616097604 12.619078665079893 105.41825326381968 255 255 255
-620.1614832338861 4.798961130166418 102.59406017152152 255 255 255
-623.6546160054944 11.141921933036325 102.4316956005924 255 255 255
-649.5317720555236 3.097038119836821 108.65655738631158 255 255 255
-653.923801560068 10.666354703070294 130.45269100029734 255 255 255
-648.8527764542223 11.2673924199226 126.6833175097552 255 255 255
-638.5721607439218 14.945783226601069 142.36476645967997 255 255 255
-638.919049147601 6.316917404989189 137.67292955417352 255 255 255
-645.7693616861117 3.7724460387125234 108.88987537782339 255 255 255
-635.7040334386955 14.024799606731776 136.5430663266118 255 255 255
-650.5674974790059 13.212518710251288 130.281458669024 255 255 255
-639.2847823220457 12.501970158660464 213.01323239395637 255 255 255
-643.2118200265697 12.174690360386096 212.57804973480205 255 255 255
-649.9654715275803 2.896221242427938 108.6491870537728 255 255 255
-650.8894099528771 4.511974697279623 107.47777800038081 255 255 255
-645.7591773635692 8.040370152744206 127.94734408298245 255 255 255
-650.0736371337431 4.5327123213971525 111.79122219726734 255 255 255
-651.0879377296122 4.7285290288445765 108.8872733750043 255 255 255
-644.8416389704773 7.194009476402847 125.85811714168818 255 255 255
-651.1151190930863 2.4391161225802964 108.91302955559999 255 255 255
-650.7662587153181 3.8112459348284595 109.96154267986948 255 255 255
-647.7122975751741 2.7143505193747224 128.55928576247337 255 255 255
-649.1664032862192 10.865021885942685 116.94034431824787 255 255 255
-659.7609684949778 13.091553094258515 150.64116127398862 255 255 255
-650.4576548587506 8.15420173306681 127.0797649134088 255 255 255
-630.7107043980683 13.529991396476177 148.8947212227036 255 255 255
-646.1158608625979 12.578082715671897 119.53151219795342 255 255 255
-651.7517980729294 12.439534306283779 126.34462458309105 255 255 255
-647.6665297794498 9.04452015614384 126.51456609926835 255 255 255
-631.4267307983087 10.828480184145178 104.73122443394143 255 255 255
-645.1730251645591 4.439643134134663 129.9835965509115 255 255 255
-636.4132056807624 7.199911506592388 135.93770715494807 255 255 255
-650.231722725601 14.73285538868901 142.13591912668213 255 255 255
-650.3531212060788 6.11977053890682 107.79537530757443 255 255 255
-649.9230730279722 10.968471763075215 117.59155392777403 255 255 255
-638.2203205927569 7.674044047297992 137.9878356055066 255 255 255
-637.7538680538286 9.205257564241062 134.38972898566908 255 255 255
-621.7771445582141 10.736714089262502 104.68986478658121 255 255 255
-648.5249356162956 3.194110582187381 128.80301858660454 255 255 255
-646.6574171637068 3.5757589277016706 128.29903412611196 255 255 255
-642.9941832727394 4.729577856207012 117.40805693240988 255 255 255
-650.047593932858 5.2116213451603635 109.27531303942524 255 255 255
-650.395338892361 5.872141109665364 109.0362049151311 255 255 255
-652.0869885957156 16.913058699445884 176.60761499787233 255 255 255
-652.2135562989155 17.11715677441046 176.5117505157016 255 255 255
-641.7547372518413 11.907588642407564 175.08377907053853 255 255 255
-655.1525743272047 16.65518449594481 206.16493534185562 255 255 255
-650.64113533423 9.797422702780034 180.82847032387858 255 255 255
-645.356739975558 10.615151632194532 129.2190009551659 255 255 255
-652.3768422044417 14.108942725252007 152.75466649207937 255 255 255
-655.5153079266377 14.45182881000796 179.36742075689156 255 255 255
-622.742683720555 10.899547687341268 100.13348662591943 255 255 255
-620.6782847842433 10.760555830423552 100.9792529533632 255 255 255
-637.3543501935075 5.26922208234609 136.90063426110422 255 255 255
-649.5699903081291 10.838923174626121 116.99183277594695 255 255 255
-635.8756181461714 11.92763464274421 108.82405877619853 255 255 255
-651.4420962787826 18.145637055609654 185.11718226369942 255 255 255
-639.2234837277169 4.548158122784283 107.74228707865709 255 255 255
-646.6928309332785 4.689882033008271 109.77033981102288 255 255 255
-649.1238022565329 3.989127183838157 110.50399346161481 255 255 255
-637.819298996122 7.310331683237479 136.85497335947204 255 255 255
-646.3179374564401 15.764459807227169 141.64517406401274 255 255 255
-636.5958331852385 4.277533792127802 137.71029647137306 255 255 255
-643.3353528198536 6.476248269966215 132.00044188221233 255 255 255
-650.5229977559535 10.64130865608493 131.57668850411838 255 255 255
-633.1090542625305 5.952508263187621 131.23798537736266 255 255 255
-651.5772414852742 14.12061636873008 137.33977026460312 255 255 255
-664.3071879180351 16.702779543596073 204.5849883658747 255 255 255
-641.8526489857697 17.347791104886575 207.39552882200857 255 255 255
-651.1921195858532 12.397485700342513 182.23199299352288 255 255 255
-670.588908558567 17.310099124872472 213.41770100149816 255 255 255
-620.6230898386482 5.708311461430668 103.89069780006174 255 255 255
-634.4440707283932 9.95979260448162 114.57322760370168 255 255 255
-647.4249960648314 11.527328817239471 114.1275921963071 255 255 255
-649.9732001503204 4.374261348529778 109.30548059466904 255 255 255
-650.4451867384345 4.283850613679839 110.50554522785676 255 255 255
-656.119379375526 3.8130985755424582 137.14811135967582 255 255 255
-655.3536505240013 15.336730674855858 185.9801618834197 255 255 255
-652.8850728804242 17.28964153357103 180.77105896863617 255 255 255
-649.8789448406775 12.94094604790549 183.17845450148738 255 255 255
-645.8396333039955 9.080823527909292 129.77643616182021 255 255 255
-645.7186790126912 10.632699244140294 129.8239602161255 255 255 255
-648.0159770965147 5.9908032075094795 129.40154183207437 255 255 255
-633.2241786134471 7.698267596751876 126.99221336116933 255 255 255
-634.7089590318818 6.625142691734039 140.16637642357793 255 255 255
-638.5083348105356 8.668080705982085 135.4752139915647 255 255 255
-637.8580417856458 9.953723154381958 136.42864838912593 255 255 255
-642.6137620501903 9.185912637565778 131.4737229353292 255 255 255
-644.7713607155123 10.243514093300373 191.07864708635455 255 255 255
-643.8567157185255 16.808786370006764 207.31966878865154 255 255 255
-639.5000365406003 8.772458261361 137.87548522262628 255 255 255
-643.0886081376094 14.622590916547587 137.81900956896763 255 255 255
-641.4643188908458 14.042384636478712 127.8285478790437 255 255 255
-642.8488398028752 7.69275664005368 130.5223570001952 255 255 255
-637.7154408426031 14.689497012597695 141.72065646271312 255 255 255
-644.258669661822 7.16166892027355 130.16899064979606 255 255 255
-638.1292439361258 8.874124988370955 136.18431648190983 255 255 255
-635.7956863949981 4.118511950028827 137.66186584339349 255 255 255
-647.4361205301667 2.432499488897184 112.14759070671657 255 255 255
-643.7289215634141 3.042004046522738 117.67940330688052 255 255 255
-640.9475474283358 9.726362755928081 212.73973531935974 255 255 255
-640.8054191742473 10.780475262985076 210.26351082335182 255 255 255
-644.6314468340449 -4.490510536135355 107.22899935071457 255 255 255
-640.4105072650851 17.824778313278955 206.00161549868596 255 255 255
-653.8316202603876 14.047450855971146 186.64496001613227 255 255 255
-645.7281234451272 12.211222304608828 206.94171838165673 255 255 255
-654.935909894427 19.144323800979677 208.64972578234114 255 255 255
-647.424590481663 0.9622726366197494 116.34858928585348 255 255 255
-640.7556362517362 4.736350713571495 116.15449681420323 255 255 255
-646.9048989942157 4.0473891009044145 109.08122925296867 255 255 255
-651.9989054702495 12.469164424529797 126.52021179583524 255 255 255
-650.8985802683621 2.8948744274463536 130.67039415379477 255 255 255
-641.4478850456491 16.532591526468114 207.34735980518914 255 255 255
-641.6793408642939 13.68943699498097 208.52307162066106 255 255 255
-639.9303385350079 11.535904867382055 213.45964536574837 255 255 255
-639.6754653827741 13.16528732169162 209.94278352139412 255 255 255
-621.0334199907333 7.140206336919782 104.816300899233 255 255 255
-639.0065320904221 12.55463864331451 159.88361264998346 255 255 255
-648.3305397042913 12.065730146141863 165.0151142269486 255 255 255
-652.0534522351393 17.069400256868086 189.1321168994673 255 255 255
-639.5046624455316 18.18811671092501 204.4192493065606 255 255 255
-643.718036664124 17.74107662052526 207.9707977102422 255 255 255
-653.2991293398211 11.958933646521732 119.62218105621575 255 255 255
-641.7111930793363 18.885597696551315 206.74260009589585 255 255 255
-637.2551892847029 13.381482267061422 133.7019310871297 255 255 255
-645.666564696974 11.236082932090351 129.24553020489958 255 255 255
-654.6795885931093 19.607543729868723 201.49863655133487 255 255 255
-637.8724277116919 15.113999338684415 158.3022439259783 255 255 255
-648.4741545100319 11.787586927754266 115.78088134936355 255 255 255
-642.3697300388171 14.644648112951963 136.21158016680693 255 255 255
-645.7254835836766 8.550882238511173 133.73479979497532 255 255 255
-637.0510136330363 8.179252728599584 140.88871715042535 255 255 255
-642.8008519545117 13.185532352450068 129.3185479118129 255 255 255
-654.2469841394058 18.901927037297263 204.9173028958051 255 255 255
-621.6870261535048 10.805256109171932 100.08676047725227 255 255 255
-647.2178623139777 6.025787223116701 109.36734211421755 255 255 255
-649.67369052364 6.61304401949368 128.08567382568881 255 255 255
-644.6219780217008 5.595237140174273 116.69243877655941 255 255 255
-646.2389271639978 3.343843644489805 115.51485069397381 255 255 255
-642.2370986556509 4.106376189473114 116.79302509971066 255 255 255
-642.9995272230984 7.6891786653984475 116.333045691734 255 255 255
-633.2084247235166 9.16152028123487 143.03448375266635 255 255 255
-649.234756262478 9.434366057604477 177.4755551724458 255 255 255
-641.674416255326 6.91053935351983 107.1362557124829 255 255 255
-644.9442591145994 5.754253661091376 116.44476910112714 255 255 255
-661.9766002924011 1.5734923625973551 176.44344568615068 255 255 255
-641.8017643946579 16.676687468365216 207.43322004744985 255 255 255
-648.3902901770532 14.159675400911514 151.72853837156956 255 255 255
-653.3372141250861 15.249226492883617 177.77403297900221 255 255 255
-646.7601100293655 15.64590804200471 149.36332299299244 255 255 255
-649.9156034866138 7.745630513396716 178.40313465004118 255 255 255
-637.0729447920223 11.2521406252241 152.51898492913446 255 255 255
-637.9791327645355 9.479005180389713 139.09186205575278 255 255 255
-640.3495901242062 15.111534735023138 142.0429942087541 255 255 255
-660.8119952245582 1.969797259883677 156.7049230340134 255 255 255
-651.5811374738433 14.992970624052123 172.4172712253409 255 255 255
-655.1726993210431 12.52107469980227 154.135417228723 255 255 255
-652.1720047176317 14.114164371559866 152.44778481998597 255 255 255
-653.3691296697274 14.233915732237511 193.24447199932007 255 255 255
-644.3589519927358 14.349949490348838 135.060277643455 255 255 255
-644.9915775713416 4.546009457447216 129.6873069935682 255 255 255
-636.7480980951245 6.043824990151892 137.43569520118947 255 255 255
-641.6346918383057 10.139574237801746 120.09986483579739 255 255 255
-634.1104742592232 9.350133719086994 152.3347491390313 255 255 255
-634.928609199614 10.006819415758118 141.5975247779684 255 255 255
-642.5896960046583 14.720473436011176 135.56981673206943 255 255 255
-649.1990190722606 13.688623523223914 133.97439829936454 255 255 255
-637.5257549271861 7.9043494949266915 146.2898434191161 255 255 255
-660.6064771723538 5.6242646317912595 177.05295330189418 255 255 255
-633.7175161526817 10.306640359676184 130.5788076539299 255 255 255
-661.7713422522571 1.7638633430791408 176.05595583680778 255 255 255
-647.7028494291619 4.943018221040802 128.84539165923357 255 255 255
-649.8523581972715 6.977688474909929 113.90987587780818 255 255 255
-649.289146502027 10.65693592780286 116.58540361558322 255 255 255
-623.6889106677993 11.215652844952391 103.18084388738825 255 255 255
-638.280239303069 14.508368921263909 138.60443420996782 255 255 255
-639.3633497951413 14.336730510705532 136.87872745636972 255 255 255
-649.5952413481607 8.238255430681878 130.5173941525526 255 255 255
-650.3719643071978 5.715813325514933 108.52700426788361 255 255 255
-650.3292878971945 7.202026946817963 108.8334025573898 255 255 255
-648.1840481121 8.341183898648389 106.9948851677972 255 255 255
-649.3050762884533 8.309572574788582 130.1178985231628 255 255 255
-647.2759758703137 12.647683052682709 118.2926478232413 255 255 255
-644.4918345999928 6.026335419789412 130.71568836194166 255 255 255
-647.0564418939069 4.633145839555613 116.91040495456234 255 255 255
-645.0909515403977 12.269600040408008 114.02989788210326 255 255 255
-648.4599589389121 -6.043073478527602 107.4352658051956 255 255 255
-635.893528882447 4.357128881067668 138.07252757259144 255 255 255
-649.6303478042304 7.074399728652628 135.49622438600338 255 255 255
-634.8941758315158 7.316933994613029 133.32524564714168 255 255 255
-621.1884635886358 5.939332590998301 103.04212371125537 255 255 255
-641.0173699347835 16.516672737844697 161.85870618188136 255 255 255
-642.8939386683963 8.06099161809452 132.32356639455836 255 255 255
-654.4365380225074 13.111257298304416 138.90279867078135 255 255 255
-646.2524247095296 4.604931189013342 110.26214749844063 255 255 255
-649.4339029329404 13.29650949838505 142.5954793376124 255 255 255
-652.9440196672174 12.948461281655973 134.94444374212088 255 255 255
-649.3466689281593 4.857827420485471 111.56070762527438 255 255 255
-645.1124373665624 10.743830513688497 114.18697924960291 255 255 255
-654.7649126116958 14.874245132044322 181.14668294198725 255 255 255
-656.6971755405878 14.632272819256368 198.60507302675327 255 255 255
-645.7048829466668 7.001008352236841 193.52440385688968 255 255 255
-644.7530542279142 11.060214653430396 194.40632188541247 255 255 255
-647.874880079932 11.552901686061384 177.58918402037415 255 255 255
-651.3790693795735 14.085914362029833 184.2632208989755 255 255 255
-645.9619382823244 5.240113405429858 132.63728215108196 255 255 255
-645.6706990817192 15.648611360011923 150.07781325337632 255 255 255
-643.3666483597025 9.069308603590052 132.43000549702822 255 255 255
-643.4047957825111 14.098217491141796 135.40244570713674 255 255 255
-637.6742133415592 5.456318346514976 137.15498901968493 255 255 255
-642.9698795361977 13.899009628545237 135.05250583009894 255 255 255
-638.62963829491 14.900693270604457 141.5783923097684 255 255 255
-650.6364932443395 8.602410513131023 129.76722667251994 255 255 255
-649.9467149292948 9.10193238602881 132.98121107356175 255 255 255
-644.0012246700983 5.528440916021744 130.21354427155433 255 255 255
-650.0619205364363 6.422227491646893 109.37088939620813 255 255 255
-647.2491453734058 2.2665941073992695 111.01795066554797 255 255 255
-648.7902213967508 10.623689849456444 126.24000065055915 255 255 255
-651.7330127565077 12.651457365468907 185.84230459680444 255 255 255
-645.3586630450734 10.052985866986615 191.8873835890374 255 255 255
-649.1998030806858 11.448014622176292 115.65197177299777 255 255 255
-654.4085385108333 15.561225421286027 183.80176517996026 255 255 255
-644.2278258764698 11.697641887812836 195.23891420251505 255 255 255
-638.6183608755806 12.671726895607168 119.76918004704756 255 255 255
-643.4161281519428 7.367502264721011 131.8693020299009 255 255 255
-655.6334266217767 19.700134971575217 213.57567850700076 255 255 255
-646.4165498295367 4.6296299410860104 119.17645121026513 255 255 255
-648.5034032350015 9.140847154050672 178.31378935461322 255 255 255
-648.6316619146965 9.112832133506364 178.66881830602338 255 255 255
-653.0024981357195 6.159027141205902 142.9935359183761 255 255 255
-643.7268800773523 6.723555955335325 133.07983892721327 255 255 255
-633.0951068925688 -8.888664559300771 112.3251784769371 255 255 255
-638.5156618897407 9.90588857783214 138.4476828030629 255 255 255
-644.2809724510928 11.148202357970295 198.45164932069537 255 255 255
-652.2120687432815 18.6644754506766 193.68619940432583 255 255 255
-645.9908798355112 18.284356475883403 195.7372145558129 255 255 255
-661.5525695252793 3.4354923381805054 176.62837374286852 255 255 255
-638.2547369448781 9.114835373648884 159.37797178537056 255 255 255
-647.5987523120375 10.871916563845867 210.74968642664288 255 255 255
-646.5653989014819 9.959004761007318 119.61934073911274 255 255 255
-636.6422154705256 13.435682340308176 125.02616964590077 255 255 255
-649.423793926919 10.605795245674802 126.8222405666456 255 255 255
-649.2125942002161 9.233383973085896 133.16697045374357 255 255 255
-650.0879988061904 3.6998444596685776 127.83410764805534 255 255 255
-647.3632874120838 9.624553385160443 130.6762802260741 255 255 255
-651.1293466478172 9.518733822457543 166.05471425690993 255 255 255
-641.7316646166186 5.628362567380261 178.0398335989927 255 255 255
-661.005897583985 13.218864436104482 157.6983587297343 255 255 255
-647.2905556417783 15.241267503748645 145.7405157432043 255 255 255
-628.1389445604717 -4.102206217143356 108.96108281308626 255 255 255
-625.4969915336662 11.155684465804388 101.35497853559534 255 255 255
-633.4858059960815 12.185832119239468 103.28276402229264 255 255 255
-625.7014227481282 11.138191092511452 101.44825738438229 255 255 255
-632.5235828030185 10.358473257278394 109.72386096539432 255 255 255
-620.9927457806657 9.856054805797203 105.84973366455789 255 255 255
-648.9474286318002 10.023677485824587 182.25691729133035 255 255 255
-653.6544529602037 12.290327268222676 162.7893869778631 255 255 255
-641.1130355142894 12.744981662720589 179.688776753378 255 255 255
-635.9555950661734 8.38099359196163 117.63025927195868 255 255 255
-648.440495299785 3.9717143253117975 110.94532468500246 255 255 255
-646.2885163429231 3.602666990248018 110.10151974103483 255 255 255
-645.0639896293401 9.801980413289881 201.49787593981753 255 255 255
-654.4516399991797 14.149571718748248 183.12744423853923 255 255 255
-644.3942523277635 17.350695200789637 179.0620428348001 255 255 255
-639.2467540475011 12.335107594945388 209.19701836575564 255 255 255
-639.262621231826 12.757101604282843 211.7024098989587 255 255 255
-640.512326658842 12.430800093256071 211.6585224974842 255 255 255
-644.3733176700981 18.126081371317312 207.78777892971002 255 255 255
-629.1122699300464 11.515840847929606 108.19221748327732 255 255 255
-647.5794865377309 10.945545931448732 178.76817674598507 255 255 255
-649.3090694307992 10.270315695343701 173.41585377867477 255 255 255
-654.79600428676 15.05296962999087 181.38090721435043 255 255 255
-645.0713583715923 8.956800143713462 191.24470314190597 255 255 255
-643.6255717134366 16.90135165734855 173.4496340816664 255 255 255
-652.9330621838996 12.668340025795501 181.880406186573 255 255 255
-645.7495895202999 6.891080764790146 110.54230117190154 255 255 255
-646.6781656752826 0.057795918742307606 111.81459254841485 255 255 255
-638.1267929126161 9.742970103997397 138.55374741138087 255 255 255
-634.411703800861 12.633843460341758 143.55835040400197 255 255 255
-637.2998824607711 8.096467943732822 141.79289081938037 255 255 255
-645.6651398595898 4.397167938749252 110.98857051465825 255 255 255
-647.494726299403 3.797664267113987 112.44745743815689 255 255 255
-654.0046902618637 15.56483788680289 182.0315315176788 255 255 255
-661.9565355609088 16.476963461384763 201.4406425555367 255 255 255
-651.0462064389442 17.961948730198984 186.7423845408336 255 255 255
-644.670147145343 16.868051206867968 207.38211424521248 255 255 255
-646.1000796765004 14.104806262141249 137.8362421103628 255 255 255
-637.1240943363318 4.793558006130112 136.72379016285538 255 255 255
-660.7386805586675 17.398544223901194 201.50187963858596 255 255 255
-649.5201853763995 19.110158113679983 211.3008759659834 255 255 255
-642.0499890960352 14.001325587851003 208.82587297782007 255 255 255
-647.1167533437007 15.09583598359482 143.26176311763328 255 255 255
-661.4735070819964 0.5769627291961621 161.77539111979266 255 255 255
-653.903808498666 5.812784254632475 176.9341199086346 255 255 255
-650.8532779880887 17.97585060513374 170.68044105785984 255 255 255
-642.4187078485446 5.714035884935594 113.47957915344122 255 255 255
-649.9800091216083 4.571613443669396 111.76716162845184 255 255 255
-640.9409149344976 5.938187122699073 115.84602398416447 255 255 255
-646.6267116902918 11.035074181101145 131.7780035008227 255 255 255
-649.80675028391 5.2738065481653855 129.20519359309577 255 255 255
-645.5270494360299 2.9877832653714087 113.37645912370245 255 255 255
-642.4455867892211 7.426070600055176 117.58650206579159 255 255 255
-649.9045542975125 4.828709419886735 111.37150553495705 255 255 255
-632.1710991981463 11.848145656103618 151.0152147442 255 255 255
-644.8735252792267 15.387720392422395 148.37372359212657 255 255 255
-637.4559176394362 14.92529746962472 147.77031254643407 255 255 255
-637.5211370476196 7.721940390237396 147.82306271106663 255 255 255
-645.506560093092 16.99935476724218 212.93768555658312 255 255 255
-637.5434783994046 7.371411051115629 163.35668896178544 255 255 255
-648.4005148528036 9.53151822172698 178.75365239593907 255 255 255
-639.9544083294998 9.05210119080968 137.26509999848918 255 255 255
-646.5165198439864 4.219714870560262 127.16977272734802 255 255 255
-643.9389751912223 5.438681401834289 130.56015381302737 255 255 255
-642.4578615419797 5.720635069749989 113.47442776813853 255 255 255
-645.641393522361 4.898268483027108 118.16027157647694 255 255 255
-647.3774039791035 12.108961348059939 134.60397643966064 255 255 255
-647.4831741632603 15.648245100228522 150.38865473055853 255 255 255
-638.2069007525022 9.737020388257871 137.85165784417302 255 255 255
-636.1166670126316 13.957496716094045 145.97558511615392 255 255 255
-631.092507261079 9.760775265116552 152.21140512130899 255 255 255
-648.4295573116813 14.162008384470155 151.780836575001 255 255 255
-662.9155208210666 10.491392892669463 172.49185054218628 255 255 255
-659.9663460435484 15.631993615241036 161.78371694633108 255 255 255
-630.7805947898222 9.727951668931391 153.32313201943597 255 255 255
-650.0225199500952 2.8716356844175586 108.68853905044831 255 255 255
-651.9964308100605 10.796838360913366 115.62148945308601 255 255 255
-650.3017631140233 7.291032606857129 126.22438265025072 255 255 255
-635.5616519460076 14.438112530412663 138.2168224807027 255 255 255
-638.1467694750521 7.223266391491073 137.02094676165024 255 255 255
-637.8764180539396 6.665019928815573 138.7764534887142 255 255 255
-634.8925375397856 14.149785731424306 136.03047896150653 255 255 255
-638.5064215504518 14.619136569315828 139.62973694416854 255 255 255
-646.7782873791518 15.126936209447358 145.82352644537258 255 255 255
-634.1248438166409 8.402421946191895 139.5435599655295 255 255 255
-660.1560755256335 7.248789128756649 176.96053524485117 255 255 255
-646.9693899646966 12.16588541705627 137.007023510541 255 255 255
-637.0252775014895 6.197191048427415 172.04736402662206 255 255 255
-637.8640657732572 8.771789846959877 162.76912597692913 255 255 255
-637.6121552771287 8.117087340202788 161.46311765190242 255 255 255
-658.4555456037164 13.486288086846802 156.84557928341954 255 255 255
-651.7518581494155 5.284675519275675 128.57378722642056 255 255 255
-651.5052175678171 4.867609094549998 111.6450773676396 255 255 255
-647.9284171246056 1.5427555823599821 110.31431532882785 255 255 255
-641.6562633554433 4.3733525353725415 116.27173224910986 255 255 255
