-624.9405087878971 104.02184375534816 212.68149025312823 255 255 255
-624.2368246526199 115.41167548222336 232.46962275721717 255 255 255
-642.8843051129222 118.73069709606004 242.9887053644205 255 255 255
-643.310831698035 118.35690599004809 240.47017742430384 255 255 255
-628.4260850899151 109.79597416361614 237.09186260219124 255 255 255
-628.537098875841 109.78703424414687 234.32450987392065 255 255 255
-637.8812391630812 117.56333962008347 241.89136796635884 255 255 255
-637.4855520449964 115.2185013005062 225.2362277263724 255 255 255
-627.3725702566683 104.58427042388189 212.94758208193795 255 255 255
-627.0365407980476 103.40615540725871 213.77318562050786 255 255 255
-638.6332151102943 104.74522275807408 220.5365197231663 255 255 255
-637.4989416585215 116.90463935433559 233.03417288222056 255 255 255
-618.6553758472444 111.59583254483326 250.6865866305727 255 255 255
-615.8316741348128 114.08187807759352 252.71841240609817 255 255 255
-618.2305879244274 111.93578732480012 252.18793969684077 255 255 255
-618.1830932672999 111.62686139834125 250.64367072146658 255 255 255
-617.9852954744056 111.19212046567918 251.38674881276305 255 255 255
-618.6158832888933 111.16572840747271 250.66963096606645 255 255 255
-620.6404774282398 111.975193173902 250.52470480463887 255 255 255
-615.691237197544 111.54535739548008 255.37473779764878 255 255 255
-618.2661914406367 112.14823742662325 251.0304024819062 255 255 255
-618.0778457772178 111.58761554979638 250.7338785356733 255 255 255
-632.155361917043 118.43342300045404 234.55412301489358 255 255 255
-636.3893822293431 120.46898463690974 260.1247617561491 255 255 255
-626.9765454632701 111.2413855029051 240.11454040033664 255 255 255
-626.840474269046 111.21580304911382 239.22803567413501 255 255 255
-638.5742163215224 114.49147823864627 221.66065369001592 255 255 255
-624.0511928608367 113.74832449188006 219.36728408427277 255 255 255
-632.3867395521582 108.38939138098547 221.48238898387726 255 255 255
-623.5245972284363 111.26230841019587 205.7478297508124 255 255 255
-638.582723426667 115.95533644194389 229.7758024610293 255 255 255
-637.6596993105987 120.28091175792386 253.4452882535865 255 255 255
-640.194554349003 114.4097560860381 223.5129887540799 255 255 255
-629.6544322588617 109.06559197588741 236.43307088713968 255 255 255
-639.1513615573828 118.82555260372197 240.5128767148465 255 255 255
-631.3242588045355 109.30878579718433 221.5265879715022 255 255 255
-638.8326499781896 118.56476433186714 239.03047152324658 255 255 255
-624.6186037386171 114.38429516153147 221.87357103303617 255 255 255
-629.2471829373648 115.44929837486131 235.99819072758226 255 255 255
-632.6883681582069 114.73534661322205 259.5307572532639 255 255 255
-630.4013632399888 108.50382177960775 245.5513317317735 255 255 255
-624.1125625133117 120.33089144274109 258.95868705442274 255 255 255
-622.2151193752006 116.8076805870602 248.18271053811065 255 255 255
-623.7254832451869 116.08288774129825 248.6085911438264 255 255 255
-614.4844187458264 117.55540334518774 247.02305576244834 255 255 255
-617.1884210788522 114.73080441108883 251.8079180862019 255 255 255
-622.6358663091008 117.7357708225205 247.6234361049135 255 255 255
-644.2763364290138 117.97945359177528 227.62110048863738 255 255 255
-637.1255692783291 113.27928970424269 267.7463746616583 255 255 255
-635.42495353314 116.02301119605157 266.4901978679472 255 255 255
-637.4553387196139 115.88453534544242 260.98849062651186 255 255 255
-626.9195671519611 114.89896597767964 219.9722765849409 255 255 255
-624.6454696491317 106.91561098529554 212.1232543970461 255 255 255
-623.6216687859521 100.54531634838295 240.03918270899376 255 255 255
-641.3809130286905 117.03428768458065 224.5495175464549 255 255 255
-627.0701366971828 115.90309730263718 254.9189115997554 255 255 255
-617.9889086135893 112.01592968777773 255.38683906427343 255 255 255
-620.7166685492598 112.07615162169833 250.43705946555383 255 255 255
-618.7830656317263 111.83718536826358 252.5911135569226 255 255 255
-623.4563923097404 114.85190297372324 256.3609308751423 255 255 255
-625.9593790457643 113.95590934873806 253.10180128576422 255 255 255
-619.1754706285524 111.47681871078845 254.29893121779028 255 255 255
-619.7913626300767 111.63202829041475 253.42290140839688 255 255 255
-627.9534326887497 121.4613638302354 256.4643821942901 255 255 255
-625.1942073941461 114.81413206484785 250.9093079506215 255 255 255
-625.201927722874 115.31211288958824 250.60937797894277 255 255 255
-616.5292399355675 113.97435155980027 238.6072705415241 255 255 255
-623.9930400188347 102.42272214159131 216.6088261378846 255 255 255
-624.0477907086569 110.3362790104228 214.50737772671417 255 255 255
-626.9016999596827 102.34652071235372 251.47170944039365 255 255 255
-623.0004626604206 111.72171345449748 215.09217675071827 255 255 255
-645.6630481991809 103.30819740038707 221.55361437668563 255 255 255
-625.3090213801288 111.74084277640291 253.17181786081898 255 255 255
-639.7142530928529 118.79574535089539 250.51884523078508 255 255 255
-627.0088174166906 111.29812401348127 239.95306524071506 255 255 255
-624.0256916709833 115.92297437966181 247.11629072220893 255 255 255
-638.5834672904541 119.592276579734 243.55968250857927 255 255 255
-623.874406473587 119.11609836048547 245.02754614358403 255 255 255
-619.5168483982534 119.01102126314285 249.0104113844237 255 255 255
-617.7035203861026 116.02428938278439 251.0518888246608 255 255 255
-616.3560569019945 115.34523605559176 252.7721596345646 255 255 255
-626.3411634475744 109.81990136169276 221.15086070589558 255 255 255
-626.9383818718449 110.9792799319979 200.81396064367232 255 255 255
-625.0197665804565 100.23094526417579 241.50376883808335 255 255 255
-629.1209252333119 106.0479119969762 235.87579026710463 255 255 255
-627.7517283575952 105.07672293793806 235.05583639911083 255 255 255
-628.1265002910242 110.90159314836839 236.25385943889296 255 255 255
-627.3079884510006 108.98334439096183 233.88183578821003 255 255 255
-624.5039793302055 115.07449673145067 226.63567876951865 255 255 255
-628.124075969667 109.67980485726356 234.47040145939528 255 255 255
-635.3508924884635 113.78164255263833 227.9992202074359 255 255 255
-627.7688430075175 107.81627031665508 245.6511471633934 255 255 255
-630.4410790276976 118.07864541073113 235.1054660726838 255 255 255
-634.1249832561557 113.0996260745375 227.35247872644655 255 255 255
-637.6252587190139 118.66963145420863 242.25548891727553 255 255 255
-631.4570252716587 117.21408423645553 250.69738568843934 255 255 255
-631.9970420386358 120.88384833115086 265.86315245868025 255 255 255
-639.5007632253318 118.89574932719975 255.97008365852514 255 255 255
-620.076805283051 113.11675236653988 255.925027775784 255 255 255
-635.1579800152731 120.9397109363137 266.1304421044677 255 255 255
-619.1341978577168 113.07498782156983 255.99807631184774 255 255 255
-618.3838913733198 113.07643547138692 252.41606850120147 255 255 255
-614.6159471300371 114.18683973931145 250.3277266393778 255 255 255
-626.6080858815166 116.45582645578764 257.2567013221513 255 255 255
-638.5411665064996 117.69987191509031 241.2273782438103 255 255 255
-647.0836456197078 103.40910466460768 220.59242237816773 255 255 255
-626.7444256931414 111.84823223337207 239.45669396337726 255 255 255
-638.0731836982383 116.15021171362615 266.7332886967686 255 255 255
-624.9070158261708 119.12433680691713 247.75558876688712 255 255 255
-637.4432393749078 114.7788203576544 266.8468036428814 255 255 255
-637.2034237773279 117.37638149505761 265.33282104225106 255 255 255
-637.3652225008045 114.28269361342832 266.87300973029613 255 255 255
-637.6888662414228 108.08134828548387 215.090422463755 255 255 255
-637.5342612874274 116.39757314790286 236.24735763221878 255 255 255
-633.8523094013203 106.10111884093114 219.83325993184215 255 255 255
-628.8657090517485 106.6624326814404 237.4470079260623 255 255 255
-628.8007491329108 106.44140498637803 233.99153332383761 255 255 255
-629.1635263750557 110.19645949275004 232.98862704956804 255 255 255
-635.1487214201593 118.0994141519086 239.22282543262082 255 255 255
-644.7373906797329 110.30851550600715 245.28406514390838 255 255 255
-630.3796765892597 117.71841441656952 233.5301963033228 255 255 255
-626.9972130658576 115.08923516143757 260.4813358907768 255 255 255
-618.4203456335251 113.33354766586612 253.6545326645233 255 255 255
-617.8691511257846 113.03611813782216 250.85439887782215 255 255 255
-623.6797125778683 120.74650652051793 262.6123233367931 255 255 255
-627.6711822041138 116.22579960143797 261.16201627025384 255 255 255
-624.9069612602411 115.05117342069605 255.70243667906544 255 255 255
-614.276253520042 116.98767180295394 242.08706210842112 255 255 255
-626.7431749651162 112.06430946795263 238.92369499514422 255 255 255
-635.5223478854145 111.04542703639399 222.74749174649364 255 255 255
-626.0315557496699 102.8160887686598 231.84155186718127 255 255 255
-631.6743192836707 112.35640956768015 212.53912855683214 255 255 255
-625.65124997702 113.64319220885201 218.28108073910383 255 255 255
-634.1072081938045 112.69225055508886 228.1229978030347 255 255 255
-636.9021417904781 114.28143623740236 220.52141423274716 255 255 255
-635.5171870994985 112.35971000439261 226.0482388499515 255 255 255
-626.9646793352088 103.36825622230002 238.90379697346813 255 255 255
-625.1133199073818 107.07454117417 201.71088361357113 255 255 255
-635.6436688761961 108.25096495757788 219.25031578312547 255 255 255
-637.3194949189084 108.03569096264415 213.965210112834 255 255 255
-631.8530961654811 109.14221603749016 222.3019136557229 255 255 255
-623.6895955187804 109.463455978075 200.46137448005817 255 255 255
-623.2656192041662 116.94800536142557 248.0226926919315 255 255 255
-626.367107994688 111.74129785938933 239.54147912733353 255 255 255
-618.0033052181574 112.75640342877112 252.0159160261575 255 255 255
-618.5904285999474 113.80320196208785 251.78297364858093 255 255 255
-626.5112621726503 114.08434957073868 251.6943739964628 255 255 255
-624.8020774794787 116.74879587252602 250.11943147088746 255 255 255
-626.2835583737134 111.68449934266297 242.2132838660765 255 255 255
-624.7502452446429 115.34887840617284 227.00016695023731 255 255 255
-635.2452649755369 116.17833273852412 222.62205040234605 255 255 255
-637.2757944459495 115.53704075679035 228.14418661853628 255 255 255
-629.0278402686561 109.65671751406822 236.51010161396022 255 255 255
-631.3896847410742 110.65249621597356 222.35677752121958 255 255 255
-639.7697807038128 122.47379212033768 270.34101879730275 255 255 255
-634.3020743834927 110.56720128898665 225.3054820738202 255 255 255
-626.6226486790331 104.85400890336925 241.37009926630216 255 255 255
-634.5775304245549 112.17586344402957 226.39272967810777 255 255 255
-637.497280122944 114.23871497881746 220.1648249495835 255 255 255
-627.0776446153857 106.3211385913498 233.08433254733094 255 255 255
-616.8714909000057 113.0978889712643 232.06311305770458 255 255 255
-624.0845666784854 103.3060045231768 214.15538761298527 255 255 255
-624.1555123045326 102.9809451512689 209.2535139526987 255 255 255
-623.8087498535873 104.04291270354554 203.7573786372961 255 255 255
-624.4833550427571 104.82989259585338 202.98023519446318 255 255 255
-639.8113605227668 109.53459900660843 218.1685907644151 255 255 255
-642.1588154132828 109.11964697589792 216.5687922936208 255 255 255
-624.1584415998882 114.52560865122828 239.02628519380772 255 255 255
-634.7803557364798 106.13942452185475 219.48214771470404 255 255 255
-635.9044108431981 122.31160947380118 260.5834688688908 255 255 255
-628.900525428502 110.53542964990459 234.6079355358461 255 255 255
-625.8234623601463 110.71303662900014 227.07637297841478 255 255 255
-635.420118823398 110.88712954498898 226.4407342532776 255 255 255
-634.567658384298 111.11083681110358 227.51129565008262 255 255 255
-638.3771040684856 119.55382297626505 262.5520386336769 255 255 255
-629.7710327023225 104.20052122389401 239.7935274087827 255 255 255
-636.0934406461151 116.82991613423056 233.9295826012914 255 255 255
-634.1933395291276 112.28544092685736 227.5791683992726 255 255 255
-624.5758289223575 116.3837981947794 250.02345933196733 255 255 255
-633.3118012169901 121.54737215549162 251.68256924400228 255 255 255
-627.6260021918451 106.78858284244579 235.06690172507933 255 255 255
-635.3717125045011 114.54004597655917 229.13065710730962 255 255 255
-633.6327404658701 114.5797225372129 228.30646054031268 255 255 255
-629.7595378285458 108.87342410786528 235.32053180175984 255 255 255
-629.7370233249411 110.12832489928954 233.5494472087616 255 255 255
-624.6051274108117 98.17484639778786 248.52996410813486 255 255 255
-635.5252184450864 114.75613930735115 230.7034232186482 255 255 255
-631.501549297064 108.54055054896996 220.2833955901373 255 255 255
-636.2957030953293 105.43138523551512 219.0396495192922 255 255 255
-642.1243431887729 104.19251702039674 224.01482029620757 255 255 255
-647.6636181860811 105.01685241727073 222.44028442620964 255 255 255
-637.324291890815 116.01139197040473 227.58097178514976 255 255 255
-633.4327211985477 112.44480805847162 229.77265143130907 255 255 255
-631.2492461751649 108.70215005437302 221.3221815882596 255 255 255
-631.1881132125335 109.6906590662722 220.8770500756922 255 255 255
-626.4856530920242 109.96483525474417 237.4241144346237 255 255 255
-623.8849302815363 108.39492375013697 200.16085848955225 255 255 255
-623.8519030112494 98.69860947317997 240.36506752568704 255 255 255
-624.555975671121 108.1886941445114 213.51119920658564 255 255 255
-626.1798398075535 110.32001873936326 198.4989676905213 255 255 255
-618.5667496220805 111.72226475751131 253.6728042042016 255 255 255
-641.0610613491314 121.45410030023783 258.73579574183395 255 255 255
-634.2849746997613 119.58234443800264 244.7042923575338 255 255 255
-635.0571547117111 119.46919450216645 266.02432674790816 255 255 255
-637.8937729950817 119.17456443377499 244.31753340664164 255 255 255
-636.450834789894 120.28691477582137 250.55647540564357 255 255 255
-623.9294333087325 110.41646568112563 255.66157661294014 255 255 255
-628.9978865180133 109.52480935097438 233.576429215458 255 255 255
-635.8166816788863 114.64500665868388 230.3263378909388 255 255 255
-616.2756316692527 115.19491057054945 243.9735806070812 255 255 255
-628.1110177429621 110.92970725769366 236.12177991825044 255 255 255
-625.4400115038545 112.09608731436568 222.0568974860337 255 255 255
-626.9471467783067 104.26782971295484 230.40629523309755 255 255 255
-629.4188972132 104.38702920380621 238.81282742013565 255 255 255
-630.8685213971077 111.67654870631166 199.31780491495527 255 255 255
-624.1934516396693 123.61157927994611 251.1533143230705 255 255 255
-634.2639572448818 112.88448169075565 229.30698646925876 255 255 255
-622.0174498973864 109.23577219279257 211.5522929376698 255 255 255
-626.9799488179956 112.63948265338998 209.04027740634055 255 255 255
-626.0935321871011 112.75419841129816 239.77843976811263 255 255 255
-635.650552430788 121.23569858277405 264.5233246160801 255 255 255
-615.0671926204931 114.2643331149364 252.25677517255897 255 255 255
-615.2608895068544 111.72699168970685 251.58576876985512 255 255 255
-627.989109305916 121.11262326603477 254.71390259196693 255 255 255
-624.9088791361178 119.11953129167796 247.92652440168146 255 255 255
-624.2453194243624 115.66238030009019 248.71052167516083 255 255 255
-640.4702534877975 106.37900316948573 250.34743551185713 255 255 255
-633.0601969472864 108.59443096823267 225.70496570695713 255 255 255
-631.5231806590695 109.63311072184413 223.64009841928737 255 255 255
-638.8468882032308 105.2929628188109 217.1827332285907 255 255 255
-639.480345875795 105.44004316988472 216.98963869405475 255 255 255
-642.579995456082 106.49018187968889 218.9160976165114 255 255 255
-625.9713491759525 105.54630490226182 212.72304793085817 255 255 255
-635.9580227059278 105.86660822000552 218.8354324391803 255 255 255
-638.298840782235 119.46776061725465 256.6456242023727 255 255 255
-640.1678846608833 119.01235310675287 251.09483837356692 255 255 255
-625.0967327367932 104.70275607065093 212.9593121393108 255 255 255
-633.8819628898991 111.18998112377407 232.97425283573943 255 255 255
-627.2344151973077 103.8526724929829 220.3503527640375 255 255 255
-641.6639737400045 115.0549431373044 223.1565453747686 255 255 255
-629.0838831049459 112.09340271104081 204.35218686604088 255 255 255
-649.457100387343 107.18318901407923 222.791718732118 255 255 255
-632.8731450083603 110.71481900502218 226.3755924787768 255 255 255
-624.533101951297 104.0812348575534 202.4649351571248 255 255 255
-624.3719716941307 104.63321679915853 202.06738266613166 255 255 255
-624.2477912277812 104.57006967060184 212.6513398553841 255 255 255
-629.9857118881451 111.52588609665429 199.5791781849712 255 255 255
-636.6839769051923 114.9821219903404 226.45827607790457 255 255 255
-635.3787445056863 111.87222584443934 225.73338661373285 255 255 255
-628.1297042561871 110.87480427548832 236.00441580500558 255 255 255
-642.3531140961181 117.96066327827809 237.6427302985494 255 255 255
-640.0472966406721 113.51439792299462 220.48212533313182 255 255 255
-628.1242677511085 110.8776822222875 236.1800634687665 255 255 255
-626.9125046333737 103.0969001659379 213.5204468848544 255 255 255
-625.5252370443843 107.97414440665185 217.80232735226872 255 255 255
-623.7557542397697 105.74098510200871 202.15620128846803 255 255 255
-628.121475711015 109.62141957316815 234.67163764599442 255 255 255
-624.5676739103836 119.97109550142073 257.0195555038303 255 255 255
-627.6858901921064 109.24249900510368 234.57892710052997 255 255 255
-627.6781151080869 108.89982253809895 233.49216608079945 255 255 255
-624.3400618023217 106.78322348760811 201.69224416302356 255 255 255
-624.9565651269636 102.5238184993373 203.09158214836572 255 255 255
-625.4286463423962 115.40060807598928 250.10622160655763 255 255 255
-633.7245978046192 117.98904918923739 231.9178005931455 255 255 255
-625.4976593068794 110.68400048290377 250.25441213623517 255 255 255
-624.6772911031314 118.58918186791212 242.60701632281433 255 255 255
-633.8645565978 106.11472183271033 219.8101516365441 255 255 255
-626.89191791825 118.76923164029819 246.58688913333168 255 255 255
-624.515167635709 107.61189528464118 210.9374471593235 255 255 255
-630.037558332957 106.09015230397777 236.80027559299873 255 255 255
-635.8668709503635 115.58459906936604 219.39409859726237 255 255 255
-623.3052158290831 103.4296563523133 194.80944312943583 255 255 255
-623.6472480449092 104.53648351863023 194.61318026430118 255 255 255
-624.2200159598534 110.62387660055188 201.90700766630366 255 255 255
-629.7995230478008 111.33669321504823 199.1124139753708 255 255 255
-624.8633235747243 121.03908627102635 259.73156142408214 255 255 255
-624.1283694644413 119.07187050793466 249.1788599364697 255 255 255
-620.1460468859383 113.19006631909525 255.8013572581936 255 255 255
-618.8949032085718 113.8950533587102 251.56799423651722 255 255 255
-616.8285067588474 112.13416348742233 251.7181907011546 255 255 255
-615.0336473785057 111.42639701458057 251.21392924855616 255 255 255
-627.4257086887948 122.42419849200631 264.645305751614 255 255 255
-620.222116864004 112.39024345227048 254.4069827684104 255 255 255
-617.1089629154045 112.66909378454932 251.58977481056368 255 255 255
-619.9189236798786 113.3876185383382 251.1535003878577 255 255 255
-619.0381462251569 112.35642812337734 250.02261301901063 255 255 255
-614.7848975368966 113.8353268034249 251.00581937163702 255 255 255
-618.4075419589657 112.4393883140762 253.32376925820793 255 255 255
-624.1002671560829 117.26761273325732 248.967609112331 255 255 255
-615.880885219945 114.05242392160878 252.64174070527616 255 255 255
-636.2590119926208 121.05360525549011 260.06353133079807 255 255 255
-627.0890276996385 111.86564750674648 263.2070965941956 255 255 255
-625.9493014901814 110.30406235092345 262.9812342125378 255 255 255
-624.1126247235948 117.26472541448207 248.39746010498138 255 255 255
-636.6935090179609 119.94839651707125 248.19154042226924 255 255 255
-618.5718584592046 113.59577630187282 255.42419447842218 255 255 255
-617.5517394139201 113.36964055201886 258.0146969363232 255 255 255
-623.55548717395 110.79872033043652 252.95045437770406 255 255 255
-622.2674163613696 111.13385430521843 251.57157995129634 255 255 255
-618.6173673214614 113.58268577762894 255.9034306104539 255 255 255
-624.2098298252195 119.51242545211912 250.20550148448888 255 255 255
-637.3385084441522 118.2622826615154 263.5902004988908 255 255 255
-625.8149589066244 119.40558159736352 250.18255562879878 255 255 255
-623.819886518382 118.02821411439636 249.3140087237673 255 255 255
-628.107904585494 120.05042762188432 249.60676038823442 255 255 255
-614.9158526601758 117.67889571828117 249.14415353060738 255 255 255
-634.9535582072278 116.35970639578514 265.32216885616975 255 255 255
-619.362810283257 112.23853732493515 251.37318081076165 255 255 255
-627.1695853696499 115.9763677153854 260.0738446314505 255 255 255
-624.3255668585103 120.9085957307059 259.07672860174534 255 255 255
-617.6582240530723 111.78665968194771 251.6758887259142 255 255 255
-624.8678009369117 115.02673478472626 251.95607576232268 255 255 255
-617.4257118639459 113.09286617913652 252.60782530508502 255 255 255
-627.1903542138923 115.52434058242525 261.9772372832937 255 255 255
-634.8283018986872 115.72490345991096 266.4811369096145 255 255 255
-635.8447610918196 121.19014880362246 263.9742985408903 255 255 255
-626.1782957147302 111.68357266683415 250.42163778328907 255 255 255
-620.3001367794952 112.48902709923279 256.2733546435567 255 255 255
-619.8703020808987 113.31683277515293 251.28493514623324 255 255 255
-626.5363930952199 113.27905823390601 253.03211220583407 255 255 255
-619.0950767393216 112.76167549169459 250.81322177906253 255 255 255
-614.3698714165866 111.60507343284617 246.71493372441589 255 255 255
-614.914953943341 117.46069146527526 250.72532908493235 255 255 255
-615.2081591837549 117.50253632559337 247.51673101261918 255 255 255
-621.5750522443961 118.29740337427782 247.61153766361934 255 255 255
-620.9865962626163 116.39835543727372 247.85209587741295 255 255 255
-618.4196067247725 112.42659099201134 250.17242796396073 255 255 255
-615.1992424346613 117.58316869267804 247.7013897798351 255 255 255
-625.3334454207205 117.89701074592332 251.89454539399907 255 255 255
-626.453032532612 112.290471375695 253.49866285089425 255 255 255
-624.1309371241808 116.79722260310326 252.66190839839092 255 255 255
-634.9715452825615 123.24598668789514 261.6075259544951 255 255 255
-625.8695243064763 112.57489513064002 250.85031737216968 255 255 255
-636.6656387776543 119.42568014016683 255.86496871435148 255 255 255
-619.6567541130385 112.68085663270264 254.50900477785385 255 255 255
-615.0880893240038 114.97283745530898 252.2941123097094 255 255 255
-627.8682808113863 121.19833548408704 255.9209775709848 255 255 255
-624.577300197519 117.62578096478661 250.82391739156398 255 255 255
-624.366943868987 119.50112546071803 250.75053737379542 255 255 255
-620.034068240846 113.99271814164588 251.449665930534 255 255 255
-617.5726394704009 112.69712566620318 251.1354935679525 255 255 255
-617.1815365833102 112.40253260121875 252.9119524936182 255 255 255
-624.2427062508614 117.71235651138348 249.16947926290305 255 255 255
-624.8042291129087 119.48382175284459 248.3858193977484 255 255 255
-642.3721038696833 118.76913065831705 263.89386035214613 255 255 255
-635.8092535446606 123.84498637639868 261.3425511723031 255 255 255
-615.0724557328401 117.08173123934387 245.69976648657595 255 255 255
-619.3028442155206 114.2602750555386 250.2499266128296 255 255 255
-620.8464226981729 110.06344095911325 252.47406533256387 255 255 255
-619.8125064376972 113.58739168660293 253.779814047138 255 255 255
-635.6926540991595 116.531804901764 268.03092011244325 255 255 255
-622.3536602649921 111.30308832545725 251.80810169464337 255 255 255
-626.5232070312072 113.22342032973683 251.25858043560075 255 255 255
-615.9599043863619 113.92154255572497 254.17576285482147 255 255 255
-615.3878039375871 118.73421341140556 247.5749116924451 255 255 255
-614.9732110745233 115.00549711085172 252.41191326870867 255 255 255
-638.7035566809108 121.13413834223807 256.50187175593186 255 255 255
-627.1549162996483 112.64777030863823 263.7525150339816 255 255 255
-623.532254731479 111.40030847169821 253.1416742499173 255 255 255
-639.1870350734174 120.14487449303395 258.84289432045284 255 255 255
-635.4623095663812 112.7672012614859 227.96637407721732 255 255 255
-635.111116609745 115.82677686252873 218.48309319060743 255 255 255
-628.7092610933335 102.90543173856236 245.90229739527055 255 255 255
-642.9765823872809 116.13837840455247 241.20821912737563 255 255 255
-643.5681807068247 115.18133944147888 242.0278075220944 255 255 255
-623.850415191925 110.82474460522096 235.5814972042458 255 255 255
-626.0258954571839 110.26558187516703 263.10668996314666 255 255 255
-636.9343259302264 105.62215808322384 225.59015895675745 255 255 255
-638.30840617146 118.4570809838165 245.39971541955717 255 255 255
-632.3108039062694 108.3674014923968 221.61296041573115 255 255 255
-627.0574901820517 114.57125249071035 218.94215770839133 255 255 255
-625.239826215193 101.10505054561322 239.57291133091076 255 255 255
-643.5944923333254 118.32390873255113 239.6686700993183 255 255 255
-627.846050888112 110.55598183794275 255.81896474854122 255 255 255
-625.2040707207184 109.84429472153991 218.38862846786984 255 255 255
-635.5140121113237 111.06328157262136 222.88724824827997 255 255 255
-623.734744671831 111.57607919053821 209.5343155968877 255 255 255
-637.613881294537 113.53613334797593 224.29470344403094 255 255 255
-629.8710625140968 111.74933185466836 200.3837909124839 255 255 255
-624.0103503005073 103.88076379522008 203.68163211922828 255 255 255
-622.7323101805092 118.30838334608076 248.28054831116762 255 255 255
-615.4342209507946 117.31704720973832 246.29548385704433 255 255 255
-637.055430654065 113.3292978843321 267.4164833226228 255 255 255
-626.5830274875308 110.82454075604778 240.68704231452395 255 255 255
-626.7799815379715 110.79734063225092 238.91089046375038 255 255 255
-637.6233431672152 118.8983936759468 241.21590915235868 255 255 255
-625.1330512783289 120.68175299418772 257.94645036153753 255 255 255
-637.8736808235972 118.3081460229519 262.6073716025224 255 255 255
-637.6773776133778 115.84813726046306 264.5022205632291 255 255 255
-636.9247606349501 116.90643479343932 234.82214200620564 255 255 255
-633.1279851360539 111.64980822392147 226.97003624943412 255 255 255
-631.5650385940439 110.49175915023292 221.7059738502646 255 255 255
-645.8879017997551 103.13977361600391 224.34590108596467 255 255 255
-622.9652441159644 111.88832899113592 209.95198764376994 255 255 255
-635.4915981142296 112.26317872418784 200.38119847864533 255 255 255
-635.433185246919 111.96918609083059 201.42446790158226 255 255 255
-638.9263492938652 121.82118639796332 258.780937017484 255 255 255
-626.0059061553849 110.85625951839471 221.42360748625777 255 255 255
-624.1452679113918 109.70336997442418 212.65313758262587 255 255 255
-624.6513668311687 116.11341988731853 232.02251619569802 255 255 255
-634.98561346131 113.28926505275399 228.28754306788767 255 255 255
-627.2347431286946 112.78436681780181 260.69433370195725 255 255 255
-626.2755395154104 113.98447169900464 235.10204679963059 255 255 255
-640.1277262409769 106.0659375349898 217.97323098477474 255 255 255
-636.4925106635468 115.82410276796918 232.53910942948994 255 255 255
-634.1995688463155 112.37098045883165 223.8686221433567 255 255 255
-625.4897931959249 110.7859927868947 263.44692429214984 255 255 255
-626.8807369547852 110.39042125989803 240.01162289593213 255 255 255
-626.340161452754 111.64395414520726 239.8238706076 255 255 255
-638.4473376505025 116.84017165814363 265.0589097210839 255 255 255
-633.7078384828286 120.17966560030212 243.99062744103668 255 255 255
-633.6317354730894 119.23054636038057 241.02323577108675 255 255 255
-626.3528049352948 111.95444578412365 206.42535026180457 255 255 255
-636.8670401994895 115.6734052071993 225.85449424476442 255 255 255
-632.9073725367391 110.7065012241208 226.66660646479806 255 255 255
-627.0358292078427 110.74764090030378 262.8710921607437 255 255 255
-623.9944252564269 111.97529396427802 248.8702786057275 255 255 255
-621.6683204704551 110.80980370512289 250.34938980800155 255 255 255
-627.3868848316317 119.79489818938944 248.82540911109206 255 255 255
-618.3372725340377 113.14971031890313 250.28674334782062 255 255 255
-617.2236903036968 113.18437652579462 252.3900547693119 255 255 255
-615.0103542015007 112.63464869848936 252.10704522026145 255 255 255
-618.7502286865422 113.21652501029362 251.7698274057481 255 255 255
-626.7351228003976 112.67300339253174 239.29803373500812 255 255 255
-623.9381029048317 116.35426576901703 247.9497559053186 255 255 255
-626.1629599901192 112.1126628945345 251.0057325361816 255 255 255
-624.8246103141076 114.3544132670187 254.75046570857384 255 255 255
-620.5488757957261 111.75318891141963 252.26527831170745 255 255 255
-620.9801586430973 115.25170395095446 249.5337037385306 255 255 255
-614.5749051322784 117.67588930264932 250.94417598284056 255 255 255
-626.6474470932773 110.78404002574123 263.83980204230676 255 255 255
-633.0972348706856 117.35661924561964 236.27414537894438 255 255 255
-634.1823831636456 119.49661719111931 244.32808710621953 255 255 255
-642.8200628650726 113.8014522330226 227.41961727330118 255 255 255
-626.4915860518793 103.47339135976479 213.49677770226745 255 255 255
-631.758203625147 117.52844729004667 232.502605580926 255 255 255
-641.7023841643055 113.50810412968127 224.8264272417845 255 255 255
-623.2990811503445 112.12514691102407 211.07435678870402 255 255 255
-623.8584150920989 112.70928129986262 253.90277178236474 255 255 255
-635.6739420596116 115.03940878130143 269.5938695062468 255 255 255
-620.2909165112945 112.24451810766654 252.64093497718744 255 255 255
-624.5969374328274 118.03384189388517 252.68051424329914 255 255 255
-626.2972113947908 112.69119595475107 254.79616393738297 255 255 255
-619.6869251184052 111.70980743893176 251.892546743793 255 255 255
-619.8031671796266 114.12328116623797 249.70775848396883 255 255 255
-616.6032894923247 111.23377337254962 254.55735338872452 255 255 255
-618.1010990055968 115.0926727105564 251.826820385361 255 255 255
-644.9153587798361 110.24574052587734 245.38441016688995 255 255 255
-626.6197300522815 111.79423549386843 238.7680516577739 255 255 255
-625.6601824862616 110.53632589854662 246.7356162549479 255 255 255
-626.4753604000217 110.9262539216219 237.103732933874 255 255 255
-638.199369569092 119.34868535992044 256.1268633376889 255 255 255
-620.2276625813302 112.55510432076066 252.66662723884863 255 255 255
-624.1044532267183 117.25227540460943 250.11008216664686 255 255 255
-615.0780650703368 116.4119695829839 251.6926255512102 255 255 255
-637.9607952574352 116.59314944507408 242.4035582606732 255 255 255
-626.4952017002959 112.51729953691049 238.52631918320054 255 255 255
-624.0259731750898 114.81944360110863 248.80937359543836 255 255 255
-639.331946745872 120.18012709001077 247.33543699759727 255 255 255
-637.5278265363347 116.46465690668578 241.74350861650123 255 255 255
-638.6619240014729 120.70971436003697 255.42165296619072 255 255 255
-634.6850049546116 122.33361036947574 254.78375486414114 255 255 255
-639.1295625357878 118.85505214256332 255.28085290491728 255 255 255
-639.3509892123079 118.43502033636736 257.4143363834216 255 255 255
-626.935632744261 115.80726139428428 259.2632143568922 255 255 255
-618.6509358602846 110.2965659529131 255.14776947328508 255 255 255
-617.8434292657714 112.58966284292032 252.74441183982526 255 255 255
-624.5147373238568 116.28481698895786 250.20200023267185 255 255 255
-629.0199519562004 112.73533975855071 209.08054303672853 255 255 255
-636.1171049891337 105.5544563084024 218.5280211521664 255 255 255
-646.1029851424809 105.2679355672565 232.26686222559184 255 255 255
-643.1477378937949 107.67402225294708 218.96556329564393 255 255 255
-625.8799884448741 110.43581874931226 231.2887150251904 255 255 255
-636.056356206028 106.09079441083843 236.12052607244763 255 255 255
-641.9994488061263 106.71987016096098 217.66360632616485 255 255 255
-621.9641516132588 109.21332832976472 211.70110467248685 255 255 255
-639.9705384359636 112.36153687969929 239.28293844523813 255 255 255
-633.8975647698591 112.67248220802702 227.2806709392676 255 255 255
-637.6510429530641 116.97696379288308 239.26171632745206 255 255 255
-625.3779104363437 105.54131612764415 211.21413203094968 255 255 255
-615.8757117651878 110.64792989315731 247.82005892918977 255 255 255
-619.1306365952612 110.72403414244576 239.12670211577992 255 255 255
-625.6025408141656 110.63530993375403 251.61600705818108 255 255 255
-637.0873810768653 113.29602943912766 229.39775158859908 255 255 255
-636.5919454431935 105.55565934696975 222.3537358875183 255 255 255
-626.6080950245973 104.06794178375044 213.79104479587696 255 255 255
-619.6901671024739 116.68096081871323 248.69094663150074 255 255 255
-615.7455503045156 114.15660138950604 252.9341300719588 255 255 255
-618.874858384494 116.54573424914122 249.65514939900376 255 255 255
-623.1140226389269 111.37225541048501 250.13818783765103 255 255 255
-639.6709260258572 121.58697212444795 254.63846514691892 255 255 255
-623.4778935374794 112.17834877042067 251.28752305751468 255 255 255
-619.9193236457587 103.49255293591591 214.26227661333152 255 255 255
-630.0314407160222 106.1111807158918 236.7500681082408 255 255 255
-634.762669207999 106.16732221729065 219.3812655067291 255 255 255
-614.9565251515579 114.21734787038082 252.35408907782897 255 255 255
-625.6819986696893 105.5333112062413 213.54323472506238 255 255 255
-625.0509391052202 105.18629951193745 212.82300527579554 255 255 255
-636.2971019461254 105.52608373538735 218.54037651523873 255 255 255
-633.4801458746733 106.97282793880196 218.6598226735086 255 255 255
-641.3470540193024 120.34113134733073 251.0127707367114 255 255 255
-637.3890204265903 119.13787472045266 244.54366734780186 255 255 255
-626.5513892872528 117.73117689670023 237.27194932261347 255 255 255
-633.661836338711 115.68722387704607 220.71619106626488 255 255 255
-637.0809260978624 113.90670798342559 220.09152542337102 255 255 255
-634.703954229656 113.60240922326632 228.91111390685882 255 255 255
-624.3548967700701 114.2903697783125 222.3422789678644 255 255 255
-632.9686204888109 117.15363420310041 229.05910019148303 255 255 255
-635.478611365509 113.20300827024617 230.21627560532957 255 255 255
-624.2520983069724 112.18961412564255 228.23933425140754 255 255 255
-633.6258868805648 117.8612763625301 231.4270064272408 255 255 255
-634.7606885547515 113.14647672079266 228.51357232935757 255 255 255
-638.3941089063328 118.02496353993726 264.9743678329501 255 255 255
-626.2469817494239 113.29349584509427 257.1170470990152 255 255 255
-636.0152922870496 108.30524661289205 229.8208686336235 255 255 255
-625.7645694963493 104.11038775305772 203.51512830393054 255 255 255
-625.8328110997421 103.20828766034273 213.7589194941603 255 255 255
-634.5101039501947 111.71597910231634 198.9778465367235 255 255 255
-624.5060520718553 104.24004757297166 203.47887471786774 255 255 255
-627.1308389184915 111.58243569775816 263.3622979435013 255 255 255
-625.7609314502557 118.70171229941018 244.69752631869048 255 255 255
-629.948307250283 117.51324729310076 233.4923768952688 255 255 255
-643.7161035409216 115.28352792968212 242.9944774961715 255 255 255
-639.1974786418114 109.66553708429416 205.96849389071429 255 255 255
-625.6994497150575 103.08052852146032 204.0235878027212 255 255 255
-623.2438579043543 104.13021713768774 195.40182412183398 255 255 255
-631.5589324291788 110.28369204893696 211.5181605450269 255 255 255
-624.4814737858869 101.83973850480379 206.57997374382003 255 255 255
-623.8059206561429 107.52207830891092 196.6031885239468 255 255 255
-621.4646792617228 103.37344774638395 211.94676286117127 255 255 255
-623.8015874566208 107.51546439030423 198.01111841343783 255 255 255
-623.1155447134311 104.09737088709315 195.4455365847752 255 255 255
-625.1997614094297 107.06867309701417 201.29745811034442 255 255 255
-627.9898462906019 108.99185429044788 232.76531402470914 255 255 255
-624.5754179300503 120.94729775349383 261.3548285224646 255 255 255
-631.5505556940384 111.11112493283748 215.83172489018406 255 255 255
-638.2448583423426 117.60044579221241 236.56965778555684 255 255 255
-638.1145725028138 120.14983894001281 255.4461143139679 255 255 255
-633.6645144888057 110.54854155941089 225.64520521249406 255 255 255
-636.2150647106971 111.93885695354462 228.55796612076827 255 255 255
-635.7876314106264 112.82914561991555 229.16282774755888 255 255 255
-633.192473875052 115.49470273502632 226.0236209477472 255 255 255
-615.5795605997273 118.73886158062429 248.12025185502083 255 255 255
-614.7197781661447 113.843024638534 251.0642925779069 255 255 255
-623.9606241831299 107.66422339043821 211.2522491096392 255 255 255
-623.9359288312955 119.57130516788891 250.078803568075 255 255 255
-627.0279596206361 111.55072867622563 263.73927581129755 255 255 255
-632.4361344453121 113.16735904860674 206.2037865217733 255 255 255
-635.0576955928314 106.31287854604423 219.53395660234378 255 255 255
-625.2440588031635 103.4724103187149 203.53929281499603 255 255 255
-629.6550876063062 113.47365556750557 207.1771003689169 255 255 255
-633.9482793060627 115.72278042503011 224.68049332621308 255 255 255
-633.0871563832338 111.1435317411303 226.6805368195188 255 255 255
-634.9380807079668 113.99416520798722 228.3859232599297 255 255 255
-624.7273373188252 116.0617249836632 231.7608191615455 255 255 255
-634.3237422438285 111.72561186175514 228.09473082696914 255 255 255
-621.0296189672752 111.46187690681896 234.19600899165607 255 255 255
-634.9437715283727 113.15845405205958 228.8775075801882 255 255 255
-626.3452425687401 113.95540607182954 234.6734874220801 255 255 255
-634.6479610538346 113.58210764392274 228.83463281542305 255 255 255
-634.5591336883826 113.57944938890114 228.62563356021633 255 255 255
-629.2056873654792 109.98051194615367 235.33410088485064 255 255 255
-633.4693034201282 111.78107828939932 227.78405373129928 255 255 255
-628.5620797996745 110.29266874092315 236.94512130572696 255 255 255
-626.7222077957001 113.35624100677452 232.2928561015984 255 255 255
-624.1307343776776 115.84818167094026 230.7968953316601 255 255 255
-625.5188873801662 115.39032209265748 249.50748780079175 255 255 255
-626.641663815321 110.78938313525055 199.04426417259364 255 255 255
-631.4993442482496 113.51629806879328 209.13965068978604 255 255 255
-625.7616663145228 104.11773626991292 203.55662010293602 255 255 255
-624.9239721920793 103.2835417787187 216.3773462125137 255 255 255
-625.699632839279 102.24337738813571 203.83990481199146 255 255 255
-640.3397725241796 110.73151606163864 219.35224158883548 255 255 255
-634.0901538817387 117.75537400130308 233.3618433562607 255 255 255
-636.4269993316483 111.53551478565332 225.6107029657662 255 255 255
-631.9272779524534 114.26204404385075 211.7682111072619 255 255 255
-645.5702898821631 105.60130794823036 221.84938976221247 255 255 255
-637.9911035840764 105.09219798361599 219.7064202562318 255 255 255
-620.0498682419794 100.31572723291542 225.00207891749895 255 255 255
-625.0895012188248 101.36244244900351 204.18400661456658 255 255 255
-617.2612139059094 103.94860976512312 220.15729640410223 255 255 255
-630.0587855670998 111.59336664932137 199.79643466926305 255 255 255
-617.4219242001252 103.94173290846715 219.7213377885231 255 255 255
-624.610975224493 104.15441213821894 202.1769631930721 255 255 255
-626.8829019449324 110.86440396577356 239.5965073275104 255 255 255
-626.7128717534418 111.09934667680974 239.78605549086268 255 255 255
-625.6245254159841 111.82348137300318 251.72680130582722 255 255 255
-626.7475096825972 111.85198999620545 240.44814055801444 255 255 255
-625.4836312684538 116.92257499494517 238.41384599398762 255 255 255
-626.9108328440029 117.78164782680993 236.74941450388218 255 255 255
-646.672627426986 108.98723454672219 246.38375898511495 255 255 255
-623.0948012391132 115.80648460542567 247.84270306453772 255 255 255
-627.3292171693566 110.96778613853772 263.3344016432732 255 255 255
-625.8468503260367 111.59439377354019 253.34198858876573 255 255 255
-614.8284164643004 117.06555432321107 249.42223526379794 255 255 255
-624.6292161689388 119.9200205412603 253.34144341485919 255 255 255
-619.5650659801922 113.8118006065081 253.5570179436605 255 255 255
-615.6914463258213 111.4710421514807 249.96825766404805 255 255 255
-620.017427681933 112.14632889162078 253.78231635634302 255 255 255
-614.1445260076262 117.65707830680358 248.50916071197682 255 255 255
-618.0066941836086 113.38217080514079 250.87413626138246 255 255 255
-619.6753281498113 112.34599539159842 249.77444664761398 255 255 255
-619.3835603439985 111.59932872692924 254.91477590434758 255 255 255
-618.9308341360309 112.70185380648019 251.58889083220072 255 255 255
-634.2645614607079 112.8600338605732 228.18260873874428 255 255 255
-627.6632181363818 109.06418765945762 233.52551697588487 255 255 255
-637.7080488538417 118.2460545206585 261.69413951018294 255 255 255
-643.7020327604179 118.25620721983442 244.59092393667822 255 255 255
-647.0720632050138 119.24407019489911 250.426656355938 255 255 255
-636.1676965143439 122.1762051269651 261.7859902114327 255 255 255
-624.1952763857608 102.53349311278497 204.03208581332737 255 255 255
-642.6173730739787 119.2341695488537 243.51670782533387 255 255 255
-641.9652348447646 109.18419396193747 216.24562273618776 255 255 255
-627.121647893523 104.74593235796837 212.79700799106544 255 255 255
-628.5708137666645 109.51851656271054 206.56042316317593 255 255 255
-638.8365940421269 120.36233068550327 255.79430930114864 255 255 255
-637.6362834131365 115.6885984438078 264.2851284286234 255 255 255
-638.8596326721851 119.90354313801052 257.7077701307745 255 255 255
-624.4742450572219 118.16015637610644 248.756826552692 255 255 255
-620.6213308012157 114.8816627956085 249.17167530860797 255 255 255
-619.9431117623184 111.98989063728062 251.10700012057984 255 255 255
-621.1272766768002 111.52867395597896 251.23553394684072 255 255 255
-617.7016464875617 111.92698161493273 255.60996281187815 255 255 255
-620.330315769515 111.12142653753573 252.1324243837523 255 255 255
-622.9811045895232 116.10937550917139 251.69321338028047 255 255 255
-625.3471135347652 115.26037700989025 252.52651844630157 255 255 255
-623.6595492655074 114.93189056094485 255.56082320216882 255 255 255
-617.4907434620504 112.27299020609759 256.5369216507933 255 255 255
-635.902731026437 113.98122379942362 266.32879866676893 255 255 255
-619.7286894469579 114.57047362869686 249.24527227420336 255 255 255
-614.7450386093147 117.11900840384949 245.59134808710746 255 255 255
-614.0256525962104 117.22787775240857 246.39914788906614 255 255 255
-618.964766576381 111.89464534418929 253.22945673770766 255 255 255
-618.8164135418788 111.82295108927882 253.46735017349965 255 255 255
-627.4772693282856 115.66211911236822 262.35112331052596 255 255 255
-616.3653066536097 112.68690164723635 254.17388027323796 255 255 255
-618.2912779793256 112.13049295745631 254.9957528860122 255 255 255
-619.3885641853766 111.47560477987697 250.65496488798414 255 255 255
-624.3038840249039 115.33549837762621 253.52331264544767 255 255 255
-635.4367617968994 115.86757256946308 266.69277250612527 255 255 255
-620.939302785702 110.15550971397694 252.24546615818255 255 255 255
-637.4924475687501 121.43007354018266 258.35070313461574 255 255 255
-637.3465307714031 115.29754899574814 264.3060421116184 255 255 255
-622.2819738357402 111.17967559384779 251.46832098234205 255 255 255
-623.2316458456313 116.94358423689741 248.04031400272063 255 255 255
-625.4246324639785 118.06181484662312 255.74548713581055 255 255 255
-627.4975995232539 120.96446471352118 255.30073871932967 255 255 255
-626.8535954887383 115.616699683263 260.68706877215016 255 255 255
-627.8978779931615 121.47828218653348 256.6313842844633 255 255 255
-634.5563293011537 121.80820669930945 269.44264636812983 255 255 255
-637.7394519695382 114.49853633574367 267.48025962827944 255 255 255
-637.4412236038537 119.61117109927643 244.7522553467271 255 255 255
-638.9331273258985 117.33180234543707 266.1375679638086 255 255 255
-636.4249754163654 119.08472527220371 242.82109334356463 255 255 255
-626.0325582719704 112.09314271977607 251.56686378069674 255 255 255
-630.0249814848547 119.68965609873398 249.43664641001536 255 255 255
-636.6282187362485 115.3937528796268 264.62262337089345 255 255 255
-634.5138489532541 123.5544733964359 264.2008867083529 255 255 255
-625.0570482604809 119.3620754177022 247.5657993830321 255 255 255
-624.6996641285026 113.49740141749913 250.1015737447157 255 255 255
-633.6772315601552 119.29771719282238 241.25281498317807 255 255 255
-634.0960289453328 121.2761262493647 245.85652557521803 255 255 255
-619.7544045840405 112.14956641136334 254.03772246435014 255 255 255
-633.5292264026189 118.24706816909855 243.8169749172709 255 255 255
-625.9978190100119 112.08367532208062 252.69128319256134 255 255 255
-625.3874061115112 115.39362176695242 250.29301242057286 255 255 255
-621.394342696818 113.91656798670877 253.44597029170768 255 255 255
-618.1925879596279 112.89319963393946 251.15306158984893 255 255 255
-618.2165205125463 111.50252413577124 253.25348936393868 255 255 255
-632.6293839086147 124.26278633640909 266.65915716545646 255 255 255
-626.9005170952997 113.01600729255878 264.02856858855625 255 255 255
-618.0216150070514 111.96661279413726 252.8502879940652 255 255 255
-620.1124911739803 113.47660484368949 250.93642437998562 255 255 255
-626.3093265617513 112.76992935663252 254.6741969747116 255 255 255
-619.9544072560828 111.87093436100064 251.57359394291203 255 255 255
-624.4038802006369 113.94749364814584 256.28070262254755 255 255 255
-624.6444217692103 115.24562336615347 253.51868053296712 255 255 255
-621.0775430711242 114.25510802728522 251.6101279321671 255 255 255
-615.4265839289634 111.05433664428851 249.090509550497 255 255 255
-615.5381743173936 113.08249134723003 249.21868801895738 255 255 255
-626.7378961629098 112.45829286352198 251.08139703115145 255 255 255
-635.72696359118 116.53085488962472 268.16662398168484 255 255 255
-638.352664164721 121.76916957610653 257.52772586983116 255 255 255
-625.9634746614062 119.75022995909622 249.28894945609514 255 255 255
-636.1481903615772 122.81571667330473 262.20713034767095 255 255 255
-624.6345001253694 111.02783817751336 252.20297931081876 255 255 255
-625.5330459901522 111.01532000339984 261.8013192682055 255 255 255
-623.1645409525653 111.35519823202266 250.66694232261327 255 255 255
-623.6416407000547 116.2116990629966 249.18549309853182 255 255 255
-625.4745247196347 111.60829462119723 251.30789130011615 255 255 255
-620.8690985784167 117.35134125581493 247.4515781783369 255 255 255
-621.2993075126456 116.1479474863109 248.24990348400323 255 255 255
-624.3585577058855 119.53919868572682 249.55319984800224 255 255 255
-636.540546787644 120.95653629936797 258.80452560130277 255 255 255
-622.7755432879895 111.1114656245229 251.92077375163166 255 255 255
-638.129752050393 117.5823160863284 244.48839790410963 255 255 255
-622.9967144494206 111.29514708060164 251.12920773131594 255 255 255
-623.1310368390388 120.12843145149179 260.1024653978521 255 255 255
-618.1963615432284 105.3781790898035 225.09703606555817 255 255 255
-624.6633322543654 106.48676588875068 211.41944783634824 255 255 255
-624.8558149005859 109.73425612666296 219.95244134236899 255 255 255
-641.4291185673692 107.06657493445672 217.37426390556914 255 255 255
