-694.5945171865269 -5.156483704028385 76.49917409426962 255 255 255 
-686.6313579685298 -3.5183281713436365 77.93698565544116 255 255 255 
-676.4294713097848 -13.792346434406642 55.31664570452473 255 255 255 
-688.4753078064093 -5.251758986586571 79.46995241211646 255 255 255 
-693.1937745930429 -3.479440402846957 62.35120475531055 255 255 255 
-694.068444712693 -5.666022837255238 77.0029962254874 255 255 255 
-694.1396135212127 -5.151838501064772 77.77809197145132 255 255 255 
-678.9468499254641 -10.581549864973542 65.28410806579143 255 255 255 
-675.5345027747913 -3.008703177295933 64.05583984099891 255 255 255 
-690.9784528624555 -3.011697797226569 60.069012347920726 255 255 255 
-685.3983694946536 -2.391586683842187 72.06887094808451 255 255 255 
-693.208539126458 -5.107540803887384 62.06483817621849 255 255 255 
-687.7772544171571 -4.201513933148889 77.8505327854136 255 255 255 
-694.4408023556063 -6.0135161193026505 77.45912882878557 255 255 255 
-694.6379639303757 -4.3441740076651225 78.69979412258215 255 255 255 
-690.0053796019865 -3.5722023674628307 81.28171476831622 255 255 255 
-689.605734714406 -3.507260152097458 81.43421411762071 255 255 255 
-689.5762903431809 -3.5204862510893324 81.37583408647131 255 255 255 
-678.8106332536435 -4.236071978949397 73.11187873416526 255 255 255 
-694.3925405410405 -4.735216849250623 77.78929659110746 255 255 255 
-693.371749496543 -5.31671457908465 78.44428461187549 255 255 255 
-693.3107121538441 -5.260458485599759 78.46066074831108 255 255 255 
-690.1084751492652 -3.7181052965113754 81.31842280770613 255 255 255 
-688.895542028987 -4.510757675920163 81.48471552529725 255 255 255 
-694.4561281959336 -1.8057254169411752 77.62394305110769 255 255 255 
-689.0336502212633 -4.03050013697027 80.47247203994 255 255 255 
-694.5939922356359 -4.341348779233082 77.84957549904748 255 255 255 
-694.4589725585403 -2.0797111953733327 76.94345458425899 255 255 255 
-690.0380040368783 -3.528190976704374 81.34553452230023 255 255 255 
-694.6732434381211 -4.8374182717811 78.9158634523992 255 255 255 
-694.8675961450678 -5.371913008193295 77.74493212688917 255 255 255 
-694.9605335065258 -5.369364543582403 76.86595034317519 255 255 255 
-693.0964920075669 -6.1380505804123455 76.73941575061323 255 255 255 
-694.2407757617375 -4.919907229575336 77.59916481605256 255 255 255 
-692.5845041494052 -8.901279152165042 72.2311460878792 255 255 255 
-689.1609149907448 -5.40603807462182 80.67948551464936 255 255 255 
-693.131286763847 -5.366255298112197 78.44903660106017 255 255 255 
-693.2016013882792 -5.176928502852208 78.74482550056914 255 255 255 
-688.7727820969225 -4.8921235117752815 80.7064462301265 255 255 255 
-682.357318575211 -3.6110893281965133 56.31530383607949 255 255 255 
-680.4134608294507 -3.5288180681779995 52.74668163793173 255 255 255 
-686.078740105023 -3.835137430829297 45.29207062176831 255 255 255 
-676.6461169608954 -3.435042439619397 49.091828023667965 255 255 255 
-677.1747062335453 -3.5071706502985904 49.70605108054872 255 255 255 
-678.5035213912162 -3.5790553349681007 49.71668492740615 255 255 255 
-677.1945192579738 -3.5645950989723225 48.380843643449374 255 255 255 
-676.4368488259678 -3.596733807728641 49.681872511961856 255 255 255 
-684.6630085964332 -3.554093647199073 48.603369984063406 255 255 255 
-682.7453151932057 -3.6431712411115225 47.37286057187444 255 255 255 
-683.7512169876212 -3.53417082576785 47.71806616579519 255 255 255 
-683.7346389505971 -3.539108989692698 47.71785087231745 255 255 255 
-681.8776636149898 -3.688501869841967 56.274109847745265 255 255 255 
-678.1075646266689 -3.6861856185288406 46.59057597093299 255 255 255 
-678.9728472508755 -3.4604450185904945 50.83141463530616 255 255 255 
-684.5445705764088 -3.231799165163384 63.1568043179591 255 255 255 
-684.2087304874497 -3.2045261208433695 64.29961136858826 255 255 255 
-682.7149678164477 -2.7034123768260736 64.82239475115854 255 255 255 
-683.7532807087349 -3.362186195787397 64.10998253609534 255 255 255 
-684.4406855616812 -3.184853189407911 63.90316992488252 255 255 255 
-684.5119550211904 -2.917692663140955 64.16651262311541 255 255 255 
-682.197220884565 -7.602882024065356 62.37268162608798 255 255 255 
-682.4441966775273 -2.84999575741245 64.86918452867417 255 255 255 
-693.1560340915381 -2.2021779809327673 75.39626251456825 255 255 255 
-693.0919198992902 -2.4388740785620735 76.37410599293707 255 255 255 
-692.8935645113846 -1.986512501589408 74.69314777988737 255 255 255 
-687.9604547879518 -1.9545820917511403 77.0619564932461 255 255 255 
-682.4952250283951 -6.8468405785780435 72.95015750199201 255 255 255 
-664.5165980589659 -11.21974242407197 49.75281828737153 255 255 255 
-668.3724714980605 -10.066150759218377 54.218992931176615 255 255 255 
-686.8468712085547 -2.4876444521196728 75.30069202676813 255 255 255 
-680.9026773374973 -9.049482005298925 68.12336535813387 255 255 255 
-685.6148837538152 -2.6867705796163195 73.88492982638883 255 255 255 
-686.6958873569489 -4.708689596345735 74.94120740045688 255 255 255 
-687.5786790365314 -5.739811491573224 79.18429278652464 255 255 255 
-693.8488635862268 -1.9008891029154884 75.81412712193656 255 255 255 
-693.2547754995952 -1.8861092378465691 75.6932840221142 255 255 255 
-689.1184809400443 -4.720189792508539 79.92499241418808 255 255 255 
-694.2331010688994 -5.431139215950193 77.4111754278533 255 255 255 
-688.4533041631954 -1.8106172975253152 76.95918465119117 255 255 255 
-685.6920575074708 -5.088564320425101 77.43825200227185 255 255 255 
-693.4611610114282 -2.1676730753185076 77.72384062279643 255 255 255 
-691.5089717603469 -1.8811873044313545 76.01392451582404 255 255 255 
-692.8945063264341 -1.993168301076754 74.79214907381011 255 255 255 
-692.8799279432128 -1.9505984939048124 74.51201435524037 255 255 255 
-679.3613318706563 -9.958426056084491 66.00837071286128 255 255 255 
-680.8291861476158 -9.26152124139912 67.32878570231124 255 255 255 
-693.2400185036961 -1.9886085249462724 75.19754266571269 255 255 255 
-693.4859280270781 -1.89985007748461 75.375956667687 255 255 255 
-693.4961174125987 -1.6855855134303663 71.1844249573663 255 255 255 
-688.3019680049722 -2.043727565717105 76.72805274935189 255 255 255 
-692.0063705800765 -1.8374560672152764 69.97958134367192 255 255 255 
-682.2046731623687 -9.009442448306263 68.34891097197061 255 255 255 
-685.0087290614036 -3.701802052508732 76.33390605772276 255 255 255 
-687.1558289139836 -4.719649480745575 75.19431466759359 255 255 255 
-687.7812574030542 -4.843568926746848 76.72687340420472 255 255 255 
-686.6371703669101 -1.9429763542208591 77.82394117959673 255 255 255 
-694.0148182503353 -4.889846374051496 77.26021578270043 255 255 255 
-694.1022928537752 -4.959646806966331 76.97952613207684 255 255 255 
-693.7406113594442 -5.532974831941907 76.98882536145116 255 255 255 
-688.0656470421882 -2.1070772049012643 79.31001333722644 255 255 255 
-691.712667648229 -1.8043476233317068 76.54836471002125 255 255 255 
-691.5434330358668 -1.7588864838817821 75.9225303833066 255 255 255 
-689.0873724976186 -1.82071952830417 77.44126729302303 255 255 255 
-684.2387436781909 -1.184947510557521 70.59049402742312 255 255 255 
-693.8244865218874 -2.254466844301744 75.10279933356468 255 255 255 
-679.538626349171 -10.084757784158047 71.27976900319203 255 255 255 
-687.3254280083521 -1.9473621824797238 73.30012719318945 255 255 255 
-688.9282223694826 -1.9288606574662124 73.76135625844269 255 255 255 
-693.5031376079532 -2.6701516242322985 68.75491803812488 255 255 255 
-688.6607610221812 -2.030277807902548 73.97046801433606 255 255 255 
-686.4681290113451 -4.684220607788003 74.18140747719276 255 255 255 
-686.6739290967284 -4.251845254389839 73.8580871322956 255 255 255 
-687.7626589294205 -2.0510052541278356 74.56033643135338 255 255 255 
-687.2782356147619 -4.6446193923474794 75.50030970440193 255 255 255 
-687.9141551536246 -5.546579244881562 75.77844775971057 255 255 255 
-687.1114227716507 -4.721169769708826 75.31203004407917 255 255 255 
-687.8449355907009 -5.451653258679516 75.74930221541095 255 255 255 
-682.4249765008838 -7.657689802722769 73.731411787094 255 255 255 
-685.4658874954681 -3.6602704102060915 74.91871846416308 255 255 255 
-678.8193507254836 -3.880855145492988 70.71113878076103 255 255 255 
-687.7940742561678 -5.471290497275891 75.68096867427948 255 255 255 
-690.3764358521298 -1.9782944896714545 73.59464913209408 255 255 255 
-688.1375131897976 -2.040500821645281 74.12509127860184 255 255 255 
-685.3453597580079 -3.6800380783535864 74.81490963711732 255 255 255 
-687.5770275718314 -2.287754329177044 75.56456403741197 255 255 255 
-687.6856285936866 -5.418680116842945 76.31672434251274 255 255 255 
-687.0564204958755 -4.6148075828725865 75.91417467437844 255 255 255 
-687.9633852605203 -5.424889264961616 75.70899988719135 255 255 255 
-686.4691967798176 -4.305692988598689 73.59667803261999 255 255 255 
-687.1347784661701 -4.689131616064531 73.08709279775628 255 255 255 
-685.6090670292803 -2.7217086918680815 71.63165005915694 255 255 255 
-689.7841763555649 -2.0467920664843406 64.53584384206583 255 255 255 
-692.3242690963034 -1.8393625616477944 71.75024247053466 255 255 255 
-687.353688061632 -5.372129786352325 75.11121512847659 255 255 255 
-687.0117706238896 -4.819667719823295 75.63628480339042 255 255 255 
-687.3407345606965 -4.512033792563891 76.24460166140595 255 255 255 
-687.8610028882273 -5.360106660041543 75.42866864896591 255 255 255 
-686.996666577271 -5.706787500324438 74.31905248280238 255 255 255 
-681.9754050006075 -8.67168524734176 68.1533450817391 255 255 255 
-688.0869727734361 -1.8838849217890017 73.93364428395776 255 255 255 
-690.4628298614266 -2.0189603933247002 72.71407863590169 255 255 255 
-689.4411564169707 -1.954763246905891 70.56095900924643 255 255 255 
-686.5505081250197 -4.272132932113548 73.72029404067015 255 255 255 
-686.997231139533 -4.504827279028412 73.8519285954534 255 255 255 
-687.419820537109 -2.248438330787466 75.38287294640381 255 255 255 
-687.5992835765684 -2.2807720039346644 75.55613623674495 255 255 255 
-686.7824744281861 -3.9100350386244287 75.6330798538591 255 255 255 
-686.5259789996716 -2.0035779004055425 76.57765044862529 255 255 255 
-685.8772112339834 -5.49860372523865 72.28389582841223 255 255 255 
-690.8608575900379 -2.1319190186956654 70.09737706499894 255 255 255 
-687.0032944872614 -4.3373342799364725 75.55656403172169 255 255 255 
-687.8782532151432 -2.0389410458426034 76.58648941443987 255 255 255 
-687.9653805508703 -5.222213782764197 75.97144510767595 255 255 255 
-684.8668601977206 -5.8683030862765975 72.95576927351897 255 255 255 
-686.7125682398313 -2.175158234734313 73.24306180879037 255 255 255 
-690.2468639924144 -2.2012103683211333 67.7135535810236 255 255 255 
-686.6461470250879 -2.6497711293044386 70.30870000800392 255 255 255 
-687.3246831628915 -4.592653415564311 73.57195112688102 255 255 255 
-682.7871111909043 -6.2885085765173 72.329483169595 255 255 255 
-686.2822023377134 -2.1012167693234143 75.82519480162193 255 255 255 
-687.6521114911843 -4.683543839508964 75.40398289076926 255 255 255 
-690.0264970295618 -1.9244575252625298 70.95955945520105 255 255 255 
-689.3153763130929 -2.011077699018222 73.69934898279112 255 255 255 
-686.8292769321938 -4.4677968655666715 73.9657610396785 255 255 255 
-686.6339540373775 -4.577216033458996 73.85908992246206 255 255 255 
-686.9146121557795 -4.752909802421037 73.62273927053737 255 255 255 
-689.8502173609255 -2.0094356758828256 71.90886529576423 255 255 255 
-685.902313662717 -5.196913971483516 71.85982837602776 255 255 255 
-687.2379020323959 -4.6683371675205105 73.14317505711756 255 255 255 
-687.211867485603 -4.874537623734632 73.5147952576043 255 255 255 
-691.7361041373939 -2.058137728279019 71.35618462101714 255 255 255 
-689.3440335080454 -1.8470333519072004 69.04679495571204 255 255 255 
-686.7099404641293 -4.536529380789666 73.94063269836587 255 255 255 
-686.3924984560891 -4.653905089645784 73.62937811380179 255 255 255 
-687.2475941161688 -4.676558954229806 75.25951510998422 255 255 255 
-687.0395551296187 -2.3316172246561284 70.96372002004765 255 255 255 
-690.174215979987 -2.0525706567144044 72.29061984136852 255 255 255 
-686.8729977654372 -4.762607332957601 73.59457557676637 255 255 255 
-686.9155343784771 -4.73305498500047 73.63970958663936 255 255 255 
-684.5480232131857 -5.433491632244989 72.53614397579832 255 255 255 
-688.637031181332 -4.07981870338303 74.9972312674347 255 255 255 
-685.3149464611964 -2.657414775495077 71.71721453471785 255 255 255 
-686.5578237415679 -2.691035399079152 71.43154448699674 255 255 255 
-686.4193278672698 -2.764097079045449 71.46019109713674 255 255 255 
-687.1346228021339 -2.250936133390199 71.15031070821793 255 255 255 
-686.8177376113633 -2.637542993875518 70.53968727399035 255 255 255 
-689.3293308449591 -2.1948849556317827 67.3881756093873 255 255 255 
-690.0518287475834 -2.306145430500879 69.1423562654583 255 255 255 
-688.8184283144402 -2.2386626283103848 67.51795905057564 255 255 255 
-686.2499336920683 -2.2223009291306166 71.88591253749583 255 255 255 
-686.5762452639267 -5.128982357196092 72.5301516591554 255 255 255 
-686.7916885617644 -2.6612547002056157 71.25799620085641 255 255 255 
-686.9578327397418 -4.750864571229142 73.5148765154168 255 255 255 
-685.5120890816172 -4.89531617231332 71.40487109353148 255 255 255 
-684.4858302992994 -5.133490167348844 72.1981005589791 255 255 255 
-686.7943804274637 -2.204836955436847 71.27875193152656 255 255 255 
-686.9721207747649 -2.5713320017510903 71.1856823746674 255 255 255 
-686.8699393923868 -2.5283799078152907 70.80396757122732 255 255 255 
-687.0360428607996 -2.2478323717704485 71.02137729097896 255 255 255 
-687.0869204997108 -2.248091144050984 71.07148403527454 255 255 255 
-685.7973408869285 -2.93375285243975 72.33528734655349 255 255 255 
-687.2164473973797 -2.1309151999304445 71.70144920638859 255 255 255 
-686.5797366508249 -2.1551650280187027 71.35288259918391 255 255 255 
-687.0344253960701 -2.2347986776452915 71.35620030487645 255 255 255 
-687.0089180591954 -2.5665856097431523 71.2202115775433 255 255 255 
-686.7434406494515 -2.658431975596927 71.23328976290752 255 255 255 
-686.3201050818776 -2.478432026060775 70.14258169550321 255 255 255 
-686.8306867571664 -2.6337394256922857 71.28595487787534 255 255 255 
-686.2073183702347 -2.9661662473850976 70.68919236149614 255 255 255 
-690.9359594957825 -2.547962851125598 65.99283019265114 255 255 255 
-682.8118213999809 -3.1824960842709484 67.88180855452129 255 255 255 
-686.7793608010484 -2.522168303345418 70.40650720235585 255 255 255 
-686.8355464110986 -2.6362363445764805 70.55604744118389 255 255 255 
-687.0354945496908 -2.5670966262525265 71.24698604890213 255 255 255 
-686.8766693888532 -2.5153066377157414 70.50271987585542 255 255 255 
-681.2530302247908 -5.8783174038293815 64.00267387166936 255 255 255 
-684.796359753659 -2.971351447320483 64.08672078675974 255 255 255 
-688.0297359238341 -2.508416952737327 65.48570121772593 255 255 255 
-680.7099355472823 -7.42730005779757 63.42685137639728 255 255 255 
-677.6728745214192 -9.032494968337598 63.091577965539635 255 255 255 
-683.0798881277026 -6.348027327401273 62.9514637139515 255 255 255 
-684.3388145249462 -3.1246727923586937 63.616825798067225 255 255 255 
-669.717059437511 -7.371746370732587 40.65337785675674 255 255 255 
-669.9765784843084 -7.4281675172850745 40.519593108158425 255 255 255 
-669.6438809542137 -7.075481516534267 41.58641942893519 255 255 255 
-668.3662553037525 -7.47596690782506 40.85580202201314 255 255 255 
-668.4247860967148 -7.961683881004805 40.9430761441317 255 255 255 
-667.0296191088656 -3.6972893631746286 43.844346890566 255 255 255 
-684.848015905343 -2.330803109766582 66.72630825319047 255 255 255 
-680.7832918211957 -8.819244480316687 64.76610311166148 255 255 255 
-683.5786403942205 -7.0148429014673805 63.685292761259525 255 255 255 
-683.2316532881769 -7.015728122295957 63.18084345483519 255 255 255 
-684.0381153090658 -2.8204285220278704 64.20119435842147 255 255 255 
-687.8726559355324 -2.602987093954778 62.14584919856762 255 255 255 
-682.72630157559 -4.924380144362498 65.14577668334147 255 255 255 
-682.7564288939608 -7.2218436115961 64.56747681000745 255 255 255 
-681.809216432677 -2.5358576248503315 66.02678002029829 255 255 255 
-688.8947535497123 -2.8406581547732506 61.71613700099257 255 255 255 
-683.2338631883952 -3.373518340609504 63.650738565400545 255 255 255 
-683.5808687570402 -6.099971007432239 64.36512803654628 255 255 255 
-681.9318799762889 -3.522016218033074 55.19621612568338 255 255 255 
-679.4522877237914 -7.691597764831171 57.68024085251103 255 255 255 
-681.6962133513022 -3.1735155879350065 55.47049211224064 255 255 255 
-676.5405642269874 -8.251987033957892 52.83082168992031 255 255 255 
-682.1615711098673 -3.557530697587077 55.566034072824635 255 255 255 
-681.5111662383649 -3.880004430665058 56.97292692847013 255 255 255 
-681.5063838738988 -3.8840414306614433 56.2936057159139 255 255 255 
-682.1538161559195 -3.6762287840443326 58.05439932288426 255 255 255 
-683.6551367015534 -3.2186281974476305 63.64394534665253 255 255 255 
-684.9152822456774 -2.9766600041415456 63.779845176537684 255 255 255 
-684.7577654447286 -2.9673226316751533 63.54055705769761 255 255 255 
-680.9462620266107 -3.0981145722318972 53.06003933512587 255 255 255 
-687.0987559101612 -3.249110066873749 53.63162297206328 255 255 255 
-679.0256672770678 -2.6360509949965527 32.11754028832594 255 255 255 
-679.4193883239964 -7.312739370322995 58.422269015842275 255 255 255 
-680.1740401168381 -3.1627730335099473 57.151556615979125 255 255 255 
-674.5143789732657 -10.04176182952271 53.73999725849018 255 255 255 
-684.65685765758 -3.034457116810078 63.603112820316056 255 255 255 
-683.7970780130282 -3.304966045377126 64.16349788258893 255 255 255 
-682.9653752839228 -3.000821904681219 57.87246367785902 255 255 255 
-681.5232360552064 -3.198362969990529 56.56052526850199 255 255 255 
-684.298354924561 -3.1819166483929084 63.78619505831939 255 255 255 
-679.9932649586467 -3.1091473994427217 55.8427161153726 255 255 255 
-681.2317549786212 -3.812650771157779 56.214470369037784 255 255 255 
-681.8879765190406 -3.4216528808053726 56.572561234422345 255 255 255 
-677.213857479021 -6.7824224821969645 57.18371182221446 255 255 255 
-683.9752008350085 -5.9678884361301945 62.419146864709106 255 255 255 
-678.4735168210702 -2.5562210709383058 29.92027320063623 255 255 255 
-684.5918080454601 -3.0452459603666915 63.53295227598256 255 255 255 
-685.0078344406069 -3.0966651611791294 64.01537979096828 255 255 255 
-683.2369435073779 -3.0260896875552907 62.009531645594805 255 255 255 
-684.6779552997781 -2.966077138014443 63.44504044744599 255 255 255 
-684.4926869750484 -3.2275409028879025 63.05880124024191 255 255 255 
-683.9581140636446 -3.2990544145604797 64.1569989904734 255 255 255 
-681.8476936070958 -3.700903153153096 56.28799613688719 255 255 255 
-680.6825883625655 -3.696499315658426 54.357359708302816 255 255 255 
-679.2127325891905 -7.897045336356839 56.84715498866704 255 255 255 
-686.2404779228078 -3.677242026691581 47.52511905742114 255 255 255 
-681.2947480637755 -3.7970781892282917 56.495655016181516 255 255 255 
-616.6791199296752 -7.618201425988919 60.957142029686935 255 255 255 
-613.2728313375685 -8.051630210165616 62.41874887303341 255 255 255 
-618.8213850463139 -3.0417110298265007 55.27585954019669 255 255 255 
-617.9039788870056 -2.698446229138445 56.501765811098764 255 255 255 
-622.9006509142824 -6.599486946748185 58.62801707371191 255 255 255 
-618.0925939725521 -4.655885667707282 56.929358440572564 255 255 255 
-617.0680231719474 -4.836748726912668 57.89173447812128 255 255 255 
-617.9796882040387 -4.68144860778892 57.020756941635256 255 255 255 
-622.1891312705134 -6.577840203530247 59.137264649821255 255 255 255 
-620.7856479583766 -8.77315830689722 65.56480426551386 255 255 255 
-618.849068361403 -6.469760602136764 57.42528806424505 255 255 255 
-622.0371096950373 -6.702376609467609 59.51418933047481 255 255 255 
-618.3667558236095 -4.67419756573219 55.513604336137014 255 255 255 
-622.4432160503491 -6.123377001676635 57.77629815635005 255 255 255 
-621.683824862011 -6.693809251402808 60.00933388081049 255 255 255 
-617.8967544855202 -4.747170109008139 55.897731844104214 255 255 255 
-616.5041491550584 -4.900640491520728 55.13988276121627 255 255 255 
-616.2431656861587 -4.929177309484298 55.27825288026935 255 255 255 
-615.8710914674688 -4.9969421740928714 55.512279051687365 255 255 255 
-618.6520580975499 -6.52855692324998 56.75493415296553 255 255 255 
-618.5128902843761 -6.614654924317354 56.89262878307997 255 255 255 
-615.2366231749616 -8.340263976967174 60.51810900433598 255 255 255 
-619.4300668649396 -5.672766596492093 55.61907827762812 255 255 255 
-619.5064872911537 -5.639006222774625 55.53160756789979 255 255 255 
-610.9674014102625 -7.89877405285551 58.72774327938333 255 255 255 
-618.5217139029498 -6.062751592409653 56.614009992044956 255 255 255 
-619.9533682406304 -5.474197276748412 55.05569421330073 255 255 255 
-616.3988714640134 -6.968281328728975 58.982147910127466 255 255 255 
-617.1857775989407 -5.907544811742722 54.54214859795888 255 255 255 
-622.5921571148072 -6.238693942556803 56.461131267565094 255 255 255 
-615.8176017983424 -6.876437894426038 55.54244558762459 255 255 255 
-610.9175800402861 -8.757941326441255 58.50939180384418 255 255 255 
-619.4382380765749 -6.200558739887557 56.058808752834196 255 255 255 
-659.5818808820143 -3.5984102624858414 44.42273971927611 255 255 255 
-659.2215422374284 -3.8784574924540225 43.024056711044636 255 255 255 
-659.1407725879196 -3.9311912637837034 43.80323160441251 255 255 255 
-656.8145255852992 -3.7144911541261445 49.50071335759567 255 255 255 
-659.3480670232603 -4.043943616594203 44.026234087051535 255 255 255 
-657.6822056751989 -3.4851341586972415 46.77837016304179 255 255 255 
-657.266324171951 -3.219285549137809 51.66212675195734 255 255 255 
-656.7422453849073 -5.817807911136077 50.7344414563362 255 255 255 
-656.2132906490747 -5.944716968420594 51.037846053759154 255 255 255 
-656.12633562574 -3.443704973563764 53.0483204189469 255 255 255 
-655.7146531214008 -6.706273624890538 51.327912271955114 255 255 255 
-658.2863145064407 -6.133962971166491 43.887618179477585 255 255 255 
-658.2294443037449 -3.2434218712387493 48.95002937455028 255 255 255 
-657.238095389371 -3.2942001430906513 52.84078543453648 255 255 255 
-656.657593037603 -3.334713312665426 48.79701471128592 255 255 255 
-656.2848749287768 -3.427135877069378 53.240240789772265 255 255 255 
-655.6078756431588 -3.3835310658924405 53.727954170887216 255 255 255 
-656.0177980398321 -3.4558520612811074 46.79082932745909 255 255 255 
-656.8067961269151 -5.486931966640612 49.34728571125211 255 255 255 
-650.0156565183552 -2.483781948040492 57.47895355827185 255 255 255 
-656.3899187540144 -3.374562750292884 50.22792827868158 255 255 255 
-656.3758204031283 -5.035952646925062 49.51246546538509 255 255 255 
-660.4719064580931 -3.440971146238552 49.15053042372256 255 255 255 
-683.7096882511757 -3.5731057689899535 49.397400439677575 255 255 255 
-683.9597462772218 -3.5603187440943067 49.20584036555796 255 255 255 
-681.9982499809537 -3.3007687018598704 56.65732010603668 255 255 255 
-685.287538488214 -3.6264226430180067 48.81007081650856 255 255 255 
-681.2528849579473 -3.5403682200115574 50.964165651605605 255 255 255 
-680.3122497987164 -3.4791907049910087 50.56371403627556 255 255 255 
-676.7397206590443 -3.2861818546588193 48.066215325558005 255 255 255 
-684.8290642178504 -3.6002203530479475 48.85830132082457 255 255 255 
-672.4188814710591 -3.3032548636308574 42.46701830387997 255 255 255 
-685.3257867330749 -4.148801636390482 41.48014994543082 255 255 255 
-685.6410529732465 -3.312889264435852 26.94222909839297 255 255 255 
-685.3769542415778 -6.123604510616233 41.73157805181176 255 255 255 
-683.5296348388391 -3.7775910320160975 46.16121696910029 255 255 255 
-680.0134511309702 -7.431145249758037 43.19459414752011 255 255 255 
-681.4099199947478 -8.016317466345768 42.77911968551419 255 255 255 
-680.683744783542 -6.976122187795808 42.36857243035053 255 255 255 
-682.047239549966 -8.18928849420039 42.36036243963966 255 255 255 
-678.1844476601262 -3.696890690119136 46.66447021852319 255 255 255 
-675.1363974011869 -3.5999556532801096 45.37315806153056 255 255 255 
-682.0516176378762 -8.06315220395506 42.637410944753526 255 255 255 
-679.880318371455 -6.016902668548237 42.335210621887406 255 255 255 
-681.8070252891789 -8.343721194772023 42.75520632529348 255 255 255 
-681.310457022842 -8.259582731886479 43.024367975444235 255 255 255 
-680.8048982788333 -7.499355351488387 42.49644851865951 255 255 255 
-684.8854381935402 -6.957600178603221 41.89351872132637 255 255 255 
-681.1266091689789 -7.0853883891759635 43.01213194184655 255 255 255 
-685.3010064834617 -5.123248324572684 41.81616421995602 255 255 255 
-683.4374833623394 -3.593464820592196 46.890701465795516 255 255 255 
-680.4880306957209 -3.798072593102181 41.76659549308611 255 255 255 
-684.855843363655 -6.924682288097549 42.27089261606668 255 255 255 
-684.7697664672343 -6.75686814127156 42.755380902231074 255 255 255 
-681.2841480033458 -8.295229302473892 42.63951129760637 255 255 255 
-684.8918942622633 -7.10429078046466 42.233939499244016 255 255 255 
-684.9387236186687 -7.153884398462905 41.849663923169054 255 255 255 
-684.8568748174725 -6.946027437336424 42.1314270812589 255 255 255 
-680.4223595235469 -7.278090028879113 42.802744527609 255 255 255 
-686.751748825554 -7.487464430308828 43.194078826393664 255 255 255 
-685.2253045082829 -4.154512945121149 42.4163924228289 255 255 255 
-685.2536464215165 -5.091466439984789 42.37396127307466 255 255 255 
-680.5755769842982 -3.6952678967589634 50.801124333774034 255 255 255 
-679.5513379225868 -3.458218895830285 50.66796468466192 255 255 255 
-678.9727541721262 -3.4534502310290023 50.93320237863599 255 255 255 
-679.2946533423775 -6.013690474686099 41.8346158077807 255 255 255 
-684.2772013960174 -3.6617415623129705 47.56281799801893 255 255 255 
-681.4947488253179 -7.966285882360579 43.77356107049283 255 255 255 
-674.9051702706575 -3.529613807093191 43.425176556863654 255 255 255 
-682.0104378794917 -3.561029200952915 51.07528997663977 255 255 255 
-678.8254004687751 -3.4164498015396303 49.521191027847905 255 255 255 
-684.1093404671362 -3.900913767924859 42.40363265325695 255 255 255 
-685.2231298003197 -4.1869879065762 42.18388515727289 255 255 255 
-680.5948377116778 -7.2318859926585715 42.994845937202065 255 255 255 
-676.1005057737615 -3.6617357831119053 46.33011530655689 255 255 255 
-677.0793574591881 -3.6867923818498385 46.34732680497223 255 255 255 
-675.4156381875786 -3.649393587047694 45.60802395225704 255 255 255 
-684.1328293972279 -3.8698688428260555 42.45555096163917 255 255 255 
-677.1366136294441 -3.6883618833667002 46.420958057446924 255 255 255 
-684.623963372108 -5.624032660253547 42.43127752673198 255 255 255 
-684.6649566860933 -5.646250337878402 42.197237825350065 255 255 255 
-680.756229155351 -3.623328459424962 46.999356889588796 255 255 255 
-671.5835660887107 -3.222986881660389 39.45943924359323 255 255 255 
-679.136345077404 -3.478073112407281 51.08282696596847 255 255 255 
-682.0972394052922 -3.587175994163305 47.79863553200568 255 255 255 
-686.1478428927093 -3.7952455904909392 44.20545850395231 255 255 255 
-685.2840886917195 -6.0423204657898 42.19288950445511 255 255 255 
-684.8170821925389 -6.4058857720322955 41.481941395884625 255 255 255 
-676.3079303022259 -3.661626926916812 46.129603156903286 255 255 255 
-682.2138571472484 -7.889480369874652 43.601904998185965 255 255 255 
-685.3634888421899 -6.113885610180167 41.68413023670626 255 255 255 
-676.88800980495 -3.661256417979512 46.1913941109562 255 255 255 
-676.9141856765533 -3.517975882350795 48.83170066593216 255 255 255 
-681.7937278631341 -8.482202242474852 42.4225818213229 255 255 255 
-685.2696349808086 -7.028976851589706 42.30347565183015 255 255 255 
-684.9005694557752 -6.471446001399181 43.85269180898804 255 255 255 
-684.7509801595749 -5.701510192743593 41.67628843892552 255 255 255 
-685.2999698516161 -7.095471218045432 42.06370638751173 255 255 255 
-680.7254328427427 -4.064593117512932 41.847124950909404 255 255 255 
-680.3866800160554 -6.922669157416004 42.58501103399101 255 255 255 
-685.3654287709145 -7.954920545937895 39.074054421222584 255 255 255 
-680.3793855673508 -6.720799535392532 42.315355785127274 255 255 255 
-685.0084129645902 -7.359801797781144 41.27506859264274 255 255 255 
-684.5165595978027 -6.821286833727673 41.48946311237196 255 255 255 
-684.5143599215947 -6.839252096306127 41.429407375135455 255 255 255 
-682.1610091448771 -8.666718777283247 41.91943554012087 255 255 255 
-679.8827841307377 -3.6712890803147493 47.09683242894251 255 255 255 
-677.9137188867685 -3.6601834734697922 46.39349713711699 255 255 255 
-685.0738963552525 -7.249446766498567 41.042897303949914 255 255 255 
-679.6887267642564 -6.268828178604306 42.199328288042906 255 255 255 
-684.3425142507485 -5.7303811766218455 41.93979246517944 255 255 255 
-681.2542412440372 -8.360426770987829 42.511767686242884 255 255 255 
-681.630528513951 -8.17240777779764 42.66796079689161 255 255 255 
-678.7372571894463 -3.655609150392843 46.43836631636227 255 255 255 
-684.4884953101279 -6.3474290852307025 41.26080855571716 255 255 255 
-677.0838416354551 -3.6491418570159544 46.08245796468559 255 255 255 
-682.6076429717906 -7.661520356855799 41.34760634068587 255 255 255 
-679.9652854437586 -7.291878832742135 42.261924071311675 255 255 255 
-679.8736942535915 -6.471347419887148 42.32095958802894 255 255 255 
-679.7905595350245 -6.544961230220201 42.009919741346266 255 255 255 
-681.1314474478609 -6.464801506933797 42.08123454222018 255 255 255 
-684.3602918697273 -6.366061042032626 40.96930943601458 255 255 255 
-679.3081342022749 -3.6868469449934533 46.92999785324839 255 255 255 
-680.3597397069706 -6.755835693265479 42.18891491324782 255 255 255 
-682.1880890826785 -9.207106288423724 40.93963026644403 255 255 255 
-679.7496744767428 -8.083122815262046 29.86574255773769 255 255 255 
-679.3215965383044 -6.011087017958256 41.93831724429598 255 255 255 
-680.7453258681721 -7.203581755961461 42.54284991496576 255 255 255 
-678.8927210277662 -3.669161394274358 46.72678475721594 255 255 255 
-681.4520342769658 -3.979523848009274 42.679850777729506 255 255 255 
-679.18578364067 -3.662534670205596 46.730120816118436 255 255 255 
-678.4395865338223 -3.7208075248429164 47.01859237199535 255 255 255 
-678.9255910078725 -3.779017556637104 42.856871022507036 255 255 255 
-680.7380553845835 -7.186218949213259 42.47320669455974 255 255 255 
-682.040769896649 -8.063273108193354 42.60950717409035 255 255 255 
-679.7580246113738 -6.149582945527489 42.60144317383433 255 255 255 
-679.6388263698557 -3.931930139231228 43.788836733303796 255 255 255 
-676.019239452752 -3.6228456534496916 45.8778455450528 255 255 255 
-669.5535300904816 -6.4137084547765495 41.28612782098586 255 255 255 
-684.1432583871305 -6.2704940410214105 40.68743930476722 255 255 255 
-679.9231177115458 -3.6908247862109835 47.26592063852368 255 255 255 
-678.8951551304752 -3.8355161595763 41.91911808769713 255 255 255 
-679.1637196831097 -6.105679032743492 41.48809991999874 255 255 255 
-684.3385712639719 -6.888042949182798 40.434464195522466 255 255 255 
-684.1134804080899 -7.240074754652695 40.33678851754859 255 255 255 
-680.9906571493939 -7.451943273297443 42.55051981189855 255 255 255 
-682.3681746011595 -8.818285570399587 38.80006611132197 255 255 255 
-679.4474109515465 -7.779246937778624 41.78048774441924 255 255 255 
-679.6832370040905 -6.280984774263045 42.164419650103525 255 255 255 
-681.1200791154794 -6.477268590151435 41.9764950439657 255 255 255 
-675.6890196417372 -3.6143814212509 46.06353475290143 255 255 255 
-679.811702432184 -3.9182002845328308 43.70900519499428 255 255 255 
-682.1590852494903 -9.582395103715527 40.10689534808134 255 255 255 
-680.9846730748749 -7.7066124091047215 43.46424846949856 255 255 255 
-680.010341765251 -7.213303820609103 42.43025466634895 255 255 255 
-680.0121311617474 -7.260437156624765 42.35398493672086 255 255 255 
-679.889596276021 -7.034615438774547 42.09723567388944 255 255 255 
-680.3250859989133 -6.74125121221766 43.49347952287898 255 255 255 
-680.5256123382561 -7.830394631700499 42.26343737056356 255 255 255 
-674.6424749439744 -3.7990066794852213 44.03071990033482 255 255 255 
-675.3204436986184 -3.8120030140040404 43.59150713773412 255 255 255 
-683.221051099158 -5.578882436974243 44.940594824416166 255 255 255 
-682.5522207643844 -7.954878747699001 41.314377115057184 255 255 255 
-678.4842001449873 -6.551538879753153 42.205466074889486 255 255 255 
-683.3135363699718 -6.427321758533586 39.84716194145591 255 255 255 
-678.8972433665155 -3.6221400730976887 30.667341754162692 255 255 255 
-673.7989145431301 -3.6771859447363253 42.021895917239235 255 255 255 
-677.4113774766363 -3.8621265405185383 43.53149992039123 255 255 255 
-681.4375145172512 -7.834275343792027 43.17952767263775 255 255 255 
-681.1605838363024 -6.413603754792691 42.293019060331055 255 255 255 
-676.0502695799639 -3.8390903349541423 43.61210088786442 255 255 255 
-682.030671819587 -8.402844671578642 41.93039205345141 255 255 255 
-675.2732240621318 -3.811322958177157 43.54354213362727 255 255 255 
-681.0735453440248 -7.224428511288453 42.53364180359031 255 255 255 
-680.3553062977019 -6.956834637968379 42.45572981918046 255 255 255 
-680.8450605319401 -7.170605758551013 42.521391869460736 255 255 255 
-675.7305171146861 -3.8140434500365403 43.25140615154767 255 255 255 
-680.0063586945171 -3.8306849390989415 42.88646343710756 255 255 255 
-684.918421369666 -6.495243685001489 40.89993126145844 255 255 255 
-679.5703621046113 -6.585241409148746 41.80187784949468 255 255 255 
-679.5470285964142 -6.616057090566971 41.715861056407434 255 255 255 
-680.9870306584183 -7.555093872746392 42.28390713338905 255 255 255 
-679.7970281140307 -6.11523791437026 41.877809383876965 255 255 255 
-679.5478960674651 -7.4998618909650965 41.86446936098166 255 255 255 
-678.3594018565111 -10.08889773683731 38.503559294363 255 255 255 
-680.3629440905144 -6.765119495715522 42.158910659642615 255 255 255 
-681.8498437252248 -8.321032725419357 42.78933966482843 255 255 255 
-680.9296638379606 -8.213729944234764 42.746710488315294 255 255 255 
-684.9555906504229 -6.510145924388445 40.81457293530229 255 255 255 
-680.9896091579017 -7.433150683310485 42.71578625134075 255 255 255 
-681.8682806930282 -8.099246664788819 41.9731139132173 255 255 255 
-680.7397618893143 -8.874378912350387 42.172678152047 255 255 255 
-681.4256429621305 -7.983688187279694 42.81403010506973 255 255 255 
-681.620761889994 -7.96499033798942 43.06946517025094 255 255 255 
-680.5301831334812 -7.587816399872128 42.00959306865995 255 255 255 
-678.404208427559 -6.658444149520012 41.95736082774371 255 255 255 
-679.5497752241232 -6.618125769543838 41.68078663824823 255 255 255 
-677.4192604664679 -7.075646493244775 40.30827894784969 255 255 255 
-681.7438687007433 -7.8719782551009745 42.81742941237111 255 255 255 
-681.1295711097812 -6.447807873489566 42.03929837857123 255 255 255 
-680.7825334310107 -7.645456178190097 42.12838122736619 255 255 255 
-681.120380177912 -6.4880836820807986 41.912331469124766 255 255 255 
-680.4227627295038 -7.178266945219475 42.09745616036609 255 255 255 
-679.3095291000542 -6.049502446308443 41.8722077022038 255 255 255 
-679.53050449765 -6.459795213159451 41.99050342392299 255 255 255 
-680.9530726472758 -8.759182510363406 40.94412437424908 255 255 255 
-679.2705783160579 -6.347887703986196 42.05836205700385 255 255 255 
-675.2881293185421 -3.81778782697796 43.56042525863696 255 255 255 
-681.1148834413289 -6.515733597959277 41.86763205675245 255 255 255 
-681.6943001888825 -8.485500148201666 41.81257856693522 255 255 255 
-674.1057249555339 -3.7171632500964646 43.51910197898674 255 255 255 
-679.5983683468208 -6.6117410894610895 42.34527508475147 255 255 255 
-678.8637674579924 -7.493613595141458 40.05547371718241 255 255 255 
-674.1324801129861 -3.7309062024717674 43.54541084976112 255 255 255 
-672.8284361003598 -3.8060563246221557 43.5974851421672 255 255 255 
-679.4581434388483 -6.359124506009154 42.072889064212184 255 255 255 
-680.337977056589 -6.985280229441971 42.35115216203597 255 255 255 
-679.2513778278316 -6.767302408467729 41.42718168734291 255 255 255 
-678.2305340328744 -6.019556010708463 41.66607444297985 255 255 255 
-678.0778795404747 -6.039075233658338 41.390725121870915 255 255 255 
-677.9196606700124 -7.21377494879078 41.753033488837715 255 255 255 
-678.1657133013944 -6.638676349511037 42.083916273490026 255 255 255 
-677.5910611955409 -6.881345045990592 41.43239290318492 255 255 255 
-677.8357194728536 -6.639208989343625 42.08296865853955 255 255 255 
-678.4551560340925 -6.597719481870761 42.10733059476077 255 255 255 
-679.1692520772918 -7.421198313533234 41.87640757521177 255 255 255 
-678.0895960461154 -6.854316412160652 41.88546598538921 255 255 255 
-680.4898436372471 -7.984030534926483 41.92792335271405 255 255 255 
-679.4861645539362 -8.847605036929377 40.132221468200264 255 255 255 
-679.5014771766787 -8.785304744686737 40.231917098800295 255 255 255 
-680.1543434852776 -6.765412051291837 42.04782077693483 255 255 255 
-680.024248330791 -7.132217560609758 41.985853873880785 255 255 255 
-679.360474046668 -6.336309010812279 41.810013021506435 255 255 255 
-679.9405564502404 -7.020396365797208 42.17838713159743 255 255 255 
-679.7440422216006 -6.177635437014035 41.59655223844662 255 255 255 
-679.2361164631872 -6.384343537995045 41.92375162016996 255 255 255 
-678.9549814161276 -7.65227111603245 40.96945102304846 255 255 255 
-678.7645751713696 -3.973631376017779 41.60016530122567 255 255 255 
-678.048577810167 -3.878552281766548 43.39827153487286 255 255 255 
-679.809747160257 -6.089280026494303 41.96531115369594 255 255 255 
-679.3140974071323 -6.018281393015349 41.8952294911908 255 255 255 
-679.5131172481899 -6.709217080913504 42.01799331066896 255 255 255 
-679.4456789562737 -6.807202244871255 41.71827610526056 255 255 255 
-680.7387758268558 -7.240714810412044 42.321218332960676 255 255 255 
-677.8002607626574 -6.241973197546466 41.451856734630645 255 255 255 
-677.8109222293872 -6.663856797034034 41.615913759091406 255 255 255 
-677.8731036668777 -6.1968145427038746 41.668152655871054 255 255 255 
-677.7849863802203 -6.245820659283299 41.42774089573448 255 255 255 
-677.9485077718222 -6.520432338092183 41.99712174679759 255 255 255 
-677.9673147375505 -5.975769692230997 41.15631350647482 255 255 255 
-677.8308259659873 -6.115008260629745 41.31407670734731 255 255 255 
-677.6634904130957 -6.128394235034448 39.85355858119874 255 255 255 
-677.6648873275122 -6.482658759365386 41.66571545778718 255 255 255 
-677.8753965640899 -6.591758634872594 42.17361444042087 255 255 255 
-678.1128212094494 -6.711230167169423 41.90264527229693 255 255 255 
-677.8032063003536 -6.494824480442706 41.5653422261589 255 255 255 
-677.6213598762201 -6.7786830678233 41.95387608848729 255 255 255 
-678.3534777324007 -7.03567835423722 41.59842470804893 255 255 255 
-678.5844139216449 -6.729305582726755 41.9784559289975 255 255 255 
-677.9161223217985 -7.029815302328568 41.65721629230821 255 255 255 
-678.090635495258 -6.107511753727385 41.20649727118746 255 255 255 
-678.15610334633 -6.063321754657176 41.379863990333156 255 255 255 
-679.5260407346552 -6.39207013333058 42.05135507950849 255 255 255 
-677.9618707279218 -7.0037513370915585 41.792172479034626 255 255 255 
-679.8162059605809 -6.026977461429323 42.0506147109755 255 255 255 
-680.7259983262151 -6.851359020250756 43.03515578781458 255 255 255 
-682.060096317378 -8.453014548055386 41.75248162516353 255 255 255 
-680.4194718885194 -7.370999292038157 42.32615174764583 255 255 255 
-677.972812907194 -6.605934087826636 41.59833989097366 255 255 255 
-679.7285594170976 -6.669999888147039 41.63793516182555 255 255 255 
-680.6656296248632 -7.04152043715439 42.16002114367912 255 255 255 
-679.9362191073202 -7.2209216204559405 41.77187135821634 255 255 255 
-680.3182491617276 -6.842632395337695 41.897069509155806 255 255 255 
-680.1377476820919 -6.787352588649108 41.97498556940022 255 255 255 
-680.0428198835021 -7.197906879249339 42.49251322054658 255 255 255 
-678.3533808890284 -7.988053449528886 38.34705604826246 255 255 255 
-680.5523406126055 -6.766332681659806 43.12183185258484 255 255 255 
-679.3157625623713 -6.297373128483196 42.227318567843945 255 255 255 
-679.6227648327431 -7.292675835563412 42.37966657430677 255 255 255 
-678.7531268170752 -3.9858687378016837 41.57552651879737 255 255 255 
-679.3979207642476 -7.845327601805232 41.1175737488816 255 255 255 
-679.2038989386224 -6.460039547470831 41.73131002519613 255 255 255 
-678.3267202409833 -6.577303736032062 42.006791482381864 255 255 255 
-678.5387151965796 -6.805284218668499 41.8947653739028 255 255 255 
-680.1712569991863 -7.12569400760389 42.327499876205415 255 255 255 
-679.4923416351936 -7.438371642311292 42.284570297598805 255 255 255 
-680.7346332903095 -7.220423257473306 42.379783478347946 255 255 255 
-679.6156921534806 -6.334807558546605 42.371582096064785 255 255 255 
-679.3092174019243 -7.082911222053924 42.30823029167218 255 255 255 
-679.2290875804375 -6.411601228609429 41.8448055578301 255 255 255 
-679.189891029498 -7.346315470990314 41.65445083385845 255 255 255 
-679.6759243074094 -6.703753726590199 42.12375195903419 255 255 255 
-680.2763798616228 -7.3930649109812645 41.37967757371628 255 255 255 
-681.4922701821339 -8.396489312049638 41.57696441072466 255 255 255 
-676.5871008988471 -3.8385686502911067 43.40369499822605 255 255 255 
-677.7871403373125 -6.77290884347743 41.101227039519806 255 255 255 
-678.2001195895461 -6.798310111230723 41.95230601632716 255 255 255 
-677.8422417719277 -6.722353641089596 41.245552255328505 255 255 255 
-679.0497403455846 -6.821883086618082 41.65908583127984 255 255 255 
-679.6562031533867 -6.346452905497516 41.95905941643383 255 255 255 
-678.4276734228771 -6.618453250243152 42.03012445444992 255 255 255 
-679.3937745660359 -6.905952202813948 41.44508496447907 255 255 255 
-679.5037913183943 -6.497968478265797 41.87014606612549 255 255 255 
-669.5631882969471 -3.682015842351354 44.22689050122288 255 255 255 
-673.1252002130982 -3.931362606431045 36.48395266104533 255 255 255 
-674.9632031781658 -7.553471545151297 40.99531491826198 255 255 255 
-672.8517538214908 -8.41521717783495 37.210949091788414 255 255 255 
-670.7925210836906 -3.695093353773072 43.666619606291825 255 255 255 
-669.4699884647121 -3.7145428568464345 43.78343493020307 255 255 255 
-669.0689084447429 -3.863854678923645 44.65229788960856 255 255 255 
-669.6099375935115 -6.931337014926022 40.80798773569805 255 255 255 
-677.9549028365266 -6.736106551367745 41.95848141268299 255 255 255 
-677.866120911086 -7.084465741596631 41.54138191565165 255 255 255 
-677.8539708673571 -6.617793788021569 42.111443103392986 255 255 255 
-677.8982930461074 -6.463488778745401 41.66471775807361 255 255 255 
-677.8905770728469 -6.589522311497206 41.82397084352769 255 255 255 
-677.8026252983773 -6.463961416574335 41.56356335726226 255 255 255 
-677.789878481401 -6.908327198812823 41.90123767727015 255 255 255 
-675.8127280399087 -5.930197669238125 39.68641819368449 255 255 255 
-675.0684912744703 -7.691360657621245 40.19647119714063 255 255 255 
-675.7203955240967 -7.208259602855078 41.24601528795037 255 255 255 
-671.7494516509146 -3.733494413076703 43.60876238781894 255 255 255 
-677.9811751372032 -6.958064237806571 41.86812437526913 255 255 255 
-678.1753357559567 -3.922192401264163 41.62646141164553 255 255 255 
-678.9139136942192 -6.159733068917015 41.292446338093676 255 255 255 
-674.5097883817895 -7.5479193360392385 40.72282737422796 255 255 255 
-674.1227698882043 -7.624301790328533 39.09406806350069 255 255 255 
-674.200908714865 -7.569842437661239 39.22852386443281 255 255 255 
-674.5666598172534 -7.738567681163947 40.511143541222744 255 255 255 
-675.5464976965523 -6.570493880014543 41.143585383895974 255 255 255 
-674.2465155749535 -7.686542907034842 39.90012442082091 255 255 255 
-671.661109634343 -3.6936893388061973 43.495274750228646 255 255 255 
-670.984277672695 -3.655897065443109 43.681253086253164 255 255 255 
-669.9427024690923 -3.6437422020465666 43.82285644477422 255 255 255 
-674.8377121868581 -7.88961770732626 40.46226608475578 255 255 255 
-674.8732945175975 -7.79819585721315 40.440993646872805 255 255 255 
-677.9992193277527 -6.685381075921645 42.07151801372051 255 255 255 
-677.852614806026 -6.691771355141552 41.31025161133014 255 255 255 
-679.4327231054975 -6.252384680872909 42.142669787679154 255 255 255 
-672.5188319309414 -7.6006662322265 32.0739599324427 255 255 255 
-675.8931944109527 -7.88620808472864 41.31411085061844 255 255 255 
-671.8244774819261 -9.234226470476212 29.095394040781855 255 255 255 
-676.3610564551569 -7.229008076635941 41.094119935992936 255 255 255 
-650.7731847485941 -2.797816024557039 51.24374376261147 255 255 255 
-674.2427189689197 -8.749501869562412 38.55838778412922 255 255 255 
-674.4689160618531 -7.508614286977933 39.597389446850364 255 255 255 
-675.8111705384421 -7.009947222238318 42.01637541388313 255 255 255 
-678.029605758703 -6.335456760380472 41.34804981749683 255 255 255 
-677.8940033304052 -6.593217520830836 42.18943398532761 255 255 255 
-677.7362795263666 -6.419940702407344 41.86564546051593 255 255 255 
-677.6227975213302 -6.778079336417565 41.97861807499899 255 255 255 
-676.173686024499 -8.209940452163714 37.460857316865244 255 255 255 
-677.9250070808423 -6.031483304388186 40.69802860164047 255 255 255 
-677.6777834450421 -6.465444049697379 41.73498227210221 255 255 255 
-677.6593405333465 -6.473605326888876 41.65130280632315 255 255 255 
-678.0857577598698 -5.912215936273545 41.196094788301885 255 255 255 
-664.9808879982551 -6.434015112920987 48.93075110773168 255 255 255 
-678.0516074738226 -6.310756040569376 41.44218487076857 255 255 255 
-676.0881121743496 -7.724914518728104 41.04793614739068 255 255 255 
-676.3131462938028 -7.340561721794925 41.22641031381141 255 255 255 
-675.8922035700641 -7.55934979371485 40.26847850039507 255 255 255 
-676.0896647969204 -7.388348657664981 40.667095968534284 255 255 255 
-675.7592843775927 -8.11804178653752 40.954615895122735 255 255 255 
-669.3473335679201 -6.173774449459704 41.4692318650772 255 255 255 
-620.6556052433557 -2.722459096900649 50.318897443328666 255 255 255 
-671.4334826343584 -9.192799680913794 36.88515356488295 255 255 255 
-668.9215043521657 -6.218219671662107 41.3386647359217 255 255 255 
-667.79214439066 -9.162854659605491 39.62105985473677 255 255 255 
-660.3453207775075 -6.920175019382118 39.59303569150233 255 255 255 
-667.1087874241043 -5.977987105609784 42.18684863101661 255 255 255 
-668.7129234378187 -7.4382908261637 40.680464442812536 255 255 255 
-670.236515536728 -6.754978841556366 41.48419974166655 255 255 255 
-674.4798891015355 -7.802393419731038 40.38261590510136 255 255 255 
-673.274109020534 -8.644774857471354 38.71121618272241 255 255 255 
-673.86533718134 -8.024672061203859 39.81285325829501 255 255 255 
-673.814557419779 -8.065936686702091 39.70515747428005 255 255 255 
-674.5641283308017 -7.440401238451265 40.287356693577536 255 255 255 
-674.7386943691188 -7.284508497757663 39.78033040193332 255 255 255 
-674.7329899264528 -8.33005228943084 40.39249674564698 255 255 255 
-674.6077610401392 -8.654667027502436 40.8056805433932 255 255 255 
-674.6379558102257 -7.177100936400405 39.406721129047106 255 255 255 
-665.9929475991065 -3.242104216597977 43.44905252783079 255 255 255 
