-61.153541564941406 -3.4406166076660156 -33.738765716552734 75 205 254
-61.1559944152832 -2.9976706504821777 -34.8351936340332 74 205 254
-61.16069030761719 -3.5533103942871094 -32.68582534790039 74 205 254
-61.1612548828125 -3.575441360473633 -33.70550537109375 75 205 254
-61.162113189697266 -4.523224353790283 -28.488014221191406 75 205 254
-61.16407012939453 -4.491321563720703 -29.826231002807617 74 204 254
-61.16796112060547 -3.9151997566223145 -30.937896728515625 75 205 254
-61.16798782348633 -4.20111608505249 -30.435096740722656 75 205 254
-61.17808151245117 -3.778930902481079 -32.801605224609375 75 205 254
-61.18397903442383 -3.6726038455963135 -33.20526885986328 75 205 254
-61.18415832519531 -4.817603588104248 -29.344758987426758 74 205 254
-61.18829345703125 -4.222651481628418 -29.557735443115234 75 205 254
-61.18839645385742 -4.47586727142334 -29.06635284423828 75 205 254
-61.18958282470703 -2.6967196464538574 -35.90994644165039 75 205 254
-61.19416427612305 -5.032012939453125 -30.408231735229492 74 205 254
-61.195640563964844 -3.459946632385254 -33.18386459350586 75 205 254
-61.19703674316406 -3.569038152694702 -33.52143096923828 75 205 254
-61.19972610473633 -3.274082899093628 -33.76201248168945 75 205 254
-61.19989776611328 -3.130084276199341 -34.80354309082031 74 205 254
-61.20330810546875 -4.336551666259766 -31.488140106201172 75 204 254
-61.20450210571289 -2.7898471355438232 -35.53224182128906 75 205 254
-61.20549011230469 -3.5970089435577393 -32.01927947998047 75 205 254
-61.20573043823242 -4.600736618041992 -28.759761810302734 74 205 254
-61.20825958251953 -3.653851270675659 -33.34592819213867 75 205 254
-61.21076965332031 -4.984879493713379 -30.128074645996094 75 205 254
-61.2190055847168 -4.688436985015869 -31.163511276245117 75 204 254
-61.22013854980469 -3.511605978012085 -33.98261642456055 75 204 254
-61.22234344482422 -4.035867691040039 -31.055747985839844 74 205 254
-61.223026275634766 -4.221867561340332 -30.92009925842285 75 205 254
-61.22373580932617 -4.409083843231201 -31.514148712158203 74 205 254
-61.226097106933594 -4.491272926330566 -29.256851196289062 75 205 254
-61.22834777832031 -2.93168044090271 -34.726566314697266 74 205 254
-61.22870635986328 -3.295116901397705 -34.254676818847656 75 205 254
-61.23213195800781 -4.931336402893066 -28.76748275756836 75 205 254
-61.236698150634766 -3.1440353393554688 -34.26728057861328 75 205 254
-61.243011474609375 -3.099961996078491 -33.70958709716797 74 205 254
-61.24726867675781 -2.8548834323883057 -34.93022537231445 75 205 254
-61.24810028076172 -4.700422286987305 -29.27682113647461 74 204 254
-61.2482795715332 -4.772475719451904 -30.326135635375977 75 205 254
-61.2500114440918 -4.339470386505127 -29.864118576049805 74 205 254
-61.25135040283203 -4.182338714599609 -30.14297866821289 75 205 254
-61.25230407714844 -3.8822786808013916 -32.046905517578125 75 205 254
-61.26905059814453 -4.573688507080078 -30.39005470275879 75 204 254
-61.27119445800781 -4.331689834594727 -31.708967208862305 74 205 254
-61.27705001831055 -4.651827812194824 -30.34662437438965 75 205 254
-61.28220748901367 -4.430812835693359 -30.36846351623535 74 204 254
-61.289981842041016 -4.018975257873535 -32.57497787475586 75 205 254
-61.30010223388672 -5.1157426834106445 -30.0601863861084 75 205 254
-61.30403137207031 -3.2074334621429443 -33.279685974121094 75 204 254
-61.30461502075195 -3.6309802532196045 -33.05369567871094 75 205 254
-61.30567932128906 -3.284799814224243 -33.041969299316406 75 205 254
-61.30735778808594 -4.9690961837768555 -28.795581817626953 75 205 254
-61.316776275634766 -3.7245075702667236 -32.99884033203125 75 205 254
-61.3168830871582 -3.2961299419403076 -34.61532211303711 74 204 254
-61.317115783691406 -4.478199481964111 -31.306093215942383 74 204 254
-61.32147979736328 -4.257225036621094 -31.476478576660156 74 204 254
-61.32528305053711 -3.8964762687683105 -31.187620162963867 75 205 254
-61.3255500793457 -3.2988178730010986 -34.12262725830078 75 205 254
-61.328853607177734 -2.911959171295166 -35.15513610839844 74 205 254
-61.330230712890625 -4.517910003662109 -30.87055015563965 74 204 254
-61.33222579956055 -4.808478832244873 -29.770008087158203 75 204 254
-61.33771514892578 -4.352616310119629 -29.184757232666016 75 205 254
-61.34062194824219 -2.7902843952178955 -35.2724494934082 75 205 254
-61.35450744628906 -3.743910312652588 -32.00983810424805 75 205 254
-61.355350494384766 -4.225901126861572 -30.283159255981445 74 205 254
-61.35600280761719 -3.9518017768859863 -31.411113739013672 75 205 254
-61.35816192626953 -4.066553592681885 -30.9152774810791 75 205 254
-61.358428955078125 -3.9278995990753174 -32.56488800048828 74 204 254
-61.3585205078125 -4.8126606941223145 -31.159069061279297 75 205 254
-61.36452865600586 -4.1115570068359375 -31.46393394470215 74 204 254
-61.36576461791992 -3.6231284141540527 -32.512428283691406 75 205 254
-61.367958068847656 -4.718177795410156 -29.832420349121094 75 205 254
-61.36801528930664 -4.614387035369873 -28.611921310424805 75 205 254
-61.36977767944336 -3.9406540393829346 -31.821989059448242 74 205 254
-61.370361328125 -5.095716953277588 -29.696186065673828 74 204 254
-61.37643051147461 -4.473729133605957 -28.72175407409668 75 204 254
-61.38216781616211 -4.104612350463867 -30.845563888549805 74 205 254
-61.38955307006836 -4.408944606781006 -28.916259765625 75 205 254
-61.389678955078125 -4.909490585327148 -30.842397689819336 75 205 254
-61.39167404174805 -2.8273606300354004 -35.41728973388672 74 205 254
-61.39427185058594 -4.6658549308776855 -29.145763397216797 74 204 254
-61.394535064697266 -4.0730085372924805 -30.253551483154297 75 205 254
-61.408477783203125 -3.3144330978393555 -33.607608795166016 75 205 254
-61.41454315185547 -3.451420783996582 -33.07432174682617 74 205 254
-61.41484832763672 -3.0914103984832764 -34.172149658203125 75 205 254
-61.4181022644043 -3.4841113090515137 -33.628387451171875 75 205 254
-61.41834259033203 -3.8258724212646484 -32.535465240478516 74 205 254
-61.42279815673828 -4.327870845794678 -29.44980239868164 75 205 254
-61.425384521484375 -4.384936332702637 -30.251811981201172 74 204 254
-61.42699432373047 -3.765336275100708 -31.35498046875 75 205 254
-61.43227005004883 -2.7368757724761963 -35.55979919433594 75 205 254
-61.433433532714844 -4.819707870483398 -29.341711044311523 74 205 254
-61.43602752685547 -3.8465728759765625 -32.964500427246094 74 204 254
-61.43647003173828 -5.078282356262207 -30.247535705566406 75 204 254
-61.43926239013672 -4.9686431884765625 -28.66514015197754 75 205 254
-61.442134857177734 -4.2155890464782715 -31.875690460205078 75 204 254
-61.44220733642578 -3.4518518447875977 -32.443748474121094 75 205 254
-61.44554138183594 -4.107860088348389 -29.962060928344727 75 205 254
-61.449073791503906 -4.468063831329346 -28.438186645507812 75 205 254
-61.45048522949219 -4.512086391448975 -29.171228408813477 74 204 254
-61.45441436767578 -3.302819013595581 -34.39085388183594 75 205 254
-61.456302642822266 -4.869789123535156 -30.546052932739258 75 205 254
-61.46148681640625 -4.223433971405029 -30.283935546875 74 205 254
-61.46171951293945 -3.2588353157043457 -34.727813720703125 75 204 254
-61.461734771728516 -4.085738182067871 -31.30813980102539 74 205 254
-61.46381378173828 -4.8364057540893555 -28.655641555786133 75 205 254
-61.46429443359375 -3.109792470932007 -35.05662155151367 75 205 254
-61.46470260620117 -3.1931447982788086 -33.27683639526367 75 205 254
-61.46485900878906 -4.366884231567383 -29.68459701538086 74 205 254
-61.47212219238281 -3.917825698852539 -31.43655776977539 75 205 254
-61.47214126586914 -2.977867603302002 -34.09335708618164 74 205 254
-61.47507095336914 -4.593930244445801 -29.716957092285156 74 204 254
-61.476837158203125 -4.603183269500732 -28.462404251098633 74 205 254
-61.478816986083984 -3.6576435565948486 -33.103214263916016 74 205 254
-61.48025894165039 -3.7714858055114746 -32.371517181396484 74 204 254
-61.48725128173828 -4.818410396575928 -29.216615676879883 75 205 254
-61.49440383911133 -4.660264015197754 -30.731304168701172 75 204 254
-61.49709701538086 -3.0102031230926514 -34.70542907714844 75 205 254
-61.50206756591797 -3.120309591293335 -33.51984405517578 75 205 254
-61.504791259765625 -4.074518203735352 -30.541969299316406 75 205 254
-61.50514602661133 -3.770895004272461 -32.90277862548828 74 204 254
-61.50973892211914 -2.8625330924987793 -34.74752426147461 75 204 254
-61.51471710205078 -4.47362756729126 -30.77439308166504 75 204 254
-61.5293083190918 -4.766355037689209 -29.657909393310547 74 204 254
-61.53193283081055 -4.211708068847656 -29.61939239501953 74 205 254
-61.532310485839844 -2.779318332672119 -35.61344528198242 74 205 254
-61.537296295166016 -4.122839450836182 -31.894865036010742 74 204 254
-61.538787841796875 -4.309149265289307 -30.798730850219727 74 204 254
-61.539405822753906 -4.930026054382324 -29.05088996887207 75 204 254
-61.54008865356445 -2.807044506072998 -35.250953674316406 74 205 254
-61.54414749145508 -4.517251491546631 -28.494380950927734 74 205 254
-61.54566192626953 -4.5409836769104 -30.76415252685547 75 205 254
-61.545753479003906 -4.750704765319824 -28.54392433166504 75 205 254
-61.546234130859375 -3.4628448486328125 -33.495216369628906 74 205 254
-61.55486297607422 -3.7515928745269775 -31.623666763305664 75 205 254
-61.56266784667969 -3.808131694793701 -31.85361099243164 75 205 254
-61.5753288269043 -3.9589924812316895 -31.876943588256836 75 205 254
-61.58116912841797 -3.591430187225342 -32.42777633666992 75 205 254
-61.590782165527344 -3.4125425815582275 -34.37776184082031 75 204 254
-61.591739654541016 -3.7189202308654785 -32.91057205200195 75 205 254
-61.59197998046875 -4.772375583648682 -30.87924575805664 75 204 254
-61.59212112426758 -4.538746356964111 -28.236719131469727 75 205 254
-61.59312438964844 -4.693957328796387 -30.171621322631836 75 204 254
-61.59714889526367 -4.458769798278809 -29.00157356262207 74 205 254
-61.597801208496094 -3.965912342071533 -31.24323081970215 74 205 254
-61.60445022583008 -3.9473137855529785 -30.695119857788086 75 205 254
-61.608768463134766 -3.637319326400757 -33.14104080200195 74 205 254
-61.612430572509766 -4.121493339538574 -30.730125427246094 75 205 254
-61.614540100097656 -3.49623441696167 -32.92374038696289 75 205 254
-61.615760803222656 -4.54066276550293 -29.56865882873535 74 204 254
-61.62151336669922 -5.048724174499512 -29.890148162841797 74 205 254
-61.62199401855469 -4.371512413024902 -29.047117233276367 74 205 254
-61.62248611450195 -3.299478054046631 -33.488441467285156 75 205 254
-61.62602233886719 -4.620616436004639 -28.56270980834961 74 205 254
-61.62699890136719 -4.384521484375 -31.25351905822754 75 204 254
-61.634803771972656 -4.2518229484558105 -29.32642936706543 75 205 254
-61.635189056396484 -4.989288330078125 -30.589157104492188 74 205 254
-61.63529968261719 -4.260742664337158 -30.675575256347656 74 204 254
-61.64014434814453 -3.8414883613586426 -32.028785705566406 75 205 254
-61.64755630493164 -4.618002414703369 -30.172273635864258 74 204 254
-61.6567497253418 -3.627342939376831 -31.77353858947754 75 205 254
-61.65719985961914 -3.3990638256073 -34.18729782104492 75 205 254
-61.65809631347656 -4.51483678817749 -31.128427505493164 75 204 254
-61.66171646118164 -4.530081272125244 -28.768722534179688 75 205 254
-61.66652297973633 -4.870579242706299 -29.077991485595703 74 204 254
-61.66874313354492 -4.519222259521484 -29.06835174560547 75 205 254
-61.67268753051758 -3.169858694076538 -34.006195068359375 75 205 254
-61.673072814941406 -4.730949401855469 -29.05124855041504 74 204 254
-61.674198150634766 -3.3272736072540283 -34.0517692565918 74 204 254
-61.67517852783203 -4.836780071258545 -30.08306121826172 75 205 254
-61.692283630371094 -5.0996832847595215 -30.20220375061035 74 205 254
-61.693660736083984 -4.467499256134033 -30.157594680786133 74 204 254
-61.694156646728516 -4.24730920791626 -30.114131927490234 74 205 254
-61.699440002441406 -4.103271961212158 -30.711509704589844 75 205 254
-61.70210647583008 -3.295921564102173 -32.83422088623047 75 205 254
-61.70254135131836 -2.774045705795288 -34.538856506347656 74 205 254
-61.70258712768555 -3.22839617729187 -34.61931610107422 74 204 254
-61.704872131347656 -4.384591579437256 -29.616199493408203 74 205 254
-61.70487594604492 -2.905770778656006 -34.594215393066406 74 204 254
-61.70592498779297 -4.211092948913574 -29.892181396484375 75 205 254
-61.70710754394531 -4.341406345367432 -28.872446060180664 75 205 254
-61.71595764160156 -4.056838035583496 -32.32151794433594 74 204 254
-61.71845626831055 -3.9253838062286377 -31.74630355834961 74 204 254
-61.72053909301758 -4.0014519691467285 -30.410459518432617 75 205 254
-61.72722625732422 -4.472787857055664 -30.94659996032715 75 205 254
-61.73739242553711 -3.805919885635376 -32.11195755004883 74 205 254
-61.74903869628906 -3.6485955715179443 -32.84680938720703 75 205 254
-61.75184631347656 -3.9168288707733154 -30.969297409057617 75 205 254
-61.751914978027344 -4.061573028564453 -33.033992767333984 75 205 254
-61.75349807739258 -2.993993043899536 -33.89738464355469 75 205 254
-61.754844665527344 -4.312071323394775 -31.215585708618164 75 204 254
-61.7664909362793 -3.7826902866363525 -31.754549026489258 75 205 254
-61.76662063598633 -3.8189492225646973 -32.62497329711914 75 205 254
-61.76911544799805 -4.155688762664795 -31.20060157775879 74 204 254
-61.784202575683594 -3.9728784561157227 -31.205379486083984 75 205 254
-61.78440856933594 -3.1068665981292725 -33.481414794921875 75 205 254
-61.78722381591797 -4.8603386878967285 -29.507936477661133 75 204 254
-61.79153823852539 -4.696027755737305 -28.915346145629883 74 204 254
-61.79182815551758 -4.40850830078125 -28.881973266601562 75 205 254
-61.793514251708984 -3.9052040576934814 -32.692657470703125 75 205 254
-61.79404067993164 -3.867907762527466 -32.29921340942383 74 204 254
-61.79521942138672 -3.93721866607666 -32.333534240722656 75 204 254
-61.796875 -4.0415802001953125 -30.966157913208008 74 205 254
-61.798072814941406 -3.608583688735962 -32.05031967163086 75 205 254
-61.80093765258789 -3.320883274078369 -33.88435363769531 75 205 254
-61.80244064331055 -3.75931978225708 -32.455284118652344 75 205 254
-61.80471420288086 -3.096482276916504 -33.938194274902344 74 205 254
-61.8152961730957 -3.741852045059204 -32.52370834350586 75 205 254
-61.816287994384766 -3.261788845062256 -34.39764404296875 75 205 254
-61.81777572631836 -3.650128126144409 -32.27019119262695 75 205 254
-61.82046890258789 -4.447261810302734 -28.658700942993164 75 205 254
-61.821624755859375 -4.996005058288574 -28.59462547302246 74 205 254
-61.82347106933594 -4.112741470336914 -30.001543045043945 75 205 254
-61.82994079589844 -4.629185199737549 -28.116924285888672 75 205 254
-61.83282470703125 -4.584256649017334 -30.576356887817383 75 204 254
-61.8373908996582 -4.870362281799316 -28.390012741088867 75 204 254
-61.83836364746094 -3.479163646697998 -32.843528747558594 75 205 254
-61.84706497192383 -3.5054771900177 -33.37013626098633 74 205 254
-61.85023498535156 -5.040036678314209 -30.4323673248291 75 205 254
-61.85175704956055 -4.429831027984619 -29.991270065307617 74 204 254
-61.86151123046875 -4.3035407066345215 -28.57396125793457 74 205 254
-61.862735748291016 -4.934258937835693 -30.332691192626953 74 205 254
-61.8641471862793 -3.803316831588745 -31.10051727294922 75 205 254
-61.86553955078125 -4.640483856201172 -30.066129684448242 75 205 254
-61.8708610534668 -4.344567775726318 -29.271669387817383 75 205 254
-61.871910095214844 -4.6625590324401855 -28.321643829345703 75 205 254
-61.875892639160156 -3.3329455852508545 -33.35574722290039 75 205 254
-61.88043975830078 -4.130268096923828 -29.745750427246094 75 205 254
-61.88227844238281 -4.270123481750488 -31.626094818115234 75 204 254
-61.883148193359375 -3.878730058670044 -31.42106819152832 75 205 254
-61.88459777832031 -4.797443866729736 -29.496829986572266 75 204 254
-61.89575958251953 -3.4672842025756836 -33.83918762207031 75 205 254
-61.89609909057617 -4.485449314117432 -28.207401275634766 75 205 254
-61.906463623046875 -3.483609199523926 -32.167945861816406 74 205 254
-61.91151428222656 -4.094954013824463 -32.80600357055664 74 205 254
-61.914329528808594 -4.093905448913574 -30.328651428222656 75 205 254
-61.920616149902344 -4.556517601013184 -28.929658889770508 74 204 254
-61.92178726196289 -4.496072292327881 -30.616689682006836 74 204 254
-61.92632293701172 -5.085253715515137 -29.781038284301758 75 204 254
-61.932777404785156 -4.7233476638793945 -30.488489151000977 75 205 254
-61.93666458129883 -4.1138811111450195 -31.076705932617188 74 204 254
-61.93970489501953 -4.407469749450684 -29.43780517578125 75 205 254
-61.943519592285156 -3.031524181365967 -34.43784713745117 74 205 254
-61.9439582824707 -4.532453536987305 -28.277597427368164 74 204 254
-61.948665618896484 -4.268246173858643 -30.016704559326172 74 204 254
-61.94969940185547 -3.1573901176452637 -33.244056701660156 75 205 254
-61.951072692871094 -4.196183681488037 -29.28540802001953 75 205 254
-61.951351165771484 -3.874767780303955 -30.82536506652832 75 205 254
-61.95225524902344 -4.15681266784668 -30.50807762145996 75 205 254
-61.95595169067383 -4.860383033752441 -30.59457778930664 75 205 254
-61.96049499511719 -2.6411356925964355 -34.958438873291016 75 205 254
-61.96059799194336 -4.746821403503418 -28.27336883544922 75 205 254
-61.96075439453125 -4.6470136642456055 -29.467418670654297 74 204 254
-61.98271560668945 -4.351387023925781 -30.551071166992188 74 204 254
-61.983646392822266 -3.8051700592041016 -32.17718505859375 74 204 254
-61.9857177734375 -4.887929916381836 -28.40520668029785 74 205 254
-61.98579406738281 -4.966114044189453 -28.88646697998047 75 204 254
-61.98666763305664 -4.244390964508057 -29.373380661010742 74 204 254
-61.98741912841797 -3.6390597820281982 -32.1669921875 75 205 254
-61.988338470458984 -3.974670648574829 -31.11409568786621 74 205 254
-61.98875045776367 -4.3778605461120605 -31.205162048339844 74 205 254
-61.98921585083008 -3.7760169506073 -31.39110565185547 75 205 254
-61.998775482177734 -4.018840312957764 -31.601356506347656 74 204 254
-62.00332260131836 -3.6134793758392334 -32.99198532104492 75 205 254
-62.0067138671875 -4.413661479949951 -29.01897621154785 75 204 254
-62.0070686340332 -3.4826807975769043 -33.246543884277344 75 205 254
-62.016544342041016 -4.1661248207092285 -31.6549015045166 75 204 254
-62.017112731933594 -2.7807064056396484 -34.3319206237793 75 205 254
-62.017974853515625 -4.753729343414307 -29.936573028564453 75 204 254
-62.022544860839844 -3.831380844116211 -31.61744499206543 75 205 254
-62.03216552734375 -4.101022243499756 -32.0695915222168 74 204 254
-62.034637451171875 -3.5291285514831543 -32.67986297607422 75 205 254
-62.054588317871094 -4.6665568351745605 -28.27018165588379 74 204 254
-62.054893493652344 -4.55799674987793 -30.403881072998047 75 205 254
-62.05491256713867 -3.9871327877044678 -30.437152862548828 75 205 254
-62.05805206298828 -4.58962869644165 -29.328765869140625 74 204 254
-62.05986785888672 -4.775609016418457 -28.776424407958984 75 204 254
-62.06114196777344 -3.4690375328063965 -32.438961029052734 75 205 254
-62.061256408691406 -3.300403356552124 -33.27706527709961 74 205 254
-62.0634880065918 -4.316380977630615 -29.10420036315918 75 204 254
-62.06447219848633 -3.720107078552246 -32.705596923828125 74 205 254
-62.075382232666016 -4.292133808135986 -29.05867576599121 75 205 254
-62.08188247680664 -2.451174259185791 -35.21584701538086 75 205 254
-62.0827751159668 -3.3854503631591797 -33.75522232055664 74 204 254
-62.08605194091797 -4.9302473068237305 -28.836549758911133 75 204 254
-62.08859634399414 -4.181640625 -28.93179702758789 74 205 254
-62.09257888793945 -5.103909969329834 -29.731462478637695 75 204 254
-62.10280227661133 -4.44669771194458 -30.974618911743164 75 204 254
-62.103946685791016 -4.558575630187988 -28.54707908630371 75 205 254
-62.10407638549805 -2.890815496444702 -34.3393440246582 75 204 254
-62.112693786621094 -4.304603576660156 -30.40770149230957 74 204 254
-62.117713928222656 -4.378056049346924 -28.606103897094727 75 205 254
-62.122711181640625 -3.6588938236236572 -31.511661529541016 74 205 254
-62.12638854980469 -4.025485992431641 -31.969026565551758 74 204 254
-62.12937545776367 -4.679316997528076 -29.898361206054688 75 204 254
-62.129390716552734 -4.245849609375 -29.633895874023438 75 205 254
-62.12990951538086 -4.905773639678955 -29.836462020874023 75 205 254
-62.130455017089844 -4.437310695648193 -29.348726272583008 75 204 254
-62.137107849121094 -3.964470148086548 -31.477373123168945 74 204 254
-62.13718032836914 -4.037034034729004 -30.120187759399414 75 205 254
-62.14113998413086 -4.1429853439331055 -30.459667205810547 75 204 254
-62.14307403564453 -4.573254585266113 -28.769832611083984 74 205 254
-62.145538330078125 -3.194441556930542 -33.746002197265625 74 205 254
-62.150390625 -4.291295528411865 -29.843639373779297 74 205 254
-62.15264892578125 -4.863540172576904 -28.083438873291016 75 205 254
-62.16587829589844 -4.983129024505615 -30.189878463745117 75 204 254
-62.16838836669922 -4.436133861541748 -28.695201873779297 74 205 254
-62.17245101928711 -3.782047748565674 -31.62874984741211 75 205 254
-62.17253494262695 -3.321000814437866 -34.090736389160156 74 205 254
-62.175113677978516 -3.9628965854644775 -30.6742000579834 75 205 254
-62.17665100097656 -4.522416591644287 -29.87640953063965 75 204 254
-62.17932891845703 -3.330674648284912 -32.57087326049805 75 205 254
-62.18539047241211 -2.9696967601776123 -33.73628616333008 75 205 254
-62.19572830200195 -4.194679260253906 -30.960927963256836 74 204 254
-62.19622802734375 -4.013821601867676 -30.950756072998047 75 205 254
-62.19645690917969 -4.365147590637207 -30.969650268554688 75 204 254
-62.19763946533203 -4.330252170562744 -28.361614227294922 75 205 254
-62.20048522949219 -3.711890935897827 -32.47810363769531 75 205 254
-62.20317840576172 -3.054353952407837 -33.501953125 74 205 254
-62.20363235473633 -4.468140602111816 -28.469303131103516 75 205 254
-62.2050895690918 -4.096264839172363 -29.68743133544922 75 205 254
-62.205909729003906 -3.634584665298462 -32.70708084106445 75 205 254
-62.206111907958984 -2.8155248165130615 -34.302650451660156 74 205 254
-62.209373474121094 -3.7043204307556152 -31.24022102355957 75 205 254
-62.21841812133789 -4.145956993103027 -29.778871536254883 74 205 254
-62.22397232055664 -2.5868313312530518 -34.73785400390625 75 204 254
-62.22644805908203 -3.6912283897399902 -32.00367736816406 75 205 254
-62.22724533081055 -3.355319023132324 -33.64049530029297 74 204 254
-62.230430603027344 -4.910305023193359 -29.286420822143555 75 205 254
-62.236263275146484 -3.6355247497558594 -31.803300857543945 75 205 254
-62.2402458190918 -2.4689574241638184 -35.11430358886719 75 205 254
-62.250282287597656 -4.282810211181641 -31.50944709777832 74 205 254
-62.25379943847656 -4.7317376136779785 -28.67525863647461 74 204 254
-62.25526809692383 -3.848053455352783 -31.411657333374023 75 205 254
-62.255409240722656 -3.910792589187622 -32.065696716308594 74 204 254
-62.26088333129883 -2.745093584060669 -34.61249923706055 75 205 254
-62.261741638183594 -4.666279315948486 -29.344255447387695 75 205 254
-62.26187515258789 -4.640507221221924 -27.87186622619629 75 205 254
-62.26527404785156 -4.791223049163818 -28.71947479248047 74 205 254
-62.26736068725586 -4.687502861022949 -28.09812355041504 75 205 254
-62.280670166015625 -4.540169715881348 -28.077903747558594 75 205 254
-62.281314849853516 -3.5029780864715576 -32.6154670715332 74 205 254
-62.2818489074707 -3.837214708328247 -30.85482406616211 74 205 254
-62.28681945800781 -4.233190059661865 -29.316669464111328 74 205 254
-62.286861419677734 -4.639669895172119 -30.339353561401367 75 205 254
-62.29121017456055 -4.593646049499512 -28.717199325561523 75 204 254
-62.2993049621582 -3.3384482860565186 -32.889427185058594 75 205 254
-62.305442810058594 -4.4695210456848145 -29.762954711914062 74 204 254
-62.30967712402344 -2.837890863418579 -34.177024841308594 75 205 254
-62.31087875366211 -3.0846073627471924 -33.67729187011719 74 204 254
-62.31428909301758 -4.511312961578369 -27.93301010131836 75 205 254
-62.31696701049805 -5.049505233764648 -29.97746467590332 75 205 254
-62.31736373901367 -4.186649799346924 -31.7450008392334 74 205 254
-62.317928314208984 -3.352668285369873 -33.11189651489258 75 205 254
-62.322364807128906 -3.521575927734375 -33.14095687866211 75 204 254
-62.32609176635742 -3.054349899291992 -34.16925048828125 75 205 254
-62.32777404785156 -3.509618043899536 -31.924457550048828 75 205 254
-62.33466339111328 -4.404748916625977 -28.963335037231445 75 205 254
-62.33647537231445 -4.158190727233887 -30.81538200378418 74 204 254
-62.34159469604492 -4.453439235687256 -29.189619064331055 74 205 254
-62.345149993896484 -4.0777997970581055 -31.717660903930664 75 204 254
-62.34783172607422 -4.3063130378723145 -29.777999877929688 74 204 254
-62.3556022644043 -4.842202663421631 -29.2867488861084 75 204 254
-62.35850524902344 -4.159892559051514 -29.50031280517578 75 205 254
-62.359466552734375 -4.79500150680542 -30.23194122314453 75 205 254
-62.36286163330078 -2.916539192199707 -34.112579345703125 75 205 254
-62.363101959228516 -4.902069568634033 -28.22000503540039 74 204 254
-62.3651008605957 -4.555685520172119 -28.04374122619629 74 204 254
-62.369571685791016 -4.347553730010986 -31.318490982055664 74 204 254
-62.378177642822266 -4.224279403686523 -29.045303344726562 75 205 254
-62.3782958984375 -3.9017179012298584 -30.572824478149414 75 205 254
-62.37946319580078 -4.048366069793701 -29.388416290283203 74 205 254
-62.38022994995117 -4.018187046051025 -30.855857849121094 74 204 254
-62.38123321533203 -4.134538173675537 -30.04788589477539 75 205 254
-62.387603759765625 -3.1837611198425293 -33.0243034362793 75 205 254
-62.38782501220703 -4.257044315338135 -29.522451400756836 74 205 254
-62.392364501953125 -4.567081451416016 -30.31608772277832 75 204 254
-62.40254592895508 -3.044713020324707 -33.8101692199707 75 204 254
-62.40288162231445 -3.571505308151245 -32.94535827636719 74 205 254
-62.40312194824219 -4.210572719573975 -31.40574836730957 75 204 254
-62.4067268371582 -3.8142805099487305 -31.136470794677734 75 205 254
-62.40856170654297 -3.8553626537323 -31.90055274963379 74 204 254
-62.41170120239258 -4.4970293045043945 -28.295269012451172 74 205 254
-62.414527893066406 -4.191996097564697 -30.277353286743164 75 205 254
-62.42386245727539 -4.4123358726501465 -30.26432228088379 75 204 254
-62.42470169067383 -3.435040235519409 -33.494140625 74 205 254
-62.42593002319336 -4.712178707122803 -29.163333892822266 74 204 254
-62.428348541259766 -3.8238677978515625 -31.479944229125977 75 205 254
-62.42958450317383 -2.653653621673584 -34.41912078857422 75 205 254
-62.43777847290039 -4.747500896453857 -28.04677963256836 74 205 254
-62.441734313964844 -4.2923359870910645 -29.087112426757812 74 204 254
-62.44317626953125 -3.54794979095459 -31.658029556274414 75 205 254
-62.4444694519043 -3.5130257606506348 -32.993106842041016 74 204 254
-62.44517135620117 -4.064673900604248 -31.403635025024414 74 204 254
-62.4460334777832 -3.2845165729522705 -34.054473876953125 74 204 254
-62.448081970214844 -4.180765628814697 -28.805343627929688 75 205 254
-62.45152282714844 -3.6789119243621826 -31.953365325927734 74 205 254
-62.45899200439453 -2.966156244277954 -34.013999938964844 74 205 254
-62.463504791259766 -3.9012913703918457 -31.253028869628906 75 205 254
-62.465660095214844 -2.757157802581787 -34.488739013671875 75 205 254
-62.47462844848633 -4.134374618530273 -29.788761138916016 75 204 254
-62.47803497314453 -3.5019235610961914 -32.19230651855469 75 205 254
-62.47892761230469 -4.822110176086426 -29.67745590209961 75 205 254
-62.4789924621582 -2.731719732284546 -34.09918975830078 75 204 254
-62.48670196533203 -3.969057321548462 -30.120115280151367 75 205 254
-62.48958969116211 -4.321469306945801 -28.830684661865234 75 205 254
-62.4986686706543 -3.3101606369018555 -33.017189025878906 74 204 254
-62.5002555847168 -4.388084888458252 -30.85456085205078 75 205 254
-62.5003547668457 -4.7171831130981445 -28.055227279663086 74 204 254
-62.502098083496094 -4.64048957824707 -29.08441162109375 75 204 254
-62.50322723388672 -4.017457008361816 -30.203289031982422 74 204 254
-62.51423263549805 -3.544618606567383 -32.45170974731445 75 205 254
-62.517311096191406 -3.2026143074035645 -33.27897262573242 75 205 254
-62.52218246459961 -4.590339660644531 -28.297151565551758 75 205 254
-62.523895263671875 -3.7240793704986572 -32.46329879760742 74 204 254
-62.52671813964844 -4.8365654945373535 -28.51666259765625 75 204 254
-62.52945327758789 -3.691459894180298 -31.25881576538086 74 205 254
-62.5340576171875 -4.555128574371338 -29.69355583190918 74 204 254
-62.53481674194336 -4.339346408843994 -30.18663787841797 74 204 254
-62.53559875488281 -3.2223153114318848 -33.49829864501953 75 205 254
-62.53776550292969 -4.611841678619385 -28.539411544799805 74 205 254
-62.54152297973633 -3.6097095012664795 -32.642112731933594 75 205 254
-62.544368743896484 -4.4882588386535645 -30.77395248413086 75 205 254
-62.55009841918945 -4.480299949645996 -29.119674682617188 75 204 254
-62.56195068359375 -4.557133197784424 -27.808677673339844 74 205 254
-62.57725524902344 -4.9695634841918945 -29.615049362182617 75 205 254
-62.57823944091797 -3.127261161804199 -33.36753845214844 75 205 254
-62.57996368408203 -4.4058709144592285 -28.358919143676758 75 205 254
-62.5814208984375 -4.7373480796813965 -29.656709671020508 75 205 254
-62.586246490478516 -3.520437002182007 -33.03947830200195 74 205 254
-62.5926513671875 -4.328433990478516 -29.610387802124023 74 204 254
-62.59293746948242 -4.18911075592041 -30.18973159790039 74 204 254
-62.59482192993164 -4.279389381408691 -29.373950958251953 75 205 254
-62.598392486572266 -4.053262710571289 -29.93061065673828 75 205 254
-62.59970474243164 -3.361671209335327 -32.34805679321289 75 205 254
-62.60158920288086 -4.001540660858154 -31.24601936340332 74 204 254
-62.605831146240234 -4.750593662261963 -28.53079605102539 75 205 254
-62.606807708740234 -3.0465972423553467 -33.330692291259766 75 205 254
-62.61628341674805 -4.057392120361328 -30.709949493408203 75 205 254
-62.61821365356445 -4.4126296043396 -28.537790298461914 75 205 254
-62.62376022338867 -3.8545467853546143 -31.283512115478516 74 204 254
-62.624961853027344 -3.9069807529449463 -29.8044376373291 74 205 254
-62.63242721557617 -3.705092191696167 -32.328678131103516 74 204 254
-62.63742446899414 -4.356144428253174 -28.104656219482422 75 205 254
-62.63783264160156 -3.7352705001831055 -30.97367286682129 75 205 254
-62.63822937011719 -3.294901132583618 -32.63429641723633 74 205 254
-62.63835144042969 -3.6956264972686768 -31.87242317199707 74 205 254
-62.639686584472656 -4.476441383361816 -28.440656661987305 75 204 254
-62.64120864868164 -3.986339807510376 -30.463390350341797 75 205 254
-62.643070220947266 -4.2510986328125 -30.692224502563477 74 204 254
-62.64860534667969 -4.117431640625 -29.458396911621094 75 205 254
-62.65901565551758 -3.67024827003479 -31.54277229309082 75 205 254
-62.66280746459961 -2.8659772872924805 -34.319305419921875 74 205 254
-62.670433044433594 -3.5423412322998047 -32.33848190307617 74 204 254
-62.6756706237793 -4.179615497589111 -29.527297973632812 74 204 254
-62.67768096923828 -4.50042724609375 -28.18180274963379 74 205 254
-62.681270599365234 -4.9633660316467285 -29.053316116333008 75 205 254
-62.68214416503906 -3.397409677505493 -33.39483642578125 74 204 254
-62.6827278137207 -4.428439617156982 -30.697723388671875 75 204 254
-62.683753967285156 -4.166133403778076 -28.5845890045166 74 205 254
-62.68834686279297 -4.392975807189941 -31.1087703704834 75 204 254
-62.69388961791992 -4.195129871368408 -29.25136947631836 75 205 254
-62.69801330566406 -3.7312331199645996 -31.748485565185547 74 205 254
-62.698997497558594 -3.43815279006958 -32.058929443359375 75 205 254
-62.70071029663086 -4.7198686599731445 -27.844371795654297 75 205 254
-62.70188522338867 -2.931483745574951 -33.5172233581543 74 205 254
-62.7025146484375 -3.9545998573303223 -31.80324935913086 74 204 254
-62.7075309753418 -2.7958664894104004 -33.753089904785156 75 205 254
-62.70796203613281 -3.835911750793457 -30.526994705200195 75 205 254
-62.70845031738281 -3.873772144317627 -30.60938835144043 74 205 254
-62.719242095947266 -4.064731121063232 -29.19101905822754 75 205 254
-62.720516204833984 -4.887148380279541 -28.0992431640625 74 205 254
-62.72062683105469 -3.386601686477661 -32.84019088745117 74 205 254
-62.727203369140625 -4.70423698425293 -30.083948135375977 75 205 254
-62.730613708496094 -4.2858567237854 -31.10926055908203 75 205 254
-62.733543395996094 -4.119388580322266 -29.985340118408203 74 205 254
-62.750186920166016 -4.639467239379883 -28.44756317138672 75 204 254
-62.75508499145508 -4.446778774261475 -28.727344512939453 75 205 254
-62.75761795043945 -3.5467329025268555 -31.678234100341797 75 205 254
-62.76103591918945 -4.3166351318359375 -28.078454971313477 75 205 254
-62.76681137084961 -4.5220112800598145 -29.487821578979492 75 204 254
-62.767189025878906 -4.881063938140869 -29.949565887451172 75 205 254
-62.771121978759766 -3.378574848175049 -32.606990814208984 75 205 254
-62.771968841552734 -3.0285463333129883 -33.70347213745117 75 205 254
-62.775325775146484 -4.499551296234131 -28.9515323638916 74 205 254
-62.775733947753906 -4.533535003662109 -27.682416915893555 75 205 254
-62.78106689453125 -4.582336902618408 -29.573894500732422 75 205 254
-62.78583908081055 -4.200350284576416 -30.57602882385254 74 204 254
-62.788761138916016 -4.588774681091309 -27.771379470825195 74 204 254
-62.79771041870117 -3.3396120071411133 -33.716068267822266 75 205 254
-62.801673889160156 -4.90967321395874 -28.984188079833984 75 205 254
-62.802040100097656 -4.74448823928833 -28.99065589904785 75 204 254
-62.802337646484375 -4.767253398895264 -28.024023056030273 75 205 254
-62.802635192871094 -4.346269607543945 -29.555606842041016 75 204 254
-62.80718994140625 -3.804469585418701 -31.3927001953125 75 205 254
-62.807918548583984 -3.5190491676330566 -32.85991668701172 75 205 254
-62.81256866455078 -4.023866176605225 -30.083633422851562 74 205 254
-62.822914123535156 -4.6670379638671875 -28.927284240722656 75 205 254
-62.831085205078125 -4.621212959289551 -30.0797119140625 75 205 254
-62.83153533935547 -3.6458945274353027 -31.960710525512695 75 205 254
-62.83618927001953 -3.902292490005493 -31.647233963012695 74 204 254
-62.83979797363281 -3.209918737411499 -32.769161224365234 74 205 254
-62.84250259399414 -3.0913169384002686 -33.976348876953125 74 204 254
-62.84290313720703 -4.180731773376465 -29.752845764160156 75 205 254
-62.84342956542969 -3.9319331645965576 -30.308467864990234 75 205 254
-62.8447151184082 -4.434115886688232 -30.102157592773438 75 204 254
-62.84706115722656 -4.052837371826172 -30.624990463256836 74 204 254
-62.85044860839844 -4.261133670806885 -28.77703094482422 75 205 254
-62.85166549682617 -3.1527578830718994 -33.05869674682617 74 205 254
-62.85745620727539 -4.233028411865234 -30.02640724182129 74 204 254
-62.857669830322266 -4.21534538269043 -28.53954315185547 75 205 254
-62.858036041259766 -4.337777137756348 -28.851362228393555 74 204 254
-62.85844039916992 -4.777581691741943 -28.43321418762207 74 205 254
-62.860225677490234 -3.31782865524292 -32.778377532958984 74 205 254
-62.871864318847656 -4.316396713256836 -28.720182418823242 74 205 254
-62.87405776977539 -3.7525696754455566 -32.199893951416016 74 204 254
-62.88153839111328 -3.8482534885406494 -30.885913848876953 75 205 254
-62.88716506958008 -3.5869314670562744 -31.37137794494629 75 205 254
-62.89133071899414 -3.714709758758545 -31.71738624572754 74 204 254
-62.891517639160156 -4.122405052185059 -31.161638259887695 75 204 254
-62.89339065551758 -3.887784957885742 -31.129384994506836 74 205 254
-62.894325256347656 -3.5383429527282715 -31.949785232543945 75 205 254
-62.896610260009766 -3.9989306926727295 -29.86777687072754 75 205 254
-62.89805221557617 -2.865917921066284 -34.22187805175781 74 205 254
-62.90090560913086 -4.341464519500732 -30.92194938659668 74 205 254
-62.90961456298828 -4.551532745361328 -30.53400421142578 75 205 254
-62.91316223144531 -3.933387517929077 -29.608327865600586 75 205 254
-62.916927337646484 -3.786107301712036 -30.197572708129883 74 205 254
-62.91945266723633 -4.073609352111816 -29.895416259765625 74 205 254
-62.92206573486328 -3.5703814029693604 -32.651485443115234 75 205 254
-62.92239761352539 -4.887631416320801 -29.43120765686035 75 205 254
-62.93317413330078 -2.975278854370117 -34.67551040649414 75 205 254
-62.93444061279297 -3.5725691318511963 -32.18862533569336 74 205 254
-62.946617126464844 -3.6746699810028076 -30.933456420898438 75 205 254
-62.947021484375 -4.5083327293396 -29.861103057861328 74 205 254
-62.947330474853516 -4.616569519042969 -28.04167938232422 75 205 254
-62.94782638549805 -3.747624158859253 -31.60599136352539 74 205 254
-62.95102310180664 -4.778474807739258 -27.84409523010254 74 204 254
-62.952842712402344 -4.391786575317383 -29.920381546020508 75 204 254
-62.966636657714844 -2.7505435943603516 -34.703514099121094 74 205 254
-62.96763229370117 -3.3045177459716797 -32.48809051513672 75 205 254
-62.97145080566406 -4.38139009475708 -28.505626678466797 75 205 254
-62.97551345825195 -3.438124895095825 -33.18208312988281 75 205 254
-62.9820442199707 -4.309627056121826 -29.15424156188965 75 205 254
-62.98509216308594 -3.2109618186950684 -33.04985427856445 75 205 254
-62.9853401184082 -3.7240898609161377 -31.024545669555664 74 205 254
-62.9908447265625 -4.779850482940674 -28.037294387817383 74 205 254
-62.9982795715332 -2.8440358638763428 -33.45418167114258 75 205 254
-62.9995002746582 -4.707290172576904 -28.774869918823242 74 204 254
-63.001121520996094 -4.154445171356201 -28.51512908935547 75 205 254
-63.00276184082031 -4.8839898109436035 -28.29501724243164 75 205 254
-63.004817962646484 -4.432257175445557 -28.12652015686035 75 205 254
-63.0071907043457 -4.662060260772705 -28.267284393310547 74 205 254
-63.010826110839844 -2.6860339641571045 -34.97511672973633 75 205 254
-63.0221061706543 -4.535850524902344 -28.86920928955078 74 204 254
-63.02353286743164 -4.388036251068115 -27.836946487426758 75 205 254
-63.02686309814453 -4.368987083435059 -29.383445739746094 74 204 254
-63.028648376464844 -4.091640949249268 -29.642784118652344 75 205 254
-63.031864166259766 -4.020534515380859 -30.245073318481445 75 205 254
-63.03436279296875 -3.4023067951202393 -32.094696044921875 75 205 254
-63.035980224609375 -4.804792404174805 -29.407007217407227 75 205 254
-63.04137420654297 -4.35723876953125 -30.82754898071289 74 205 254
-63.04829788208008 -4.0573201179504395 -30.98084831237793 74 204 254
-63.04847717285156 -4.231345176696777 -29.97039222717285 74 204 254
-63.05067443847656 -4.09626579284668 -30.475595474243164 74 205 254
-63.05170440673828 -2.983383893966675 -34.16520690917969 75 205 254
-63.05323028564453 -3.763209104537964 -30.726709365844727 75 205 254
-63.05335998535156 -3.3856143951416016 -33.486934661865234 75 205 254
-63.05501174926758 -3.0304996967315674 -33.06794357299805 75 205 254
-63.05513381958008 -4.4808149337768555 -30.484405517578125 75 204 254
-63.06045150756836 -2.4700655937194824 -35.00770568847656 75 205 254
-63.064266204833984 -3.1794118881225586 -33.26606369018555 75 205 254
-63.068603515625 -4.626602649688721 -29.386981964111328 75 204 254
-63.070194244384766 -4.508380889892578 -28.21001625061035 75 204 254
-63.07265090942383 -3.7230753898620605 -32.09938049316406 75 204 254
-63.072994232177734 -3.897479772567749 -31.04578971862793 74 204 254
-63.07313537597656 -4.298738956451416 -30.466753005981445 75 204 254
-63.07428741455078 -3.004275321960449 -33.432315826416016 74 205 254
-63.074363708496094 -3.141359329223633 -34.00566864013672 75 205 254
-63.07938766479492 -2.912679433822632 -33.28474426269531 74 205 254
-63.079437255859375 -4.2283101081848145 -29.005199432373047 75 205 254
-63.0887336730957 -4.142580032348633 -29.185321807861328 75 205 254
-63.08970260620117 -4.995702266693115 -28.955896377563477 74 204 254
-63.09623718261719 -3.627471685409546 -31.937273025512695 74 205 254
-63.101043701171875 -4.8607964515686035 -27.50695037841797 75 204 254
-63.10244369506836 -3.533681631088257 -32.17147445678711 75 205 254
-63.10530090332031 -4.557295322418213 -29.30016326904297 74 204 254
-63.10941696166992 -3.6968746185302734 -31.30538558959961 75 205 254
-63.11575698852539 -4.088245868682861 -28.92615509033203 75 205 254
-63.11918258666992 -3.6381096839904785 -30.61252212524414 74 205 254
-63.11923599243164 -3.760810375213623 -31.54159927368164 75 205 254
-63.121917724609375 -3.905885696411133 -30.411252975463867 75 205 254
-63.12455368041992 -3.9751136302948 -31.562503814697266 75 204 254
-63.12843322753906 -4.223173141479492 -29.269485473632812 74 204 254
-63.129295349121094 -3.4758481979370117 -31.79663848876953 75 205 254
-63.13534164428711 -2.7672371864318848 -34.57748794555664 74 205 254
-63.14280700683594 -4.461145401000977 -27.99077606201172 75 205 254
-63.147525787353516 -4.831632137298584 -27.698667526245117 75 205 254
-63.14877700805664 -3.857867956161499 -30.283733367919922 75 205 254
-63.150299072265625 -4.341737747192383 -27.70673179626465 74 205 254
-63.150978088378906 -2.901792287826538 -33.674774169921875 75 205 254
-63.159934997558594 -4.53347635269165 -27.88567352294922 74 205 254
-63.159950256347656 -3.407252073287964 -32.420677185058594 74 205 254
-63.16978454589844 -4.763905048370361 -29.863203048706055 75 205 254
-63.170162200927734 -3.158172607421875 -32.90275573730469 75 205 254
-63.171791076660156 -4.75335693359375 -27.65418243408203 75 205 254
-63.176002502441406 -3.4146573543548584 -32.358985900878906 75 205 254
-63.18058776855469 -4.055108070373535 -30.078811645507812 74 205 254
-63.18238067626953 -4.49039888381958 -28.499732971191406 75 205 254
-63.19043731689453 -4.679646015167236 -28.219135284423828 74 204 254
-63.19188690185547 -3.065359592437744 -33.65210723876953 75 205 254
-63.195045471191406 -4.621049880981445 -27.549325942993164 74 204 254
-63.1962890625 -3.514392852783203 -31.346529006958008 75 205 254
-63.20222854614258 -4.798430442810059 -28.266103744506836 74 205 254
-63.20360565185547 -4.354079723358154 -27.818147659301758 75 205 254
-63.20664978027344 -3.3793118000030518 -32.60896682739258 75 204 254
-63.208221435546875 -3.8019113540649414 -30.02692222595215 75 205 254
-63.20926284790039 -4.4097700119018555 -30.098731994628906 75 205 254
-63.223323822021484 -4.403654098510742 -29.29694366455078 75 204 254
-63.2302360534668 -4.9768571853637695 -28.73565101623535 75 205 254
-63.231117248535156 -3.5900118350982666 -31.432674407958984 75 205 254
-63.23495101928711 -4.2502055168151855 -30.325164794921875 74 204 254
-63.23725128173828 -4.301795959472656 -28.520526885986328 75 205 254
-63.240501403808594 -3.0499680042266846 -33.45686340332031 75 205 254
-63.24137878417969 -4.548638343811035 -27.47205924987793 75 205 254
-63.24323272705078 -3.207524299621582 -32.5435905456543 74 204 254
-63.24560546875 -4.554189682006836 -28.69047737121582 74 204 254
-63.248626708984375 -4.193860054016113 -29.58427619934082 75 205 254
-63.253684997558594 -4.68524694442749 -29.829195022583008 75 205 254
-63.261131286621094 -3.9582197666168213 -30.066349029541016 75 205 254
-63.26593780517578 -4.7952094078063965 -28.729135513305664 75 205 254
-63.27131652832031 -4.102692604064941 -30.377225875854492 74 204 254
-63.27424240112305 -3.195591449737549 -32.994041442871094 75 204 254
-63.281089782714844 -4.042355537414551 -28.89723777770996 75 205 254
-63.28366470336914 -4.281074523925781 -29.76003646850586 74 205 254
-63.289520263671875 -3.938750743865967 -30.266063690185547 75 205 254
-63.29026794433594 -3.931469440460205 -31.424144744873047 75 204 254
-63.29029083251953 -4.259695529937744 -28.256813049316406 75 205 254
-63.297088623046875 -4.6170878410339355 -30.326988220214844 74 204 254
-63.30105972290039 -4.38559627532959 -28.61396026611328 75 204 254
-63.310302734375 -3.8844380378723145 -30.642803192138672 75 205 254
-63.31099319458008 -3.7574925422668457 -31.460256576538086 75 204 254
-63.31154251098633 -3.6176819801330566 -31.139820098876953 75 205 254
-63.313472747802734 -4.501103401184082 -29.81640625 75 204 254
-63.318302154541016 -3.935304880142212 -30.853750228881836 74 204 254
-63.3194465637207 -4.026630401611328 -29.61161231994629 74 205 254
-63.31972885131836 -4.584972858428955 -29.18207550048828 75 205 254
-63.32929992675781 -3.039203643798828 -32.84160232543945 75 205 254
-63.33393859863281 -2.5529394149780273 -34.697105407714844 75 205 254
-63.33873748779297 -4.229030132293701 -28.952274322509766 74 205 254
-63.33986282348633 -3.9587957859039307 -29.36310386657715 75 205 254
-63.34690475463867 -3.5765011310577393 -31.71302032470703 75 205 254
-63.35219192504883 -4.182341575622559 -30.895904541015625 75 204 254
-63.353729248046875 -3.3453595638275146 -32.2056770324707 75 205 254
-63.361900329589844 -4.1130547523498535 -29.45377540588379 75 205 254
-63.36603546142578 -4.405206203460693 -28.328529357910156 75 205 254
-63.36883544921875 -4.954504013061523 -29.195737838745117 75 205 254
-63.371437072753906 -4.104799270629883 -29.695402145385742 74 204 254
-63.3761100769043 -4.403131484985352 -28.099119186401367 75 205 254
-63.3795166015625 -4.854075908660889 -27.545494079589844 75 204 254
-63.380130767822266 -4.7390456199646 -28.60503578186035 75 204 254
-63.38142395019531 -3.690180778503418 -30.69314193725586 75 205 254
-63.38300704956055 -3.244863271713257 -32.33262252807617 74 205 254
-63.3885612487793 -2.9064643383026123 -33.540409088134766 75 205 254
-63.39244842529297 -3.2298340797424316 -32.806297302246094 75 205 254
-63.39628219604492 -4.631110668182373 -27.827566146850586 74 205 254
-63.40186309814453 -3.128593921661377 -33.70761489868164 75 205 254
-63.40283966064453 -2.793715715408325 -33.90615463256836 74 205 254
-63.41144943237305 -4.327564239501953 -30.335771560668945 74 205 254
-63.41596984863281 -4.467013835906982 -27.849687576293945 74 205 254
-63.41617202758789 -3.5509774684906006 -31.998130798339844 74 204 254
-63.416622161865234 -4.43081521987915 -29.718496322631836 74 204 254
-63.4235725402832 -3.7648415565490723 -30.768451690673828 74 204 254
-63.42588424682617 -2.9980361461639404 -33.26567077636719 75 205 254
-63.425933837890625 -4.6960625648498535 -28.04365348815918 75 204 254
-63.42852020263672 -4.58626127243042 -28.655683517456055 75 204 254
-63.428958892822266 -3.6826930046081543 -31.695316314697266 75 204 254
-63.430755615234375 -4.361327171325684 -28.8599796295166 75 205 254
-63.43984603881836 -4.913259983062744 -28.18180274963379 75 204 254
-63.44071960449219 -4.56046724319458 -30.19748306274414 75 204 254
-63.440738677978516 -3.398857831954956 -31.74281883239746 75 205 254
-63.442771911621094 -4.193918704986572 -28.236621856689453 75 205 254
-63.443965911865234 -3.5279159545898438 -32.01451110839844 74 205 254
-63.44636917114258 -4.050719261169434 -31.228900909423828 75 205 254
-63.456172943115234 -4.339788436889648 -27.621376037597656 75 205 254
-63.46284866333008 -3.4431986808776855 -31.8320369720459 74 204 254
-63.46819305419922 -4.111525058746338 -30.744169235229492 75 204 254
-63.47853088378906 -4.864552021026611 -29.1905517578125 75 205 254
-63.48012924194336 -4.286235809326172 -29.721210479736328 75 204 254
-63.484535217285156 -3.6268842220306396 -31.776519775390625 75 205 254
-63.48534393310547 -4.681189060211182 -28.278867721557617 75 205 254
-63.486228942871094 -4.069098949432373 -29.955068588256836 75 205 254
-63.491294860839844 -4.409526824951172 -27.60413932800293 75 205 254
-63.492191314697266 -3.791358709335327 -30.479595184326172 75 205 254
-63.4941520690918 -4.553956031799316 -27.940658569335938 75 204 254
-63.49532699584961 -4.680835723876953 -29.1677303314209 75 204 254
-63.499969482421875 -3.6579394340515137 -30.418987274169922 75 205 254
