-74.5763931274414 4.661865711212158 34.6920051574707 75 204 254
-74.5768051147461 4.568203449249268 33.730323791503906 75 204 254
-74.57774353027344 5.017789840698242 37.70367431640625 74 204 254
-74.57830047607422 4.624516010284424 34.228233337402344 75 204 254
-74.58306884765625 6.138213157653809 32.816505432128906 74 205 254
-74.58499908447266 5.107746124267578 38.16781234741211 74 204 254
-74.58509826660156 4.72027587890625 35.191402435302734 75 204 254
-74.58736419677734 6.459031581878662 36.343650817871094 75 205 254
-74.58802032470703 6.557821750640869 37.38028335571289 75 205 254
-74.58939361572266 4.956106662750244 37.20791244506836 74 204 254
-74.59073638916016 4.7776103019714355 35.717010498046875 74 204 254
-74.5911865234375 4.8286919593811035 36.2097282409668 74 204 254
-74.59486389160156 5.684848308563232 36.08705139160156 75 205 254
-74.5986328125 5.596593856811523 37.17548751831055 74 205 254
-7.460062026977539 9.460844039916992 45.89900207519531 74 205 254
-74.60665893554688 6.50631856918335 36.87614822387695 75 205 254
-7.461267471313477 6.543597221374512 47.95957946777344 75 205 254
-74.61383819580078 4.593702793121338 36.84009552001953 75 205 254
-74.62060546875 5.476955890655518 36.231204986572266 74 205 254
-74.62144470214844 5.660213947296143 35.735809326171875 74 205 254
-74.62216186523438 6.601407527923584 37.84685134887695 75 205 254
-74.62677764892578 5.420492172241211 35.7140007019043 74 205 254
-74.62971496582031 5.381471157073975 35.19845199584961 74 205 254
-7.4632062911987305 6.7636189460754395 45.052085876464844 75 205 254
-74.63501739501953 5.166439533233643 38.65322494506836 74 204 254
-74.64126586914062 5.621199607849121 35.2103157043457 74 205 254
-74.6438980102539 5.76108980178833 38.23830795288086 75 205 254
-74.64673614501953 4.001981258392334 35.82822799682617 75 205 254
-74.65296936035156 5.888817310333252 39.21519088745117 74 205 254
-74.65548706054688 4.130613803863525 36.741432189941406 75 205 254
-74.6577377319336 6.180813789367676 33.295196533203125 75 204 254
-74.66036987304688 5.581223487854004 34.69844436645508 75 205 254
-74.66749572753906 4.078140735626221 36.323486328125 75 205 254
-74.6690444946289 5.547158718109131 36.67508316040039 75 205 254
-7.467250347137451 6.578653335571289 47.70191955566406 75 205 254
-74.6864013671875 4.556116580963135 36.35200881958008 75 205 254
-74.69081115722656 5.949469089508057 39.65215301513672 74 204 254
-74.69140625 6.155547142028809 32.9970703125 75 205 254
-74.69169616699219 4.327670574188232 33.999488830566406 74 205 254
-74.69377136230469 3.9582769870758057 35.31597900390625 75 205 254
-74.69732666015625 6.422120094299316 41.0995979309082 75 205 254
-74.70328521728516 5.545363426208496 34.22795486450195 75 205 254
-74.70497131347656 5.825991630554199 38.70356369018555 75 205 254
-74.7056655883789 5.350068092346191 32.754249572753906 75 205 254
-74.70687866210938 3.9274070262908936 34.89226150512695 75 205 254
-74.72042846679688 4.538919925689697 36.15207290649414 75 204 254
-74.7293472290039 4.592237949371338 33.416690826416016 74 205 254
-74.73587036132812 5.447244167327881 33.237327575683594 75 205 254
-74.74171447753906 4.219662189483643 37.162296295166016 75 205 254
-74.74844360351562 3.6205220222473145 36.42960739135742 75 205 254
-74.74956512451172 3.5667965412139893 36.02598190307617 75 205 254
-74.74981689453125 5.493427276611328 33.70596694946289 75 205 254
-7.475008010864258 6.3096795082092285 45.62654495239258 75 205 254
-74.76068115234375 4.508986473083496 35.77812576293945 74 205 254
-74.76451873779297 5.281317710876465 38.94404602050781 75 205 254
-74.76954650878906 4.844626426696777 33.25840759277344 74 204 254
-74.77251434326172 4.824792385101318 32.401302337646484 75 205 254
-74.77497863769531 5.614722728729248 32.723751068115234 75 205 254
-74.78240203857422 5.9974284172058105 40.00901412963867 75 204 254
-74.78571319580078 4.95291805267334 34.234710693359375 74 204 254
-74.79325103759766 5.722663402557373 37.705657958984375 75 205 254
-74.79669189453125 5.691838264465332 37.33494186401367 74 205 254
-74.79686737060547 5.011898040771484 34.750587463378906 74 205 254
-74.80101776123047 4.30880069732666 37.83289337158203 75 205 254
-74.8044662475586 4.911579132080078 33.73968505859375 74 204 254
-74.80826568603516 3.5372707843780518 35.57307052612305 75 205 254
-74.81260681152344 5.073528289794922 35.241268157958984 74 204 254
-74.81731414794922 4.466097354888916 35.247501373291016 75 205 254
-74.82318878173828 5.524790287017822 38.696964263916016 74 205 254
-74.82510375976562 5.312987804412842 37.217830657958984 74 204 254
-74.82889556884766 5.7933125495910645 33.79096984863281 75 205 254
-74.8290786743164 5.385109901428223 37.7250862121582 74 204 254
-74.8305892944336 5.464662075042725 38.19087219238281 74 204 254
-74.8330078125 5.128899097442627 35.74241638183594 74 204 254
-74.8343276977539 5.731637954711914 33.32256317138672 75 205 254
-74.83845520019531 5.83121395111084 36.73044967651367 75 205 254
-7.484262943267822 9.813163757324219 51.05231475830078 75 204 254
-74.84455108642578 5.72534704208374 35.71601867675781 75 205 254
-74.85258483886719 5.258160591125488 36.72262954711914 74 204 254
-74.85673522949219 5.865050315856934 34.29775619506836 75 205 254
-74.8580093383789 5.20358419418335 36.245826721191406 74 204 254
-74.8589859008789 5.578632354736328 39.18363571166992 74 204 254
-74.8615493774414 5.687928199768066 35.25181579589844 75 205 254
-74.8628158569336 4.436127662658691 34.804080963134766 74 204 254
-74.86376953125 4.379800319671631 34.246681213378906 74 204 254
-7.4865403175354 10.867050170898438 48.938201904296875 75 205 254
-74.86570739746094 6.017595291137695 38.212303161621094 75 205 254
-74.86644744873047 5.679210186004639 32.80019760131836 75 205 254
-74.87133026123047 6.009194850921631 35.77198791503906 75 205 254
-74.87606048583984 6.208672523498535 32.833091735839844 75 205 254
-74.87623596191406 5.952714443206787 37.70983123779297 75 205 254
-74.88109588623047 6.116806507110596 38.72496032714844 75 205 254
-74.88615417480469 6.254932403564453 33.39222717285156 75 205 254
-74.89046478271484 5.790802001953125 36.22020721435547 75 205 254
-74.89147186279297 5.967661380767822 35.27986526489258 75 205 254
-74.89224243164062 5.913419723510742 37.230369567871094 75 205 254
-74.8971176147461 5.661494731903076 34.784523010253906 74 205 254
-74.90219116210938 5.935722827911377 34.798519134521484 75 205 254
-74.91949462890625 4.758786678314209 37.2661018371582 75 204 254
-74.92423248291016 4.825862884521484 37.70733642578125 75 204 254
-7.492648601531982 6.912927150726318 48.63055419921875 75 205 254
-74.9280776977539 4.370188236236572 33.927547454833984 75 205 254
-74.93109893798828 4.689782619476318 36.76744842529297 75 204 254
-74.93170928955078 6.168832302093506 39.209739685058594 75 205 254
-74.93485260009766 6.353302955627441 34.36046600341797 75 205 254
-74.94024658203125 4.635569095611572 36.29519271850586 75 204 254
-74.9435806274414 6.322933197021484 33.8735466003418 75 205 254
-74.94478607177734 6.080563545227051 36.32276153564453 75 205 254
-74.94640350341797 5.678932189941406 37.05282211303711 75 204 254
-74.9525146484375 6.231464385986328 37.770355224609375 75 205 254
-74.95425415039062 5.623401641845703 34.24076461791992 74 205 254
-74.95563507080078 6.121728420257568 36.74580383300781 75 205 254
-74.96247863769531 5.593345642089844 33.923797607421875 75 205 254
-7.49692440032959 9.469767570495605 47.72545623779297 75 205 254
-7.497041702270508 9.189770698547363 46.727840423583984 75 204 254
-74.97280883789062 6.845276355743408 41.62055206298828 75 205 254
-7.497525691986084 8.84348201751709 50.94624710083008 75 205 254
-74.97632598876953 5.645594596862793 36.694244384765625 75 205 254
-74.97926330566406 6.412242412567139 34.869327545166016 75 205 254
-74.97953033447266 4.585488796234131 35.76915740966797 74 204 254
-74.99034118652344 3.3801562786102295 36.262779235839844 75 204 254
-74.99097442626953 6.604592323303223 36.852596282958984 75 205 254
-7.499142169952393 6.909016132354736 46.29664611816406 74 204 254
-74.99292755126953 6.175100326538086 37.28776550292969 75 205 254
-74.99857330322266 6.4314422607421875 35.34300994873047 75 205 254
-75.00035858154297 5.300960063934326 33.210968017578125 75 205 254
-75.00289154052734 6.573256015777588 36.35083770751953 75 205 254
-75.00466918945312 6.309887409210205 38.27237319946289 75 205 254
-75.0190200805664 3.359517812728882 36.019256591796875 74 205 254
-75.02418518066406 5.240649700164795 38.17604446411133 75 204 254
-75.03055572509766 4.711254119873047 33.718780517578125 74 204 254
-75.03152465820312 5.237689971923828 32.737388610839844 75 205 254
-75.03173828125 5.392997741699219 34.19643783569336 75 205 254
-75.03309631347656 6.487112522125244 35.848350524902344 75 205 254
-75.03680419921875 4.7805891036987305 34.213260650634766 75 204 254
-75.03865814208984 5.600821018218994 36.167930603027344 75 205 254
-75.03885650634766 5.450766086578369 34.68764877319336 75 205 254
-75.03961181640625 5.346089839935303 33.69028854370117 74 205 254
-75.0463638305664 4.877376079559326 35.19164276123047 74 204 254
-75.05311584472656 5.042455196380615 36.68896484375 74 204 254
-75.0537338256836 5.655920028686523 39.51941680908203 75 204 254
-75.05662536621094 4.552229881286621 35.2652473449707 74 204 254
-75.058349609375 5.114805221557617 37.176761627197266 74 204 254
-75.066162109375 5.515092372894287 35.199039459228516 75 205 254
-75.06755828857422 5.1786088943481445 37.69313430786133 74 204 254
-75.0696029663086 4.988422393798828 36.18526077270508 74 204 254
-75.07036590576172 4.817813396453857 34.69527053833008 74 204 254
-75.07164764404297 5.573859214782715 33.54168701171875 75 204 254
-75.07305908203125 6.965543270111084 41.320098876953125 75 205 254
-75.07382202148438 5.350611686706543 38.67918395996094 75 204 254
-75.07870483398438 4.471892356872559 34.3148307800293 74 205 254
-75.07935333251953 4.937106132507324 35.695369720458984 75 204 254
-75.08911895751953 4.504106521606445 34.74156951904297 74 204 254
-75.09540557861328 5.559063911437988 35.67033767700195 75 205 254
-75.1021728515625 4.430361270904541 37.85773468017578 75 205 254
-75.1029052734375 4.425732612609863 33.794822692871094 74 205 254
-75.10450744628906 4.696051597595215 33.28668975830078 75 205 254
-75.10636901855469 6.696178436279297 37.337642669677734 74 205 254
-75.10772705078125 5.381916046142578 39.04710388183594 75 205 254
-75.10868835449219 6.001903533935547 39.16292190551758 75 205 254
-75.11093139648438 4.306888103485107 36.82241439819336 75 204 254
-75.11398315429688 5.656628131866455 32.57703399658203 75 205 254
-75.11422729492188 5.55345344543457 33.20478057861328 74 205 254
-75.12116241455078 6.735252857208252 37.82661819458008 75 205 254
-75.12251281738281 5.8834228515625 38.15106201171875 75 205 254
-75.1267318725586 5.822038650512695 37.65257263183594 74 204 254
-75.1335678100586 5.50365686416626 32.735076904296875 75 205 254
-75.13663482666016 4.247764587402344 36.325233459472656 75 205 254
-75.13683319091797 5.766091823577881 37.20993423461914 75 205 254
-75.14075469970703 4.181462287902832 35.824798583984375 75 204 254
-75.1466293334961 5.9764251708984375 38.684234619140625 75 205 254
-7.514988422393799 7.198956489562988 50.07169723510742 75 204 254
-75.15180206298828 4.390895843505859 37.262638092041016 75 204 254
-75.1526107788086 6.114366054534912 39.68410873413086 74 205 254
-7.5169830322265625 9.510919570922852 48.21455001831055 74 204 254
-7.517537593841553 9.576207160949707 46.47659683227539 75 205 254
-7.517740726470947 9.574570655822754 46.41949462890625 75 205 254
-75.17794036865234 4.08563232421875 34.82172393798828 75 205 254
-75.18399810791016 4.134819984436035 35.338565826416016 75 204 254
-75.18954467773438 3.400988817214966 35.72408676147461 75 205 254
-75.19352722167969 3.800076723098755 36.51698684692383 75 205 254
-75.19355010986328 6.291722774505615 32.53096008300781 75 204 254
-7.5208048820495605 6.028818607330322 45.14317321777344 74 205 254
-75.21598815917969 3.742222785949707 36.0196418762207 75 205 254
-75.21627807617188 5.710195541381836 39.23969650268555 75 205 254
-75.21903991699219 6.146294116973877 40.05620193481445 75 205 254
-75.22190856933594 5.725975513458252 36.71718978881836 75 205 254
-75.22293090820312 3.478461742401123 36.30453109741211 75 205 254
-75.22372436523438 5.7194929122924805 32.29068374633789 75 205 254
-75.23577117919922 5.7066168785095215 34.22272872924805 75 205 254
-75.23689270019531 6.344614505767822 33.30735778808594 74 205 254
-7.524789810180664 10.92672061920166 49.46770095825195 75 205 254
-75.24972534179688 3.695754051208496 35.52384567260742 75 205 254
-75.24972534179688 5.00360107421875 33.240264892578125 74 205 254
-75.25241088867188 5.798040866851807 35.20315933227539 75 205 254
-75.25350952148438 6.3108062744140625 32.84183883666992 74 205 254
-75.25765991210938 3.447232723236084 35.98188400268555 75 204 254
-75.26165008544922 5.761955261230469 34.702613830566406 75 205 254
-7.526261806488037 9.236258506774902 48.58038330078125 75 205 254
-7.526664733886719 6.656044960021973 47.33610534667969 75 204 254
-75.2697982788086 5.611737251281738 38.176979064941406 75 205 254
-75.26988220214844 4.513675212860107 38.101097106933594 74 205 254
-75.27012634277344 5.745734691619873 39.60326385498047 74 205 254
-75.2718734741211 4.083498001098633 34.4819221496582 74 205 254
-75.27571105957031 5.166415214538574 34.731754302978516 74 205 254
-7.528105735778809 7.59726619720459 49.21583938598633 75 204 254
-75.2814712524414 5.8565826416015625 35.704837799072266 75 205 254
-75.28233337402344 5.662313461303711 33.711273193359375 75 205 254
-75.28673553466797 3.4347028732299805 35.6989860534668 74 205 254
-75.28697204589844 5.270287990570068 35.715965270996094 74 204 254
-7.52887487411499 10.751533508300781 47.85441970825195 74 205 254
-75.29151153564453 5.395328521728516 36.72283935546875 74 204 254
-7.529319763183594 10.177939414978027 48.68336486816406 74 204 254
-75.2940902709961 5.664401054382324 38.65447235107422 75 205 254
-75.29928588867188 5.067570209503174 33.71383285522461 74 205 254
-75.30020904541016 4.957029342651367 32.753814697265625 74 205 254
-75.30162048339844 6.419627666473389 33.82295608520508 74 205 254
-75.30256652832031 5.341685771942139 36.20394515991211 74 204 254
-75.30413818359375 5.119449138641357 34.21831512451172 74 204 254
-75.30485534667969 5.864556789398193 33.274879455566406 75 205 254
-75.3055191040039 5.229433536529541 35.197303771972656 74 204 254
-75.30670928955078 5.608172416687012 33.20084762573242 74 205 254
-75.30787658691406 5.686006546020508 36.17139434814453 74 205 254
-75.30888366699219 6.504170894622803 34.85873031616211 74 205 254
-75.31277465820312 6.049868583679199 34.762996673583984 75 205 254
-75.3153305053711 5.935680389404297 33.7747917175293 75 205 254
-75.32235717773438 5.800268650054932 32.789207458496094 75 205 254
-7.532525539398193 7.301964282989502 50.61318588256836 75 204 254
-75.32593536376953 6.458432674407959 34.310455322265625 74 205 254
-75.32709503173828 5.9704179763793945 36.6832389831543 75 205 254
-75.3289566040039 3.923818349838257 37.02915954589844 74 204 254
-7.53294038772583 7.001232624053955 49.25642776489258 75 205 254
-75.33088684082031 5.924821853637695 36.22531509399414 75 205 254
-75.33404541015625 5.472238540649414 37.18224334716797 74 205 254
-75.34320068359375 6.010537147521973 34.303951263427734 75 205 254
-75.35124206542969 3.693861246109009 35.1917724609375 74 204 254
-75.3559799194336 5.554701328277588 37.68846130371094 74 205 254
-75.3570556640625 6.702054977416992 36.79115676879883 74 205 254
-75.3576431274414 6.099143028259277 37.70405960083008 75 205 254
-7.536118030548096 10.688873291015625 44.98263168334961 75 205 254
-75.3652114868164 6.672919750213623 36.361629486083984 74 205 254
-75.36927032470703 6.194575309753418 36.237632751464844 75 205 254
-75.36988830566406 6.059676647186279 37.198673248291016 75 205 254
-75.37207794189453 6.528626918792725 35.327003479003906 74 205 254
-75.37261199951172 5.096117973327637 38.74765396118164 74 205 254
-75.3739013671875 6.2654337882995605 38.70339584350586 75 205 254
-75.37519836425781 4.555915832519531 38.17356491088867 74 205 254
-7.537544250488281 8.700322151184082 47.39497375488281 74 205 254
-75.37767028808594 5.609424591064453 35.19679641723633 74 205 254
-75.37767791748047 6.583141326904297 35.835086822509766 74 205 254
-75.38307189941406 5.591190338134766 32.76777648925781 74 205 254
-75.38954162597656 4.523846626281738 37.61210632324219 75 204 254
-75.39236450195312 4.988966464996338 37.724525451660156 74 204 254
-75.39437866210938 6.167631149291992 35.800018310546875 75 205 254
-75.39557647705078 6.171126842498779 38.17604064941406 75 205 254
-75.39714813232422 6.1134419441223145 35.239864349365234 75 205 254
-75.40697479248047 4.921919822692871 37.234134674072266 74 204 254
-75.40934753417969 4.847015380859375 36.733734130859375 74 204 254
-75.41390228271484 5.640309810638428 35.529109954833984 75 204 254
-75.41667938232422 6.303221225738525 39.1701545715332 74 205 254
-75.4184341430664 6.811852931976318 37.8336067199707 74 205 254
-75.42320251464844 4.792202472686768 36.23396301269531 75 204 254
-75.42559814453125 4.48969030380249 37.28316116333008 75 205 254
-75.42601776123047 4.737090110778809 35.76790237426758 75 204 254
-75.43742370605469 6.2644853591918945 36.753929138183594 75 205 254
-75.43761444091797 4.5204386711120605 33.77689743041992 74 204 254
-75.44189453125 4.681640148162842 35.24741744995117 75 204 254
-75.44193267822266 4.58524751663208 34.253150939941406 75 204 254
-75.44279479980469 6.77855110168457 37.329158782958984 74 205 254
-75.44339752197266 5.79154109954834 39.15107345581055 75 205 254
-75.44437408447266 6.3011393547058105 37.266143798828125 75 205 254
-75.44783782958984 5.076176643371582 38.0986213684082 74 205 254
-75.44871520996094 5.571435451507568 34.64289093017578 75 205 254
-75.45545959472656 6.370137691497803 37.74660873413086 75 205 254
-7.546145915985107 6.1562700271606445 44.56963348388672 74 204 254
-75.4627914428711 5.756674289703369 38.81941604614258 74 205 254
-75.46408081054688 4.623476028442383 34.74795150756836 75 204 254
-75.46508026123047 5.525095462799072 34.15345001220703 75 205 254
-75.47441101074219 6.7422285079956055 41.46046447753906 75 205 254
-75.47528076171875 5.386631011962891 32.70976257324219 75 205 254
-75.47817993164062 5.711979866027832 38.27616500854492 74 205 254
-75.47908020019531 5.434092044830322 33.20737838745117 74 205 254
-75.47936248779297 5.831344127655029 39.5986442565918 75 205 254
-75.48297119140625 6.446164131164551 38.229461669921875 75 205 254
-75.49004364013672 3.176821231842041 36.245140075683594 75 205 254
-75.50579071044922 4.444397449493408 36.79500961303711 74 204 254
-75.51692962646484 5.2670578956604 37.17338943481445 74 204 254
-75.51923370361328 4.869274616241455 33.69317626953125 74 204 254
-75.52489471435547 5.5054168701171875 38.65578079223633 74 205 254
-75.52944946289062 5.137849807739258 36.175743103027344 74 204 254
-75.5304183959961 3.5488364696502686 35.980342864990234 75 205 254
-75.53243255615234 3.6115739345550537 36.396968841552734 75 205 254
-75.53326416015625 5.487987041473389 33.65841293334961 75 205 254
-75.53723907470703 5.083679676055908 35.694087982177734 74 204 254
-75.53872680664062 4.974098205566406 34.69158172607422 74 205 254
-75.54019927978516 4.829168796539307 33.20714569091797 74 204 254
-75.54341888427734 5.7586212158203125 36.18279266357422 75 205 254
-75.5486831665039 5.042788982391357 35.1900749206543 74 204 254
-75.54914093017578 5.535447120666504 39.11935806274414 75 205 254
-75.55188751220703 4.936971187591553 34.192970275878906 74 204 254
-75.55310821533203 5.334561824798584 37.673667907714844 75 205 254
-75.55664825439453 5.205747127532959 36.652687072753906 74 204 254
-75.55799102783203 5.411352634429932 38.16216278076172 74 205 254
-75.5810775756836 5.710183620452881 35.67134475708008 75 205 254
-75.5873031616211 6.015113353729248 38.13520050048828 75 205 254
-7.558812618255615 9.77699089050293 50.54308319091797 75 204 254
-75.5910415649414 5.827489852905273 36.64385223388672 75 205 254
-75.59400939941406 4.557130813598633 33.44751739501953 74 205 254
-75.59619903564453 6.117489814758301 38.622528076171875 75 205 254
-75.60213470458984 4.407901763916016 36.29453659057617 75 204 254
-75.60256958007812 5.134343147277832 38.98493194580078 75 205 254
-75.60380554199219 5.900885581970215 37.177894592285156 75 205 254
-75.61104583740234 6.247829914093018 39.66691970825195 75 205 254
-75.61500549316406 3.549801826477051 35.6132698059082 75 205 254
-7.561689376831055 10.811412811279297 48.50088119506836 75 205 254
-75.61760711669922 6.820711612701416 41.52073287963867 75 204 254
-75.62493133544922 5.685034275054932 38.020660400390625 74 205 254
-75.62506103515625 5.972162246704102 37.658180236816406 75 205 254
-75.62705993652344 4.627066612243652 37.73219680786133 75 205 254
-75.62799835205078 4.35244083404541 35.81245803833008 75 204 254
-7.563305854797363 10.174788475036621 49.166786193847656 75 205 254
-75.63361358642578 4.674312591552734 38.30061721801758 75 205 254
-75.63985443115234 6.16628885269165 39.15224075317383 75 205 254
-75.64002990722656 5.684004783630371 35.169166564941406 75 205 254
-7.564749240875244 10.111920356750488 45.2099494934082 74 205 254
-75.64788055419922 6.293939113616943 40.11455535888672 75 205 254
-7.565210819244385 9.211570739746094 47.086639404296875 74 204 254
-7.565676689147949 6.611636638641357 48.069091796875 74 205 254
-7.5656843185424805 6.744930744171143 47.69291305541992 75 205 254
-7.566167831420898 10.823554039001465 45.457401275634766 75 205 254
-75.66566467285156 4.57605504989624 37.28642654418945 74 205 254
-75.66654205322266 4.048488616943359 37.02170181274414 75 205 254
-75.6699447631836 5.643701076507568 34.67725372314453 74 205 254
-75.67079162597656 4.253751277923584 34.8267822265625 75 204 254
-75.67160034179688 4.308884143829346 35.33687973022461 75 204 254
-75.67546844482422 3.981222629547119 36.55126190185547 75 205 254
-75.67768096923828 4.208744049072266 34.34678268432617 75 204 254
-75.68310546875 6.818039417266846 41.58352279663086 75 205 254
-75.68407440185547 5.674549579620361 39.487911224365234 75 205 254
-75.68970489501953 5.621153354644775 38.78830337524414 75 205 254
-75.69100952148438 5.672474384307861 32.68777847290039 75 205 254
-75.69109344482422 4.104672908782959 37.39324188232422 74 205 254
-75.69625854492188 5.785732746124268 33.695701599121094 75 205 254
-75.6968765258789 5.636793613433838 39.41669464111328 75 205 254
-75.70577239990234 5.6634602546691895 37.63832092285156 75 205 254
-7.570594787597656 8.730561256408691 47.756107330322266 75 205 254
-75.70598602294922 3.9251325130462646 36.03663635253906 75 205 254
-7.572662353515625 10.342147827148438 50.163429260253906 75 205 254
-75.72838592529297 5.730561256408691 33.18154525756836 75 205 254
-75.7295150756836 5.621013641357422 34.25442123413086 74 205 254
-7.573138236999512 6.337113857269287 46.354209899902344 75 205 254
-75.73802185058594 3.873497486114502 35.533512115478516 75 205 254
-75.74347686767578 5.586084842681885 33.886871337890625 75 205 254
-75.74957275390625 5.829591751098633 32.282588958740234 75 205 254
-75.7499008178711 5.853456974029541 34.16533279418945 75 205 254
-7.574999809265137 8.837499618530273 49.226558685302734 74 204 254
-7.575061798095703 9.553797721862793 48.704349517822266 74 205 254
-75.75228118896484 5.310947418212891 34.6824836730957 74 205 254
-75.75333404541016 4.537964820861816 36.82676315307617 75 205 254
-75.7557601928711 5.41422700881958 35.6861457824707 74 205 254
-75.7587890625 6.37831974029541 40.500118255615234 74 205 254
-75.76049041748047 5.9078593254089355 34.695472717285156 75 205 254
-75.76136016845703 5.103064060211182 32.70209884643555 74 204 254
-75.7633056640625 5.997845649719238 35.687232971191406 75 205 254
-75.76810455322266 5.539201736450195 36.6866340637207 74 205 254
-75.77034759521484 5.930468559265137 39.640357971191406 74 205 254
-75.77056121826172 5.6272053718566895 32.233795166015625 74 205 254
-75.77169799804688 5.652709007263184 38.90696716308594 75 205 254
-75.77529907226562 5.378249645233154 35.213375091552734 74 205 254
-75.7769546508789 5.263580799102783 34.201358795166016 74 204 254
-75.77764892578125 5.168384552001953 33.19478225708008 74 205 254
-75.7792739868164 3.8358206748962402 35.06407165527344 75 205 254
-75.78106689453125 5.490842819213867 36.16093826293945 75 205 254
-75.78352355957031 5.612565994262695 37.19404983520508 74 205 254
-75.78361511230469 5.947996139526367 35.163082122802734 75 205 254
-75.7898941040039 5.221549987792969 33.714447021484375 74 205 254
-75.79204559326172 5.547850608825684 33.48040771484375 75 205 254
-75.8031234741211 5.8338518142700195 38.6524772644043 74 205 254
-75.80364990234375 6.183215618133545 37.155487060546875 75 205 254
-75.8038558959961 6.133432865142822 34.19596481323242 75 205 254
-7.580418586730957 6.461040496826172 46.10888671875 75 205 254
-75.80937194824219 5.920542240142822 39.1808967590332 74 205 254
-7.580938816070557 6.7142653465271 47.60209274291992 75 205 254
-75.81443786621094 5.946993350982666 32.76837158203125 75 205 254
-75.81838989257812 5.486834526062012 32.67121505737305 74 205 254
-75.82231140136719 5.067678451538086 32.331783294677734 75 205 254
-75.8236312866211 5.7975358963012695 38.2344970703125 74 205 254
-75.82799530029297 6.198205471038818 34.72764205932617 75 205 254
-75.8299331665039 6.021275520324707 33.25284194946289 75 205 254
-75.83141326904297 4.509181976318359 36.454647064208984 75 204 254
-75.83307647705078 6.067314624786377 36.169490814208984 75 205 254
-75.8361587524414 6.085869312286377 33.75293731689453 75 205 254
-75.83838653564453 6.387662887573242 38.67399597167969 75 205 254
-75.84053802490234 6.296382427215576 38.137813568115234 75 205 254
-75.84083557128906 6.236249923706055 37.61864471435547 75 205 254
-75.84829711914062 6.120192050933838 36.64763641357422 75 205 254
-75.85411071777344 3.3067877292633057 36.146602630615234 74 205 254
-7.5856733322143555 9.74588680267334 50.170108795166016 75 205 254
-75.86168670654297 5.529317855834961 33.13613510131836 74 205 254
-7.586268901824951 6.157162189483643 44.88101577758789 74 205 254
-75.87046813964844 4.470370292663574 36.073795318603516 75 205 254
-75.87195587158203 5.3186116218566895 38.817081451416016 75 205 254
-75.87252044677734 6.339984893798828 36.252296447753906 75 205 254
-75.87407684326172 4.718881607055664 34.24826431274414 74 204 254
-75.87779998779297 5.079187393188477 37.22764587402344 74 204 254
-75.87922668457031 6.303609848022461 35.73003005981445 75 205 254
-7.588128089904785 9.272488594055176 49.160892486572266 75 205 254
-75.8832015991211 5.006569862365723 36.745323181152344 74 204 254
-7.588379383087158 9.209797859191895 48.155887603759766 74 204 254
-75.88546752929688 5.156976222991943 37.73392868041992 74 204 254
-7.589052200317383 9.866120338439941 51.82811737060547 75 205 254
-75.89111328125 4.884268760681152 35.7374153137207 75 204 254
-75.89205932617188 6.452136516571045 39.13446044921875 75 205 254
-7.589262008666992 8.753060340881348 48.161678314208984 74 204 254
-75.89521789550781 5.985426425933838 39.975685119628906 74 205 254
-75.89572143554688 5.660743236541748 39.22273635864258 74 205 254
-75.896728515625 4.832871437072754 35.2406005859375 74 204 254
-75.9061050415039 5.233241558074951 38.214149475097656 75 204 254
-75.91008758544922 6.262512683868408 35.23698043823242 75 205 254
-75.91153717041016 4.445230960845947 35.756431579589844 74 205 254
-75.91364288330078 3.3807013034820557 36.48738479614258 74 205 254
-75.92290496826172 4.2504119873046875 34.06333541870117 75 205 254
-75.9242172241211 4.682465076446533 33.74197769165039 75 204 254
-75.92509460449219 6.605881214141846 40.60810470581055 75 205 254
-75.92718505859375 4.959183216094971 36.224979400634766 74 204 254
-75.92819213867188 4.777212619781494 34.73811721801758 74 204 254
-7.593363285064697 6.1109089851379395 44.81638717651367 74 204 254
-75.94556427001953 6.409875392913818 36.73359298706055 75 205 254
-75.94688415527344 4.643142223358154 33.317771911621094 74 205 254
-75.95018768310547 5.7539262771606445 37.72108459472656 74 205 254
-7.595377445220947 11.031664848327637 49.827178955078125 74 204 254
-75.95423889160156 6.5019001960754395 37.70624542236328 75 205 254
-75.95824432373047 3.866793394088745 34.77064895629883 74 205 254
-75.97333526611328 5.702080726623535 39.46214294433594 74 205 254
-75.97390747070312 3.7957839965820312 36.523014068603516 75 205 254
-75.97502136230469 6.451487064361572 37.19628143310547 75 205 254
-75.97540283203125 4.397397518157959 35.19893264770508 74 205 254
-75.97615051269531 6.645720481872559 38.701873779296875 75 205 254
-75.97638702392578 5.693560600280762 38.82202911376953 75 205 254
-75.97955322265625 5.624571323394775 33.65035629272461 75 205 254
-75.98210144042969 5.356666088104248 39.02070236206055 75 205 254
-7.598291397094727 6.376002311706543 46.12862014770508 75 205 254
-7.598804473876953 10.22288990020752 49.7008056640625 75 205 254
-75.9908676147461 6.586949825286865 38.179107666015625 75 205 254
-7.599832057952881 6.961860656738281 46.802032470703125 74 204 254
-76.00077056884766 5.689477443695068 34.142086029052734 75 205 254
-7.600550174713135 9.595861434936523 49.21161651611328 75 205 254
-76.00828552246094 5.720217704772949 37.40210723876953 75 205 254
-76.01207733154297 5.746074676513672 34.67138671875 75 205 254
-76.01219940185547 5.071340560913086 34.15812683105469 74 205 254
-76.01941680908203 5.621370315551758 38.594844818115234 75 205 254
-76.01962280273438 5.89832878112793 36.146209716796875 75 205 254
-76.02049255371094 5.236569404602051 35.66074752807617 74 205 254
-76.02338409423828 5.0448832511901855 33.682464599609375 74 205 254
-76.023681640625 3.740591287612915 36.029415130615234 75 205 254
-76.02484130859375 3.4267311096191406 36.500343322753906 75 205 254
-76.02601623535156 5.3619184494018555 36.687644958496094 74 204 254
-76.02781677246094 5.134143829345703 34.658329010009766 74 205 254
-76.029541015625 4.975436687469482 33.17061996459961 74 204 254
-76.03053283691406 5.797341346740723 35.137027740478516 75 205 254
-76.03343200683594 5.569655418395996 38.18303680419922 75 205 254
-76.0355453491211 5.426126003265381 37.129188537597656 74 204 254
-76.0357894897461 4.8494486808776855 38.356834411621094 74 204 254
-76.04122161865234 3.3467493057250977 35.90648651123047 74 205 254
-76.04129791259766 4.325224876403809 34.30126953125 74 204 254
-76.04654693603516 4.938782215118408 32.71062469482422 74 205 254
-76.04798889160156 4.37631893157959 34.80241394042969 74 205 254
-76.0494384765625 5.50167179107666 37.647647857666016 74 205 254
-76.05079650878906 4.782409191131592 37.7797966003418 74 204 254
-76.05320739746094 5.2042717933654785 35.1829948425293 74 205 254
-76.05433654785156 5.30700159072876 36.16506576538086 74 205 254
-76.05445098876953 5.8527631759643555 35.641807556152344 75 205 254
-76.06275177001953 5.7467474937438965 39.08231735229492 74 205 254
-76.06287384033203 5.557491779327393 32.66897964477539 75 205 254
-76.066162109375 3.7021400928497314 35.537208557128906 75 205 254
-76.067626953125 4.720819473266602 37.31576156616211 75 204 254
-76.068359375 6.256798267364502 38.62584686279297 75 205 254
-76.07337951660156 5.976511001586914 36.65247344970703 75 205 254
-76.0761489868164 6.037766933441162 37.115360260009766 75 205 254
-76.08397674560547 4.299400806427002 33.98539352416992 75 205 254
-76.08452606201172 5.782223224639893 39.58722686767578 75 205 254
-76.08773040771484 3.405040740966797 36.186363220214844 75 205 254
-76.09722900390625 6.165400981903076 38.13640213012695 75 205 254
-76.09835815429688 4.652273654937744 36.797367095947266 75 204 254
-76.0991439819336 4.583009243011475 36.30481719970703 75 204 254
-76.1055908203125 6.371292591094971 39.62087631225586 75 205 254
-76.10663604736328 5.60068416595459 33.12800216674805 75 205 254
-76.10753631591797 6.320077896118164 39.11366653442383 75 205 254
-7.610758304595947 9.820303916931152 51.29518508911133 75 204 254
-76.11486053466797 6.118724346160889 37.62809371948242 75 205 254
-76.11526489257812 5.926200866699219 32.208309173583984 74 205 254
-76.11814880371094 6.453718185424805 40.138431549072266 75 205 254
-76.11918640136719 6.093263149261475 33.195865631103516 74 205 254
-76.12047576904297 4.218745231628418 37.0594367980957 75 205 254
-76.1209487915039 5.700835704803467 37.11238479614258 74 205 254
-76.1218490600586 4.278204441070557 37.52315902709961 75 204 254
-76.12588500976562 3.9181811809539795 36.90408706665039 75 205 254
-76.13529968261719 3.3798723220825195 35.880348205566406 74 205 254
-76.1430892944336 6.030219078063965 32.715911865234375 74 205 254
-76.14395141601562 4.148280143737793 36.545433044433594 75 204 254
-76.144287109375 5.544585704803467 32.29014587402344 74 205 254
-76.14656829833984 4.532217502593994 35.8155632019043 74 204 254
-76.14842224121094 4.88329553604126 38.618865966796875 75 205 254
-76.1549301147461 5.806413650512695 32.66679382324219 75 205 254
-76.1685791015625 5.921141147613525 33.649208068847656 75 205 254
-76.1751480102539 5.7448859214782715 32.154022216796875 75 205 254
-76.17710876464844 6.503578186035156 40.57452392578125 75 205 254
-76.18101501464844 5.663991928100586 36.65896987915039 75 205 254
-76.1862564086914 5.620230674743652 36.1847038269043 75 205 254
-76.19708251953125 5.235802173614502 32.6763916015625 74 205 254
-76.19901275634766 4.495720863342285 35.34517288208008 74 204 254
-76.20000457763672 4.103890895843506 36.044525146484375 75 204 254
-76.20594024658203 5.170220851898193 32.20195770263672 74 205 254
-76.20712280273438 5.874585151672363 33.18446350097656 75 205 254
-76.20851135253906 3.738555431365967 35.214969635009766 75 205 254
-76.20999145507812 6.068174362182617 35.169151306152344 75 205 254
-76.21028900146484 6.030735969543457 34.632896423339844 75 205 254
-76.21288299560547 4.045636177062988 35.56804656982422 75 205 254
-76.22135925292969 5.349310874938965 33.689334869384766 75 205 254
-76.22571563720703 5.299460411071777 33.16526412963867 74 205 254
-7.6226067543029785 10.851268768310547 45.91925811767578 75 204 254
-76.22972869873047 5.401717662811279 34.18490219116211 75 205 254
-76.23403930664062 3.9977149963378906 35.045692443847656 75 205 254
-76.23465728759766 4.437600612640381 34.81615447998047 74 204 254
-76.24654388427734 5.564859390258789 35.650611877441406 75 205 254
-76.24674987792969 5.519489765167236 35.17864227294922 75 205 254
-76.24750518798828 5.993401527404785 34.163124084472656 75 205 254
-76.24755859375 5.460017681121826 34.64173126220703 75 205 254
-76.25723266601562 4.398614883422852 34.327972412109375 74 204 254
-76.25849151611328 6.602677345275879 40.90324783325195 75 204 254
-76.26712036132812 4.394424915313721 37.897132873535156 74 205 254
-76.2706069946289 5.993938446044922 38.63075256347656 75 205 254
-76.27793884277344 6.141759395599365 35.62562942504883 75 205 254
-76.28209686279297 5.918083190917969 38.17222213745117 75 205 254
-76.28323364257812 5.690925121307373 38.50824737548828 75 205 254
-76.29116821289062 6.246119022369385 36.648136138916016 75 205 254
-7.629404067993164 9.299145698547363 49.53112030029297 75 205 254
-76.29711151123047 3.969585657119751 34.674930572509766 74 204 254
-76.29712677001953 6.20059061050415 36.1390380859375 75 205 254
-76.29816436767578 6.118610382080078 39.638545989990234 75 205 254
-76.30229187011719 6.429847240447998 38.133785247802734 75 205 254
-76.30374908447266 5.849315643310547 37.62161636352539 74 205 254
-76.3119125366211 6.329916477203369 37.11324691772461 75 205 254
-76.31529235839844 6.151455879211426 40.102386474609375 75 205 254
-76.3165283203125 5.49859094619751 39.13766098022461 75 204 254
-76.31731414794922 5.7716827392578125 37.17466735839844 75 205 254
-76.3178939819336 6.384799957275391 37.67357635498047 75 205 254
-76.32260131835938 6.788200378417969 39.15281677246094 74 205 254
-76.32289123535156 5.461372375488281 38.644676208496094 74 204 254
-76.32882690429688 4.376094818115234 33.91853332519531 75 205 254
-76.32984924316406 6.073637008666992 39.146812438964844 75 205 254
-76.34260559082031 3.506164073944092 36.23276138305664 74 205 254
-7.634693145751953 9.256464004516602 47.65797424316406 75 205 254
-76.35124969482422 6.734018325805664 40.61819076538086 75 205 254
-76.3570327758789 3.57199764251709 36.614219665527344 75 205 254
-76.36319732666016 5.370898723602295 38.1958122253418 74 205 254
-76.36712646484375 6.523234844207764 38.60904312133789 75 205 254
-76.36869049072266 5.2396979331970215 37.21754455566406 74 205 254
-7.637291431427002 10.393733978271484 50.44991683959961 75 205 254
-76.37296295166016 5.314387321472168 37.722984313964844 74 204 254
-76.37854766845703 6.608424663543701 39.094818115234375 75 205 254
-76.38583374023438 4.76625919342041 33.20515060424805 74 205 254
-76.38653564453125 5.656581401824951 38.032981872558594 74 205 254
-76.38697052001953 4.996884346008301 35.25651550292969 74 204 254
-76.38919067382812 5.10842752456665 36.24570846557617 74 204 254
-76.39178466796875 5.043234348297119 35.73720932006836 74 204 254
-7.639562129974365 9.562196731567383 46.0609130859375 74 205 254
-76.39627838134766 6.630215644836426 39.601070404052734 75 205 254
-76.39724731445312 4.4344162940979 37.904354095458984 74 205 254
-76.39824676513672 4.8470377922058105 33.75059127807617 74 204 254
-76.40878295898438 5.170161247253418 36.70764923095703 75 204 254
-76.40882110595703 4.878250598907471 34.25766372680664 74 204 254
-76.41565704345703 5.743923187255859 36.71847152709961 74 205 254
-76.4189224243164 4.098565101623535 37.464046478271484 75 204 254
-76.42901611328125 4.034057140350342 36.93803405761719 75 204 254
-76.435791015625 4.947177886962891 34.73060989379883 74 204 254
-76.43856811523438 5.701828479766846 36.16208267211914 74 205 254
-7.64389705657959 8.859790802001953 49.57403564453125 75 205 254
-76.44535064697266 5.669305324554443 35.90138626098633 75 205 254
-76.44955444335938 3.9700841903686523 36.543331146240234 75 205 254
-76.45387268066406 4.399019241333008 37.54277420043945 75 205 254
-76.45589447021484 5.876457691192627 39.14713668823242 74 204 254
-76.45843505859375 5.0638346672058105 32.6906623840332 74 205 254
-76.46388244628906 5.765070915222168 33.60693359375 75 205 254
-76.46488189697266 5.663162708282471 32.648651123046875 75 205 254
-76.46495819091797 5.634901523590088 37.61931610107422 75 205 254
-76.47200012207031 3.499667167663574 35.83061218261719 75 205 254
-76.4778823852539 5.60727071762085 39.04118347167969 74 205 254
-76.48165130615234 5.620871543884277 32.12792205810547 75 205 254
-76.48413848876953 5.212731838226318 34.14493942260742 74 205 254
-76.4842758178711 5.027635097503662 38.33945846557617 74 204 254
-76.48954772949219 3.9142837524414062 36.044647216796875 75 205 254
-76.49048614501953 5.833896636962891 34.131874084472656 75 205 254
-76.49203491210938 5.587702751159668 38.76487350463867 75 204 254
-76.49317932128906 5.88151741027832 34.6021614074707 75 205 254
-76.4935531616211 5.1896867752075195 33.6565055847168 74 204 254
-76.49458312988281 5.116445064544678 33.14981460571289 74 205 254
-76.49725341796875 5.385972499847412 35.667110443115234 74 204 254
-76.49791717529297 5.929379463195801 35.13213348388672 75 205 254
-76.49877166748047 5.70957612991333 33.111724853515625 75 205 254
-76.51375579833984 5.785332202911377 38.64015579223633 74 205 254
-76.51478576660156 5.9025044441223145 39.5904426574707 74 204 254
-76.51500701904297 5.51122522354126 39.480377197265625 75 205 254
-76.51598358154297 4.947992324829102 37.79808044433594 74 204 254
-76.51774597167969 6.171754360198975 37.13434982299805 75 205 254
-76.51905059814453 5.578762054443359 37.16111373901367 74 204 254
-76.51936340332031 5.295663356781006 34.664031982421875 74 205 254
-76.51995849609375 5.512095928192139 36.644317626953125 74 205 254
-76.52342987060547 5.454100131988525 36.143699645996094 74 205 254
-76.53140258789062 5.348872661590576 35.14860534667969 74 205 254
-76.5320053100586 6.105478286743164 36.60066604614258 75 205 254
-76.54473876953125 3.867218494415283 35.54787063598633 75 205 254
-76.54584503173828 4.35791015625 37.036399841308594 74 204 254
-76.54695892333984 6.054206848144531 36.13288116455078 75 205 254
-7.655213832855225 9.697403907775879 49.695133209228516 74 205 254
-76.55245208740234 6.838789463043213 40.27602005004883 75 204 254
-76.55455017089844 6.016205310821533 39.97029113769531 74 205 254
-76.55458068847656 4.803106784820557 36.804893493652344 75 204 254
-76.55470275878906 4.876203536987305 37.28953552246094 75 204 254
-76.55635833740234 5.997570991516113 35.59651184082031 75 205 254
-76.55675506591797 6.295893669128418 38.08411407470703 75 205 254
-76.56134033203125 6.389588356018066 38.612648010253906 75 205 254
-76.56369018554688 5.071779251098633 38.74396514892578 75 204 254
-76.5658950805664 5.051245212554932 32.29758071899414 75 205 254
-76.5743179321289 4.743892192840576 36.30479431152344 75 204 254
-76.5776138305664 5.6540207862854 35.56953048706055 74 205 254
-76.57926940917969 6.253722190856934 37.59146499633789 75 205 254
-76.58456420898438 5.620330810546875 35.21358871459961 74 205 254
-76.58553314208984 5.738553524017334 38.155792236328125 75 205 254
-7.659089088439941 9.851625442504883 51.555389404296875 75 204 254
-76.59187316894531 4.307446002960205 36.55632781982422 75 204 254
-76.5941390991211 6.845378398895264 40.37375259399414 75 205 254
-76.5953140258789 4.55482292175293 34.83307647705078 75 204 254
-7.659941673278809 8.796592712402344 48.65454864501953 75 205 254
-76.60841369628906 4.684298038482666 35.804832458496094 75 204 254
-76.60858917236328 4.5772013664245605 38.38875198364258 74 204 254
-76.61151885986328 6.6308088302612305 40.54015350341797 75 205 254
-76.61185455322266 4.536444187164307 38.067710876464844 75 204 254
-76.61277770996094 6.60855770111084 40.11464309692383 75 205 254
-76.61392974853516 4.507395267486572 34.31780242919922 75 204 254
-76.61675262451172 6.480299949645996 39.097389221191406 75 205 254
-76.61919403076172 6.508973598480225 39.5780029296875 75 205 254
-76.62323760986328 4.630245208740234 35.31142044067383 75 204 254
-76.62907409667969 3.8730597496032715 35.09197998046875 75 205 254
-76.63081359863281 3.3590214252471924 36.649253845214844 75 205 254
-76.630859375 5.880720615386963 32.147247314453125 75 205 254
-7.6638054847717285 7.022491931915283 49.10666275024414 75 205 254
-76.64466094970703 5.93958854675293 32.643165588378906 75 205 254
-76.65174865722656 5.618062496185303 39.182334899902344 74 205 254
-76.65249633789062 3.328809976577759 36.395294189453125 75 205 254
-76.65921783447266 6.064403533935547 33.64570236206055 75 205 254
-76.6596908569336 4.476977348327637 37.58235168457031 75 205 254
-76.66079711914062 4.268462181091309 36.064056396484375 75 204 254
-76.66091918945312 4.477410793304443 33.84840393066406 75 204 254
-76.66520690917969 5.585219383239746 34.62483596801758 75 205 254
-76.67008209228516 5.532976150512695 34.12550735473633 75 205 254
-76.67132568359375 5.317410945892334 32.17474365234375 75 205 254
-76.67433166503906 5.702765464782715 37.64204406738281 74 205 254
-76.67985534667969 6.706834316253662 40.93318557739258 74 205 254
-7.6685872077941895 6.407169818878174 46.85740661621094 75 205 254
-76.69075775146484 6.011345863342285 33.13590621948242 75 205 254
-76.69335174560547 5.678072929382324 37.37712478637695 75 205 254
-76.6972427368164 5.389433860778809 32.654197692871094 75 205 254
-76.70018005371094 6.204516410827637 35.11805725097656 75 205 254
-76.70909881591797 4.220724582672119 35.576820373535156 75 204 254
-76.71778869628906 5.494439125061035 33.66173553466797 75 205 254
-76.71939086914062 6.122623443603516 34.110477447509766 75 205 254
-76.72016143798828 4.16715669631958 35.065303802490234 75 204 254
-7.672974109649658 6.618224620819092 48.453819274902344 75 205 254
-7.6731696128845215 6.994925498962402 47.181854248046875 75 205 254
-76.7319564819336 6.042941093444824 38.09311294555664 75 205 254
-7.673293590545654 10.478724479675293 50.657066345214844 74 204 254
-76.73351287841797 6.17936897277832 34.62210464477539 75 205 254
-76.73410034179688 5.982935428619385 37.670162200927734 75 205 254
-76.73833465576172 5.792730331420898 36.14881134033203 75 205 254
-76.74405670166016 5.898641586303711 37.137184143066406 75 205 254
-7.674880027770996 10.812349319458008 46.33293914794922 75 204 254
-76.75188446044922 5.839726448059082 36.65139389038086 75 205 254
-76.75300598144531 5.461570739746094 33.157752990722656 75 205 254
-76.76084899902344 5.673437118530273 38.877410888671875 75 205 254
-76.7669448852539 6.288849353790283 39.617431640625 75 205 254
-76.7671127319336 6.285330295562744 35.62820816040039 75 205 254
-76.76994323730469 6.38052225112915 36.62120056152344 74 205 254
-76.77164459228516 5.732519626617432 35.6807861328125 75 205 254
-76.7740478515625 4.122923374176025 34.57093048095703 75 204 254
-76.77628326416016 3.7498977184295654 36.75645446777344 75 205 254
-76.79100799560547 6.464068412780762 37.07527160644531 75 205 254
-76.79220581054688 4.446899890899658 37.05665588378906 75 205 254
-76.79551696777344 6.162607669830322 38.64822006225586 75 205 254
-76.79581451416016 6.32314395904541 40.12139129638672 75 205 254
-76.79791259765625 6.344836235046387 36.13547134399414 75 205 254
-76.79957580566406 5.5855393409729 38.67029571533203 75 205 254
-76.79986572265625 5.515146255493164 38.1845703125 75 205 254
-76.8017349243164 4.48525857925415 33.51500701904297 74 205 254
-76.8111572265625 6.573721408843994 38.0931510925293 75 205 254
-76.81561279296875 6.737699031829834 39.09306335449219 75 205 254
-76.81596374511719 6.527449131011963 37.61430358886719 75 205 254
-76.8186264038086 5.6499834060668945 39.59423065185547 74 205 254
-76.82884979248047 5.302659034729004 36.732601165771484 75 205 254
-76.82960510253906 4.271018981933594 37.58802795410156 75 204 254
-76.83060455322266 6.831202507019043 41.20462417602539 75 205 254
-76.83106994628906 6.220277786254883 39.0944709777832 75 205 254
-76.8320541381836 5.692622661590576 35.132110595703125 75 205 254
-76.83280944824219 3.6974613666534424 36.283016204833984 75 205 254
-7.683511734008789 6.560481071472168 46.65699768066406 75 205 254
-76.83686065673828 6.838404655456543 40.02941131591797 74 205 254
-76.84061431884766 5.465932846069336 37.7205810546875 75 205 254
-76.84214782714844 5.655953884124756 37.050926208496094 74 205 254
-76.84945678710938 6.653476238250732 38.598079681396484 75 205 254
-76.85213470458984 5.658825874328613 34.703548431396484 74 205 254
-76.8530502319336 5.185326099395752 35.70768737792969 74 205 254
-76.85440826416016 3.4515044689178467 36.669837951660156 75 205 254
-76.85591888427734 5.718313217163086 39.1427116394043 75 204 254
-76.85604095458984 4.411729335784912 36.649131774902344 74 205 254
-76.85797119140625 6.894032955169678 40.6993408203125 74 205 254
-76.86622619628906 5.40057373046875 37.21280288696289 74 205 254
-76.86671447753906 4.9882121086120605 33.72178649902344 74 204 254
-76.87345886230469 5.149041652679443 35.221466064453125 74 205 254
-7.687935829162598 10.645971298217773 44.48191833496094 75 205 254
-7.688117027282715 11.110479354858398 51.93105697631836 74 205 254
-76.88256072998047 5.016817092895508 34.19892501831055 74 205 254
-76.8836898803711 4.214262962341309 37.069122314453125 75 205 254
-76.88432312011719 5.0909857749938965 34.732181549072266 74 205 254
-76.88555908203125 4.937936782836914 33.24052810668945 74 204 254
-76.89008331298828 5.265787124633789 36.228294372558594 75 205 254
-76.89083862304688 3.6400742530822754 35.74863052368164 75 205 254
