-19.74550437927246 3.0664563179016113 52.597808837890625 255 255 255
-23.126663208007812 4.763359069824219 65.11321258544922 255 255 255
-21.516796112060547 1.189235806465149 54.064674377441406 255 255 255
-18.445186614990234 7.45693826675415 58.9561767578125 255 255 255
-20.749879837036133 4.391249179840088 55.35774230957031 255 255 255
-11.60430908203125 6.450512409210205 55.508338928222656 255 255 255
-14.130495071411133 6.831631183624268 49.350711822509766 255 255 255
-13.60312271118164 7.273434162139893 59.479122161865234 255 255 255
-13.66998291015625 5.907308101654053 55.315250396728516 255 255 255
-14.685956001281738 6.784579753875732 50.931610107421875 255 255 255
-46.5543327331543 -2.4982519149780273 48.01828384399414 255 255 255
-51.271080017089844 -10.108860969543457 47.814212799072266 255 255 255
-16.2403564453125 4.3622918128967285 58.24678421020508 255 255 255
-16.35000228881836 2.3741071224212646 50.540931701660156 255 255 255
-14.860502243041992 2.707059860229492 50.69221115112305 255 255 255
-25.9278621673584 -2.888535737991333 57.95572280883789 255 255 255
-17.956998825073242 4.7986040115356445 52.69152069091797 255 255 255
-17.704538345336914 6.662760257720947 50.60465621948242 255 255 255
-33.703468322753906 -0.430113822221756 49.79622268676758 255 255 255
-33.165313720703125 5.755657196044922 46.16606140136719 255 255 255
-30.962249755859375 5.874773025512695 47.043800354003906 255 255 255
-38.958595275878906 -3.9051647186279297 49.35636901855469 255 255 255
-49.21985626220703 3.4421863555908203 36.80978775024414 255 255 255
-42.11067581176758 -0.8966858386993408 48.54897689819336 255 255 255
-43.66917419433594 -1.2383389472961426 48.40827941894531 255 255 255
-21.12173843383789 1.5761909484863281 52.84321212768555 255 255 255
-28.874608993530273 2.810152292251587 46.09544372558594 255 255 255
-42.28962326049805 0.7475950717926025 47.97444534301758 255 255 255
-22.214916229248047 4.040990829467773 55.94013214111328 255 255 255
-34.85426330566406 -4.308664798736572 49.97826385498047 255 255 255
-7.618445873260498 7.100500106811523 57.10323715209961 255 255 255
-1.9077414274215698 4.8826093673706055 63.11916732788086 255 255 255
-15.998016357421875 6.125576019287109 60.664180755615234 255 255 255
-9.331767082214355 6.797854900360107 59.47471237182617 255 255 255
-7.8549275398254395 6.2290239334106445 58.641361236572266 255 255 255
-8.435881614685059 6.5690531730651855 55.277992248535156 255 255 255
-20.79624366760254 4.817778587341309 66.20893096923828 255 255 255
-17.8592586517334 6.286870956420898 47.9832649230957 255 255 255
-25.881799697875977 4.548508644104004 49.96138000488281 255 255 255
-16.122453689575195 3.581570625305176 48.318965911865234 255 255 255
-23.319189071655273 -2.5122220516204834 58.71871566772461 255 255 255
-7.943587303161621 6.441196918487549 53.99301528930664 255 255 255
-12.425651550292969 6.370516777038574 55.23476791381836 255 255 255
-39.71456527709961 -6.987451076507568 51.2327995300293 255 255 255
-16.589664459228516 2.9204652309417725 49.70718002319336 255 255 255
-32.907745361328125 4.574766159057617 46.737770080566406 255 255 255
-33.79447937011719 -1.0284441709518433 49.40139389038086 255 255 255
-20.72188377380371 4.2700934410095215 53.508209228515625 255 255 255
-33.82463455200195 2.926057815551758 48.021751403808594 255 255 255
-27.856813430786133 0.3206094205379486 52.75310516357422 255 255 255
-20.500228881835938 4.961153507232666 56.4865837097168 255 255 255
-17.198486328125 3.522472381591797 50.21011734008789 255 255 255
-17.288707733154297 3.485128402709961 50.34135055541992 255 255 255
-22.351852416992188 3.4140772819519043 54.67095184326172 255 255 255
-41.51374816894531 -4.208366870880127 49.1942024230957 255 255 255
-39.59874725341797 -0.9109634757041931 49.45684051513672 255 255 255
-22.811372756958008 6.254081726074219 46.0749397277832 255 255 255
-68.38075256347656 -6.5653157234191895 44.69772720336914 255 255 255
-69.4455795288086 -5.6803083419799805 43.25099182128906 255 255 255
-1.062209129333496 4.951104164123535 62.73007583618164 255 255 255
-22.878662109375 -1.751011848449707 65.36126708984375 255 255 255
-5.731606483459473 4.660466194152832 59.902626037597656 255 255 255
-10.165590286254883 2.339052438735962 55.9624137878418 255 255 255
-16.473665237426758 5.368717670440674 51.2585334777832 255 255 255
-17.198843002319336 6.226332187652588 53.50032043457031 255 255 255
-2.1258747577667236 1.9985100030899048 58.3453483581543 255 255 255
-9.19669246673584 6.435816287994385 54.36749267578125 255 255 255
-7.273989677429199 7.4014153480529785 51.009063720703125 255 255 255
-6.668717861175537 3.7944958209991455 51.37279510498047 255 255 255
9.22765827178955 -1.7681893110275269 64.37979888916016 255 255 255
-0.17288845777511597 -6.409055233001709 68.66915893554688 255 255 255
-12.300479888916016 -4.905977249145508 65.26954650878906 255 255 255
-10.505645751953125 1.94852876663208 58.14833450317383 255 255 255
-16.624147415161133 5.411823749542236 52.51229476928711 255 255 255
-11.42497730255127 6.407956600189209 55.0151252746582 255 255 255
-17.5091552734375 5.359304428100586 52.572998046875 255 255 255
2.687450885772705 1.1216039657592773 56.140018463134766 255 255 255
-13.359552383422852 7.190136432647705 50.60000228881836 255 255 255
4.589731693267822 -0.9271407127380371 68.30022430419922 255 255 255
-23.48723602294922 1.430964708328247 50.608177185058594 255 255 255
-22.916645050048828 3.9203805923461914 52.97262954711914 255 255 255
-9.409541130065918 6.5898661613464355 56.095272064208984 255 255 255
-15.622986793518066 2.327334403991699 50.9623908996582 255 255 255
-18.85832977294922 7.431271076202393 58.635887145996094 255 255 255
-16.909868240356445 6.334986686706543 50.871253967285156 255 255 255
-19.92902183532715 5.807059288024902 52.50666427612305 255 255 255
-16.505104064941406 5.166832447052002 52.120792388916016 255 255 255
2.2126827239990234 3.7353572845458984 67.26383209228516 255 255 255
-62.012325286865234 -16.720815658569336 50.27516555786133 255 255 255
-34.97499465942383 -3.5250985622406006 49.76592254638672 255 255 255
-9.442561149597168 6.855009078979492 49.35265350341797 255 255 255
-69.49346160888672 -1.2977513074874878 43.677146911621094 255 255 255
-54.69669723510742 5.042603492736816 42.465538024902344 255 255 255
-61.75396728515625 -0.41656211018562317 44.545555114746094 255 255 255
-25.498764038085938 5.312087535858154 37.74778747558594 255 255 255
-37.572628021240234 5.238056182861328 37.594337463378906 255 255 255
-42.75130081176758 2.3365352153778076 47.37460708618164 255 255 255
-9.824947357177734 3.3618428707122803 55.449947357177734 255 255 255
-22.62657356262207 3.914702892303467 52.717838287353516 255 255 255
-15.436817169189453 7.468349456787109 67.18699645996094 255 255 255
-14.265233039855957 7.086669445037842 50.08030700683594 255 255 255
-23.60370445251465 -1.8056774139404297 65.35926818847656 255 255 255
-2.4842426776885986 7.541775226593018 52.02659225463867 255 255 255
-2.5584123134613037 -0.05714397504925728 60.05918502807617 255 255 255
-4.964777946472168 6.220489501953125 58.263126373291016 255 255 255
-5.175426483154297 7.3221611976623535 50.99692916870117 255 255 255
-57.488037109375 0.27567246556282043 43.74104309082031 255 255 255
-42.48924255371094 -1.047011137008667 48.768367767333984 255 255 255
-50.802520751953125 4.828013896942139 36.5088996887207 255 255 255
-33.782772064208984 2.0212669372558594 49.460201263427734 255 255 255
-32.46371841430664 5.009265422821045 46.099185943603516 255 255 255
-42.49248504638672 0.34458404779434204 47.56321334838867 255 255 255
-49.294090270996094 -3.3817341327667236 47.186737060546875 255 255 255
-67.85733032226562 -0.7527309656143188 43.25611877441406 255 255 255
-62.43328857421875 -4.6787214279174805 47.406986236572266 255 255 255
-52.6138801574707 -8.550950050354004 47.55785369873047 255 255 255
-20.179737091064453 6.272582054138184 47.34901809692383 255 255 255
-31.639259338378906 2.843351125717163 49.992530822753906 255 255 255
-7.752139091491699 7.204326629638672 50.88382339477539 255 255 255
-3.9561362266540527 5.647036552429199 60.605403900146484 255 255 255
0.012476805597543716 6.9913811683654785 57.98303985595703 255 255 255
-8.320047378540039 6.37364387512207 54.22352600097656 255 255 255
-8.543176651000977 7.188173294067383 54.51825714111328 255 255 255
-15.66293716430664 2.350217819213867 51.067352294921875 255 255 255
-9.20928955078125 4.502601146697998 65.17855072021484 255 255 255
-15.242110252380371 2.4854588508605957 50.56158447265625 255 255 255
-2.94962739944458 -0.16000859439373016 56.9438362121582 255 255 255
-23.11475944519043 5.1318440437316895 55.77399826049805 255 255 255
-15.456543922424316 2.4248225688934326 50.75947189331055 255 255 255
-13.201349258422852 3.458055257797241 51.728546142578125 255 255 255
-13.311012268066406 3.407482624053955 51.96464157104492 255 255 255
-16.211763381958008 6.951107025146484 54.207393646240234 255 255 255
-12.116011619567871 5.974985122680664 55.80611801147461 255 255 255
2.7554073333740234 7.3772101402282715 53.396053314208984 255 255 255
7.274814128875732 7.964221000671387 65.00593566894531 255 255 255
-1.7487385272979736 7.7705159187316895 52.75431442260742 255 255 255
-12.175223350524902 6.696296691894531 52.302268981933594 255 255 255
-40.18010711669922 -3.283596992492676 48.79485321044922 255 255 255
-35.2691650390625 5.846277713775635 46.25214767456055 255 255 255
-57.51296615600586 -6.281200885772705 53.14855194091797 255 255 255
-18.34689712524414 6.4978461265563965 55.74415969848633 255 255 255
-25.245365142822266 6.672381401062012 60.96323776245117 255 255 255
-12.16418743133545 6.840284824371338 55.47087860107422 255 255 255
-13.08654499053955 6.927813529968262 56.65176010131836 255 255 255
-15.11071491241455 5.438554286956787 61.90363693237305 255 255 255
-14.091235160827637 6.117374420166016 59.067440032958984 255 255 255
-13.837571144104004 4.629291534423828 55.57268524169922 255 255 255
-50.19327163696289 -4.314285755157471 45.92178726196289 255 255 255
-23.959857940673828 4.433919906616211 50.68178176879883 255 255 255
-6.168029308319092 6.7471113204956055 56.084503173828125 255 255 255
-16.25888442993164 5.048553466796875 52.70700454711914 255 255 255
-10.510998725891113 7.491833209991455 57.85253143310547 255 255 255
-20.185152053833008 8.019644737243652 61.6953125 255 255 255
-11.071292877197266 7.2027716636657715 58.95582580566406 255 255 255
-5.8165130615234375 -2.847490072250366 67.55416107177734 255 255 255
-9.790614128112793 7.072530269622803 50.317665100097656 255 255 255
-16.044572830200195 6.2010087966918945 52.67998504638672 255 255 255
-10.701346397399902 7.070741176605225 56.3843879699707 255 255 255
-9.896795272827148 6.0744309425354 56.24287033081055 255 255 255
2.4646189212799072 -1.6340919733047485 68.41481018066406 255 255 255
-9.20772647857666 -4.867857456207275 66.35546875 255 255 255
10.515958786010742 2.5326640605926514 58.85765838623047 255 255 255
-20.7322998046875 4.722389221191406 48.383358001708984 255 255 255
-36.55199432373047 5.699742317199707 44.07007598876953 255 255 255
-19.558610916137695 5.684163570404053 47.25441360473633 255 255 255
-52.81304931640625 4.741401672363281 43.14558029174805 255 255 255
-4.826313018798828 6.158973693847656 64.26680755615234 255 255 255
-16.824951171875 2.243088483810425 67.0344009399414 255 255 255
-23.478532791137695 0.4866945147514343 58.05408477783203 255 255 255
-8.123473167419434 6.310836315155029 48.795291900634766 255 255 255
-0.4328698217868805 6.584823131561279 59.93199157714844 255 255 255
-0.22516140341758728 7.821410655975342 52.62455368041992 255 255 255
-54.41844177246094 -11.124092102050781 47.83018493652344 255 255 255
-33.783180236816406 0.5409607887268066 48.14094161987305 255 255 255
-30.05155372619629 1.6404805183410645 50.03889465332031 255 255 255
-26.58717918395996 4.218213081359863 49.62277603149414 255 255 255
-2.4904091358184814 4.796689033508301 60.464500427246094 255 255 255
-63.26860046386719 0.8436958193778992 45.442527770996094 255 255 255
-1.8000836372375488 5.654376983642578 64.08404541015625 255 255 255
-31.527772903442383 5.397922039031982 48.461883544921875 255 255 255
-37.46345901489258 -1.0413352251052856 49.758663177490234 255 255 255
-30.5162353515625 4.386186599731445 50.09902572631836 255 255 255
-61.66804504394531 -3.8622171878814697 47.98574447631836 255 255 255
-26.271963119506836 5.178603172302246 49.72031784057617 255 255 255
-43.91425704956055 -4.945248126983643 48.33045959472656 255 255 255
-23.69470977783203 4.452321529388428 50.456382751464844 255 255 255
-20.522457122802734 2.6479077339172363 50.775089263916016 255 255 255
-29.885576248168945 -3.5026655197143555 57.41627883911133 255 255 255
-21.862611770629883 4.49139928817749 54.48279571533203 255 255 255
-15.832027435302734 6.660032272338867 48.710533142089844 255 255 255
-14.072566986083984 3.4362382888793945 56.39113998413086 255 255 255
-38.24176025390625 5.166324615478516 45.57575988769531 255 255 255
-68.84765625 0.8494957089424133 42.55222702026367 255 255 255
-22.388513565063477 5.1995439529418945 49.78921890258789 255 255 255
-28.81271743774414 3.3110129833221436 47.482398986816406 255 255 255
-25.71767807006836 4.141014575958252 50.07034683227539 255 255 255
-44.1375617980957 2.155243158340454 48.1518669128418 255 255 255
-18.95651626586914 6.445349216461182 55.913394927978516 255 255 255
-11.37468433380127 6.465116024017334 55.081573486328125 255 255 255
-25.102449417114258 -0.6210456490516663 56.859867095947266 255 255 255
-17.22564697265625 4.645053863525391 51.625450134277344 255 255 255
-72.1278076171875 -0.06313218176364899 42.26624298095703 255 255 255
-27.963773727416992 5.086381912231445 50.105228424072266 255 255 255
-62.92753219604492 -3.1008896827697754 44.73295211791992 255 255 255
-19.681297302246094 5.8598761558532715 48.59381866455078 255 255 255
-31.214723587036133 -0.6767480373382568 51.988075256347656 255 255 255
-39.010372161865234 -3.225487232208252 48.84219741821289 255 255 255
-50.41600799560547 -8.41537857055664 47.54409408569336 255 255 255
-48.80878448486328 3.6912930011749268 47.18440246582031 255 255 255
2.435109853744507 7.767097473144531 51.452247619628906 255 255 255
-6.5769243240356445 1.858115553855896 56.83138656616211 255 255 255
-17.12996482849121 6.219558238983154 62.67484664916992 255 255 255
-1.772060513496399 6.644676208496094 56.67276382446289 255 255 255
-16.425556182861328 2.3686270713806152 56.29141616821289 255 255 255
-12.601489067077637 7.173031330108643 50.824371337890625 255 255 255
0.9694573283195496 8.00157642364502 52.75254440307617 255 255 255
-25.46114158630371 1.101668357849121 51.22319793701172 255 255 255
-26.698999404907227 4.543073654174805 49.665313720703125 255 255 255
-37.01764678955078 -5.635721206665039 48.481483459472656 255 255 255
-63.282413482666016 -11.49741268157959 44.69633483886719 255 255 255
-48.0674934387207 4.230185031890869 39.8553581237793 255 255 255
-22.21184539794922 2.5519208908081055 50.37934112548828 255 255 255
-23.309040069580078 6.220309257507324 46.704925537109375 255 255 255
-22.40142250061035 3.8866145610809326 51.3239631652832 255 255 255
-27.012113571166992 5.375586032867432 49.719032287597656 255 255 255
-25.555849075317383 5.587538242340088 50.62798309326172 255 255 255
-17.442508697509766 5.246464729309082 51.30888748168945 255 255 255
-21.170927047729492 5.85145902633667 65.92467498779297 255 255 255
-21.48577117919922 4.323673248291016 53.9534797668457 255 255 255
-22.503297805786133 3.9892289638519287 52.63870620727539 255 255 255
-17.027912139892578 1.5385806560516357 62.24309539794922 255 255 255
-18.278051376342773 7.140110969543457 57.341800689697266 255 255 255
-17.565147399902344 6.359652519226074 57.916751861572266 255 255 255
-0.9985014200210571 6.327647686004639 58.28291320800781 255 255 255
-13.818077087402344 7.088844299316406 50.52052307128906 255 255 255
-15.511760711669922 6.775503158569336 48.979671478271484 255 255 255
-15.080604553222656 -1.5302592515945435 66.75225067138672 255 255 255
-21.300907135009766 3.609611749649048 54.01980972290039 255 255 255
-11.640145301818848 6.540979385375977 51.12043380737305 255 255 255
-15.175238609313965 4.495367050170898 58.21894073486328 255 255 255
-12.422009468078613 6.711601257324219 54.83707046508789 255 255 255
-23.506107330322266 -6.7121758460998535 59.426307678222656 255 255 255
-23.423959732055664 1.5234791040420532 58.3826789855957 255 255 255
2.1209914684295654 6.976842403411865 40.67957305908203 255 255 255
-3.7754619121551514 2.928528070449829 55.16241455078125 255 255 255
-0.333356112241745 3.203461170196533 55.14609909057617 255 255 255
-0.41741806268692017 3.1906166076660156 54.69602966308594 255 255 255
-8.415050506591797 -2.1304125785827637 66.17869567871094 255 255 255
8.90307331085205 -1.6566485166549683 70.00703430175781 255 255 255
-19.167388916015625 -2.6101701259613037 66.52271270751953 255 255 255
0.880195140838623 6.1355085372924805 62.205970764160156 255 255 255
-7.38419246673584 3.954056739807129 54.265296936035156 255 255 255
7.225452899932861 -0.7711585164070129 68.24221801757812 255 255 255
3.856437921524048 6.405525207519531 58.96599197387695 255 255 255
12.45174503326416 8.1060152053833 66.90641784667969 255 255 255
-56.77414321899414 0.3535667955875397 44.77982711791992 255 255 255
-31.661521911621094 3.783806324005127 47.099327087402344 255 255 255
-32.217098236083984 -2.2032880783081055 55.388465881347656 255 255 255
-56.468631744384766 -11.344499588012695 45.91253662109375 255 255 255
-25.045631408691406 1.7150795459747314 49.91853713989258 255 255 255
-45.65730667114258 -9.08273696899414 48.31691360473633 255 255 255
-4.699831962585449 0.3028852343559265 56.75995635986328 255 255 255
-0.2894898056983948 6.813072204589844 56.63700866699219 255 255 255
-11.378976821899414 -5.301991939544678 66.00428771972656 255 255 255
-26.312883377075195 -3.3299460411071777 57.472618103027344 255 255 255
-24.782934188842773 5.470716953277588 50.004520416259766 255 255 255
-30.783641815185547 -5.717621803283691 58.5002326965332 255 255 255
-15.542765617370605 4.599335670471191 59.557682037353516 255 255 255
-25.098186492919922 6.152691841125488 45.60698318481445 255 255 255
-26.8797607421875 5.089188098907471 49.63386535644531 255 255 255
-24.849140167236328 5.4283857345581055 49.289459228515625 255 255 255
-28.505661010742188 4.000752925872803 54.221839904785156 255 255 255
-44.45699691772461 -3.091423749923706 46.91548538208008 255 255 255
-15.067105293273926 4.527866363525391 59.34679412841797 255 255 255
-19.847753524780273 5.190195560455322 52.176124572753906 255 255 255
-18.35909652709961 7.491135120391846 59.814735412597656 255 255 255
-47.8832893371582 -4.263810634613037 47.41931915283203 255 255 255
-44.46609115600586 -2.635587692260742 32.2739372253418 255 255 255
-40.800357818603516 5.151030540466309 38.56306457519531 255 255 255
4.227972984313965 8.177475929260254 52.48480224609375 255 255 255
-45.69096755981445 -7.762249946594238 48.71397399902344 255 255 255
-30.672914505004883 -0.12134405225515366 52.69850158691406 255 255 255
-40.08380126953125 -1.9957853555679321 48.95682907104492 255 255 255
-30.372844696044922 1.5883023738861084 49.71268081665039 255 255 255
-12.632914543151855 6.30137825012207 62.78737258911133 255 255 255
11.99939250946045 7.93799352645874 65.66943359375 255 255 255
-16.011028289794922 2.307525873184204 64.9961166381836 255 255 255
-22.54039764404297 5.232577323913574 56.264076232910156 255 255 255
-15.857926368713379 6.626319885253906 48.74772644042969 255 255 255
-36.48537826538086 -0.07675813883543015 49.65764617919922 255 255 255
-18.517244338989258 6.706435680389404 53.264591217041016 255 255 255
-23.414281845092773 6.226873397827148 45.929466247558594 255 255 255
-24.773387908935547 4.902798652648926 50.04255294799805 255 255 255
-39.98008728027344 6.284120559692383 47.220298767089844 255 255 255
-48.691349029541016 -0.21676746010780334 47.520442962646484 255 255 255
-49.523521423339844 4.048158168792725 47.13534927368164 255 255 255
-58.8035774230957 3.2309963703155518 44.992923736572266 255 255 255
6.590760707855225 7.850573539733887 53.34334182739258 255 255 255
3.763162136077881 4.494400501251221 53.67312240600586 255 255 255
-15.600866317749023 6.8686628341674805 63.15056228637695 255 255 255
-10.6134033203125 5.718029499053955 55.105838775634766 255 255 255
-36.01758575439453 3.172060251235962 49.82632827758789 255 255 255
7.07604455947876 2.8972115516662598 41.31739807128906 255 255 255
-45.3071174621582 -5.880294322967529 46.27543640136719 255 255 255
-1.63884699344635 6.310247421264648 49.168392181396484 255 255 255
-4.523324966430664 6.40626859664917 60.792564392089844 255 255 255
3.266087293624878 -0.6319331526756287 58.272727966308594 255 255 255
-8.306902885437012 5.969549655914307 63.11912155151367 255 255 255
-24.080293655395508 -4.4128642082214355 59.84575271606445 255 255 255
-3.553464889526367 1.208853006362915 59.40568542480469 255 255 255
5.693020820617676 -1.4930742979049683 69.9804458618164 255 255 255
-10.051055908203125 2.764941692352295 54.90141677856445 255 255 255
-18.24146842956543 1.8600188493728638 52.772708892822266 255 255 255
-29.55466079711914 4.50314474105835 41.18138122558594 255 255 255
-40.989078521728516 5.999575138092041 43.873531341552734 255 255 255
-11.166215896606445 7.353091239929199 58.14075469970703 255 255 255
4.756031036376953 4.602081775665283 57.58147430419922 255 255 255
-2.995253801345825 7.6541314125061035 52.26533508300781 255 255 255
-25.420368194580078 -7.428792953491211 62.241233825683594 255 255 255
-68.97552490234375 -1.325713872909546 43.77045822143555 255 255 255
-43.42474365234375 -4.082042694091797 48.48484420776367 255 255 255
-46.011268615722656 -6.996923446655273 48.12703323364258 255 255 255
-17.931325912475586 3.197068214416504 50.94676208496094 255 255 255
-58.002479553222656 -11.451761245727539 46.13633728027344 255 255 255
-39.743324279785156 0.27248504757881165 48.96288299560547 255 255 255
-61.953651428222656 -10.94771957397461 47.4234504699707 255 255 255
-21.459272384643555 4.404380798339844 53.84211730957031 255 255 255
-36.90930938720703 -5.840020179748535 49.979949951171875 255 255 255
-19.349477767944336 6.2746734619140625 47.03570556640625 255 255 255
-20.291736602783203 6.030801773071289 60.47640609741211 255 255 255
-23.777183532714844 -2.2455761432647705 65.72636413574219 255 255 255
-19.117433547973633 7.709487438201904 61.360591888427734 255 255 255
-1.9246277809143066 7.730459213256836 52.56483840942383 255 255 255
-46.20804214477539 3.528449058532715 37.754878997802734 255 255 255
-40.57181930541992 -2.947190284729004 34.88119125366211 255 255 255
-48.93584060668945 -5.011538505554199 47.51089859008789 255 255 255
-31.62299919128418 0.20611077547073364 50.24458312988281 255 255 255
-37.143741607666016 5.61056661605835 38.894683837890625 255 255 255
-51.07292175292969 3.181858777999878 35.26988220214844 255 255 255
-0.15715736150741577 -2.5956828594207764 67.3984375 255 255 255
4.967677116394043 5.826757907867432 68.17910766601562 255 255 255
13.486035346984863 3.97440505027771 59.23125457763672 255 255 255
6.603165626525879 7.881232261657715 53.453834533691406 255 255 255
6.759387969970703 -0.8028335571289062 66.92601776123047 255 255 255
4.226934432983398 6.343632221221924 53.380916595458984 255 255 255
4.058319568634033 8.126260757446289 52.287376403808594 255 255 255
-5.138479709625244 7.403704643249512 51.459590911865234 255 255 255
-12.420379638671875 7.163883209228516 51.56572341918945 255 255 255
-0.2855460047721863 6.178488731384277 58.20036697387695 255 255 255
-22.76978874206543 4.806837558746338 58.18711471557617 255 255 255
-12.26548957824707 7.093605995178223 51.21352767944336 255 255 255
-9.361026763916016 1.411073088645935 58.388427734375 255 255 255
-33.35871124267578 0.4855855703353882 49.56283950805664 255 255 255
-25.657989501953125 4.1551032066345215 49.85964584350586 255 255 255
-57.283912658691406 -9.534321784973145 46.15846252441406 255 255 255
-70.7005844116211 4.466980457305908 39.76029968261719 255 255 255
-42.134761810302734 -5.124528884887695 48.67911911010742 255 255 255
-63.155914306640625 -8.453583717346191 44.83235549926758 255 255 255
6.653461456298828 7.694406986236572 56.80487823486328 255 255 255
1.9248968362808228 6.7907257080078125 39.92642593383789 255 255 255
-48.236324310302734 -5.821323871612549 47.807796478271484 255 255 255
-25.639400482177734 5.570593357086182 50.661346435546875 255 255 255
-33.86473083496094 5.5186357498168945 45.96769714355469 255 255 255
-23.448997497558594 5.447272777557373 50.12470245361328 255 255 255
-31.27279281616211 4.548033714294434 41.28984832763672 255 255 255
-26.395538330078125 4.256231307983398 49.49967575073242 255 255 255
-53.33110427856445 -9.627408027648926 47.03207778930664 255 255 255
-31.371206283569336 6.230567455291748 46.39580154418945 255 255 255
-12.88242244720459 6.8129963874816895 43.807586669921875 255 255 255
-36.98945999145508 -1.2770336866378784 52.94986343383789 255 255 255
-44.44970703125 -3.523064136505127 47.891143798828125 255 255 255
-51.572059631347656 -3.3117663860321045 46.263389587402344 255 255 255
-16.426799774169922 4.021196365356445 50.33564758300781 255 255 255
-13.911324501037598 5.754169464111328 56.96888732910156 255 255 255
-31.59855079650879 2.491680383682251 51.869224548339844 255 255 255
-38.24785614013672 -5.209828853607178 49.590538024902344 255 255 255
-37.04564666748047 -1.6239386796951294 49.09537887573242 255 255 255
-15.326223373413086 6.053072452545166 59.255374908447266 255 255 255
0.5482063293457031 4.77596378326416 66.54713439941406 255 255 255
4.858121395111084 6.868815898895264 64.0066146850586 255 255 255
-26.5726375579834 4.535027027130127 49.585567474365234 255 255 255
-25.744815826416016 4.602138996124268 49.9122428894043 255 255 255
-8.472890853881836 8.208836555480957 61.67271423339844 255 255 255
-20.850811004638672 6.5691046714782715 55.576141357421875 255 255 255
-12.591582298278809 -1.379547357559204 66.25405883789062 255 255 255
-8.410820007324219 6.4278435707092285 54.587890625 255 255 255
-32.43116760253906 3.805122137069702 47.11209487915039 255 255 255
-45.701011657714844 -7.878684997558594 48.013397216796875 255 255 255
-22.67799186706543 6.365688800811768 45.73912811279297 255 255 255
-20.910181045532227 2.8196511268615723 52.90238571166992 255 255 255
-20.86836051940918 2.8194193840026855 52.885643005371094 255 255 255
-36.907588958740234 -3.2982966899871826 49.47092819213867 255 255 255
-38.803218841552734 -0.08570482581853867 49.364383697509766 255 255 255
-33.962032318115234 -3.955697536468506 49.96488952636719 255 255 255
-20.362119674682617 6.333219051361084 47.27748107910156 255 255 255
-60.61629104614258 4.339696884155273 36.00230026245117 255 255 255
-68.61436462402344 -0.3733489513397217 43.175514221191406 255 255 255
-61.52892303466797 -0.6658145189285278 44.754722595214844 255 255 255
-62.584781646728516 -0.2839798629283905 44.505889892578125 255 255 255
-66.1800537109375 2.891453742980957 43.452598571777344 255 255 255
-12.33680248260498 -1.3214362859725952 67.22459411621094 255 255 255
-5.234457015991211 -0.1445283591747284 61.6414909362793 255 255 255
-50.6778450012207 -4.410877227783203 46.52627182006836 255 255 255
-14.184297561645508 7.168581008911133 51.078495025634766 255 255 255
-0.8198293447494507 7.673457145690918 52.146732330322266 255 255 255
-4.7885565757751465 1.8232303857803345 68.62662506103516 255 255 255
-7.640796184539795 6.607837677001953 65.08279418945312 255 255 255
-12.727723121643066 4.281013488769531 61.37251281738281 255 255 255
-10.773613929748535 2.8742563724517822 57.04604721069336 255 255 255
-23.5511417388916 -0.3064315915107727 64.70977783203125 255 255 255
3.3201961517333984 7.5924763679504395 55.147979736328125 255 255 255
1.956520915031433 6.340944290161133 58.35529327392578 255 255 255
-25.752981185913086 5.115708827972412 49.87538528442383 255 255 255
-26.387264251708984 6.278221607208252 45.6030387878418 255 255 255
-36.55774688720703 -0.8701747059822083 49.6630744934082 255 255 255
-48.99033737182617 -0.5256349444389343 48.65437698364258 255 255 255
-65.16773986816406 0.7932078838348389 44.26181411743164 255 255 255
-58.21101379394531 -0.12567678093910217 44.5637321472168 255 255 255
-5.88844108581543 6.733664035797119 55.7236213684082 255 255 255
-1.7110087871551514 6.17293119430542 52.42536544799805 255 255 255
4.0057597160339355 6.541872978210449 59.44203186035156 255 255 255
-71.4268569946289 -0.4680536985397339 42.58695602416992 255 255 255
-20.85546875 2.5878844261169434 52.65398406982422 255 255 255
-22.168420791625977 4.05136775970459 55.47029113769531 255 255 255
-18.292980194091797 5.6416120529174805 48.878326416015625 255 255 255
-19.8424072265625 5.4946513175964355 51.90097427368164 255 255 255
-34.9735221862793 -1.2833442687988281 49.6728630065918 255 255 255
-54.21449661254883 -4.955090522766113 46.432498931884766 255 255 255
-43.23525619506836 0.5143481492996216 47.26286697387695 255 255 255
-23.950698852539062 1.0122336149215698 56.35550308227539 255 255 255
-14.490376472473145 2.465149164199829 50.89720916748047 255 255 255
-12.087141036987305 -1.2749313116073608 67.64016723632812 255 255 255
-7.993442058563232 6.584055423736572 54.49742889404297 255 255 255
-17.280282974243164 2.5140318870544434 53.48833465576172 255 255 255
-12.170272827148438 3.015702724456787 61.84768295288086 255 255 255
-9.472110748291016 3.150437593460083 54.26386260986328 255 255 255
-23.300310134887695 7.036693572998047 64.69190216064453 255 255 255
-24.22369956970215 6.94964599609375 60.473976135253906 255 255 255
-8.611836433410645 8.065732955932617 61.973819732666016 255 255 255
-2.5352602005004883 -0.21614596247673035 60.440765380859375 255 255 255
7.113836288452148 -4.628678798675537 42.53970718383789 255 255 255
5.819800853729248 -3.2506701946258545 41.85977554321289 255 255 255
16.021297454833984 3.3968493938446045 64.1768798828125 255 255 255
0.409152090549469 1.1360901594161987 67.51838684082031 255 255 255
-1.116913080215454 -4.993743419647217 67.74690246582031 255 255 255
-3.39922833442688 -6.7998127937316895 67.78887939453125 255 255 255
1.35520601272583 -1.4395020008087158 37.994388580322266 255 255 255
-15.803698539733887 4.420444011688232 42.22468185424805 255 255 255
-0.14487947523593903 7.026799201965332 66.58389282226562 255 255 255
15.902308464050293 7.961706638336182 62.985755920410156 255 255 255
7.509643077850342 3.3296008110046387 56.26348876953125 255 255 255
9.504154205322266 7.730648994445801 48.44505310058594 255 255 255
-13.660358428955078 3.5622799396514893 35.00322341918945 255 255 255
2.146592617034912 6.260751724243164 42.227603912353516 255 255 255
6.694910049438477 4.614272594451904 40.9936408996582 255 255 255
-19.045122146606445 -5.186424255371094 30.628721237182617 255 255 255
-7.003269195556641 0.941643476486206 68.27027130126953 255 255 255
-69.05137634277344 -1.4007893800735474 43.849910736083984 255 255 255
-72.23251342773438 -2.0055642127990723 43.38127899169922 255 255 255
-63.216495513916016 -1.337580680847168 45.02202606201172 255 255 255
-71.08048248291016 -5.425943374633789 43.07270812988281 255 255 255
-31.90138053894043 -14.37658405303955 56.33513259887695 255 255 255
-69.2265396118164 -2.303799867630005 43.89451599121094 255 255 255
-62.03820037841797 -2.5867621898651123 44.338409423828125 255 255 255
-65.67631530761719 0.8937833309173584 44.1740608215332 255 255 255
-66.4115982055664 0.2132692188024521 41.77213668823242 255 255 255
-72.04923248291016 -3.0992000102996826 43.99535369873047 255 255 255
13.415842056274414 -0.5335460901260376 43.27701187133789 255 255 255
4.4610137939453125 3.2007155418395996 58.736507415771484 255 255 255
-66.20370483398438 4.71202278137207 40.17658615112305 255 255 255
-33.174381256103516 -15.48582649230957 56.19095993041992 255 255 255
-6.86536979675293 0.8851587772369385 51.319759368896484 255 255 255
-71.48358154296875 -2.471158981323242 43.35646057128906 255 255 255
-67.26686096191406 0.8164575099945068 43.58478927612305 255 255 255
-65.5520248413086 -0.9488269090652466 44.389495849609375 255 255 255
-71.6436538696289 -2.514965057373047 43.35614776611328 255 255 255
-66.52777862548828 -0.9160824418067932 43.98579025268555 255 255 255
-65.44313049316406 4.581874370574951 40.31666946411133 255 255 255
-68.85160827636719 0.9259451031684875 42.74946594238281 255 255 255
-70.00141143798828 0.7195422053337097 42.946372985839844 255 255 255
-62.614498138427734 -0.4248725175857544 44.38175582885742 255 255 255
-64.27799987792969 0.003510973183438182 42.524749755859375 255 255 255
-66.56928253173828 3.265011787414551 40.261653900146484 255 255 255
-69.16813659667969 -4.347346305847168 42.83454132080078 255 255 255
9.507065773010254 1.794998288154602 56.59396743774414 255 255 255
5.699950695037842 -1.978151559829712 69.0539779663086 255 255 255
-65.67819213867188 3.8290836811065674 43.38007354736328 255 255 255
-67.58387756347656 0.9180505275726318 43.154144287109375 255 255 255
-66.44832611083984 3.2671265602111816 40.21632385253906 255 255 255
-57.86236572265625 3.364232063293457 45.054927825927734 255 255 255
-49.93220138549805 3.3553106784820557 36.781463623046875 255 255 255
-56.87622833251953 1.2712286710739136 45.54752731323242 255 255 255
-55.111820220947266 3.853689193725586 45.59664535522461 255 255 255
-41.11156463623047 4.3300557136535645 47.97687911987305 255 255 255
-35.21603012084961 5.1127471923828125 45.46227264404297 255 255 255
-31.877891540527344 5.4851531982421875 44.2119255065918 255 255 255
-68.79739379882812 -0.7442917823791504 43.56281280517578 255 255 255
-66.07568359375 1.2967801094055176 42.30839920043945 255 255 255
-56.44479751586914 1.675878882408142 44.57925796508789 255 255 255
-66.1826400756836 5.221297264099121 42.30204391479492 255 255 255
-57.834068298339844 2.0594675540924072 44.62303924560547 255 255 255
-57.25658416748047 0.16676479578018188 45.4515266418457 255 255 255
-58.348148345947266 1.0016701221466064 46.25141143798828 255 255 255
-59.80677795410156 -0.1345302015542984 45.16647720336914 255 255 255
-57.68158721923828 3.2891685962677 44.98325729370117 255 255 255
-71.08821105957031 0.08510050922632217 42.89127731323242 255 255 255
-71.55316162109375 4.2573466300964355 40.88995361328125 255 255 255
-58.58637237548828 6.006500244140625 45.10683059692383 255 255 255
-57.960426330566406 3.2845516204833984 45.02006530761719 255 255 255
-55.75212478637695 3.83075213432312 45.732486724853516 255 255 255
-56.746707916259766 1.8424674272537231 45.81839370727539 255 255 255
-61.972564697265625 -0.2933748960494995 44.599430084228516 255 255 255
-52.761661529541016 3.65116024017334 46.207557678222656 255 255 255
-69.02848815917969 4.5308146476745605 39.56548309326172 255 255 255
-62.7554817199707 -0.7572844624519348 44.5162353515625 255 255 255
-63.1232795715332 2.868785858154297 43.68027114868164 255 255 255
-69.77031707763672 -0.31784504652023315 42.998470306396484 255 255 255
-57.29779815673828 1.8484500646591187 45.90911865234375 255 255 255
-57.06673049926758 -0.3910789489746094 45.456878662109375 255 255 255
-55.94445037841797 3.170513153076172 45.73172378540039 255 255 255
-53.45201110839844 4.497699737548828 45.52322769165039 255 255 255
-53.08665084838867 0.39845171570777893 46.02626037597656 255 255 255
-8.727354049682617 -1.006876826286316 52.46696090698242 255 255 255
-25.693706512451172 -8.835108757019043 65.40872192382812 255 255 255
-54.057762145996094 -1.6798266172409058 45.01520538330078 255 255 255
-52.92609405517578 1.781230092048645 46.463623046875 255 255 255
-52.887393951416016 1.789968729019165 46.44649887084961 255 255 255
-50.25101852416992 4.58988094329834 46.00056076049805 255 255 255
-53.42293167114258 -2.543663263320923 46.2777099609375 255 255 255
-71.18983459472656 -4.717422008514404 42.9373779296875 255 255 255
-66.21149444580078 2.9202675819396973 44.27585220336914 255 255 255
-65.57462310791016 -3.2573282718658447 42.30276107788086 255 255 255
-62.89531707763672 -1.1983202695846558 44.90998458862305 255 255 255
-61.60942840576172 -0.7272072434425354 45.08252716064453 255 255 255
-63.22334671020508 2.86257266998291 44.562774658203125 255 255 255
-71.05704498291016 -1.1382390260696411 42.91317367553711 255 255 255
-55.20991516113281 1.9870823621749878 45.92872619628906 255 255 255
-66.08728790283203 4.829557418823242 42.91251754760742 255 255 255
-54.60824966430664 -1.5352022647857666 46.46628952026367 255 255 255
-65.45526123046875 4.5989484786987305 40.325279235839844 255 255 255
-63.12581253051758 3.3498778343200684 44.20238494873047 255 255 255
-57.28783416748047 3.2965891361236572 45.56718826293945 255 255 255
-72.04808807373047 0.027693580836057663 42.27809143066406 255 255 255
-71.53520965576172 -0.5655525326728821 42.64451599121094 255 255 255
-60.13810729980469 5.083437442779541 42.216156005859375 255 255 255
-65.58733367919922 -9.284490585327148 45.02608108520508 255 255 255
-72.36427307128906 0.01392436120659113 42.26943588256836 255 255 255
-68.07388305664062 -7.985577583312988 45.2874755859375 255 255 255
-52.79322814941406 3.6695644855499268 46.2490348815918 255 255 255
-3.9370357990264893 3.4567205905914307 65.9812240600586 255 255 255
5.720036506652832 2.088650941848755 67.74707794189453 255 255 255
-13.051373481750488 -5.238500595092773 65.3803482055664 255 255 255
10.474559783935547 7.437343120574951 68.16519165039062 255 255 255
-12.562695503234863 0.7673416137695312 34.77669143676758 255 255 255
-67.99415588378906 0.16968344151973724 44.91731262207031 255 255 255
-51.59433364868164 4.043827056884766 32.26876449584961 255 255 255
-58.05856704711914 3.279858350753784 44.968502044677734 255 255 255
-51.81984329223633 -3.1735727787017822 45.443817138671875 255 255 255
-48.00371170043945 -2.315772294998169 47.380130767822266 255 255 255
-50.885231018066406 -1.3266817331314087 47.108211517333984 255 255 255
-44.403038024902344 -0.6372433304786682 48.012725830078125 255 255 255
-42.63508224487305 -0.16274438798427582 48.78254318237305 255 255 255
-67.94393920898438 -2.2725765705108643 44.16637420654297 255 255 255
-72.1360855102539 -1.1405768394470215 44.00685501098633 255 255 255
-61.72694778442383 -6.543697834014893 45.45569610595703 255 255 255
-48.79489517211914 3.781808376312256 47.10682678222656 255 255 255
-56.033546447753906 -4.6381354331970215 45.03837203979492 255 255 255
-49.20872497558594 0.005938875023275614 46.90035629272461 255 255 255
-49.630802154541016 4.360963344573975 36.96358108520508 255 255 255
-54.62986373901367 0.24045991897583008 45.30848693847656 255 255 255
-48.77932357788086 1.672124981880188 47.22403335571289 255 255 255
-52.219600677490234 -1.5111546516418457 46.99388885498047 255 255 255
-51.10602951049805 4.775768280029297 36.36012649536133 255 255 255
-48.40660095214844 -3.4991021156311035 31.509532928466797 255 255 255
-61.5175895690918 -8.128522872924805 45.006126403808594 255 255 255
-55.29306411743164 -0.29706355929374695 46.81433868408203 255 255 255
-48.599918365478516 1.686457872390747 47.16355895996094 255 255 255
-50.48658752441406 -2.584089517593384 46.25635528564453 255 255 255
-47.55492401123047 4.5126752853393555 33.85219192504883 255 255 255
-50.29669952392578 -2.7910382747650146 49.439327239990234 255 255 255
-32.17164993286133 5.770538330078125 47.55768585205078 255 255 255
-21.3813419342041 5.527987003326416 40.737098693847656 255 255 255
-23.143585205078125 6.026457786560059 46.20273971557617 255 255 255
-60.56031799316406 -2.1169545650482178 45.45391082763672 255 255 255
-52.31404495239258 3.3132569789886475 46.47727966308594 255 255 255
-43.58970260620117 0.12741999328136444 48.40330123901367 255 255 255
13.019463539123535 -1.240766167640686 43.36539840698242 255 255 255
-44.70122528076172 -1.7260626554489136 32.887882232666016 255 255 255
-50.96377944946289 5.386819362640381 35.158905029296875 255 255 255
-58.26089859008789 -5.60897159576416 45.42850112915039 255 255 255
-57.67041778564453 -0.39856138825416565 45.350120544433594 255 255 255
-56.030479431152344 -1.6510947942733765 46.27988815307617 255 255 255
-61.77012252807617 3.141162395477295 44.32038879394531 255 255 255
-71.989013671875 -9.015228271484375 43.375694274902344 255 255 255
-57.506263732910156 -2.7672314643859863 45.580867767333984 255 255 255
-58.028656005859375 -0.45337989926338196 45.368350982666016 255 255 255
-58.99534606933594 0.12353000789880753 44.98366928100586 255 255 255
-61.6298942565918 5.451479434967041 42.641239166259766 255 255 255
-71.80795288085938 -3.54424786567688 43.19676208496094 255 255 255
-65.58750915527344 0.835577130317688 44.186859130859375 255 255 255
-47.54677200317383 -1.0922964811325073 47.715599060058594 255 255 255
-57.06150436401367 3.3202407360076904 45.59431076049805 255 255 255
-47.555355072021484 -3.1129298210144043 32.0739860534668 255 255 255
-46.96287155151367 4.50926399230957 34.22920227050781 255 255 255
-67.80789184570312 1.425512671470642 43.48303985595703 255 255 255
-63.757022857666016 -6.576640605926514 45.01631164550781 255 255 255
-56.26606369018555 -1.7784912586212158 46.38700866699219 255 255 255
-47.99542999267578 4.507791996002197 33.551361083984375 255 255 255
-48.5466194152832 -3.4192521572113037 31.74117088317871 255 255 255
-71.68942260742188 -3.5099246501922607 42.96830368041992 255 255 255
-70.68008422851562 -1.9656884670257568 44.4992561340332 255 255 255
-62.81541061401367 -4.915596961975098 44.72572708129883 255 255 255
-53.64607620239258 0.32352176308631897 46.1973762512207 255 255 255
-64.22323608398438 -5.578063488006592 45.04549789428711 255 255 255
-54.51859664916992 -0.7685536742210388 43.761016845703125 255 255 255
-55.81851577758789 1.88734769821167 45.69730758666992 255 255 255
-69.27606964111328 -5.668184757232666 43.201045989990234 255 255 255
-45.99494934082031 -1.3269892930984497 48.352867126464844 255 255 255
-53.89872741699219 -5.620394229888916 46.8991584777832 255 255 255
-45.500732421875 -0.08592791855335236 47.811527252197266 255 255 255
-65.88751220703125 -10.774222373962402 45.144962310791016 255 255 255
-56.6531867980957 5.934673309326172 45.064353942871094 255 255 255
-47.4997444152832 5.508592128753662 43.86455154418945 255 255 255
-61.45718765258789 1.731433391571045 44.9032096862793 255 255 255
-69.02803802490234 -3.723829746246338 44.015254974365234 255 255 255
-63.45037841796875 3.384890079498291 44.3354377746582 255 255 255
-64.36880493164062 -1.9610986709594727 44.69337844848633 255 255 255
-48.00294876098633 4.898284435272217 37.052818298339844 255 255 255
-69.52103424072266 -10.538077354431152 44.25196838378906 255 255 255
-46.13175964355469 0.2692696750164032 47.529998779296875 255 255 255
-44.22880172729492 -0.4949529469013214 35.154815673828125 255 255 255
-53.445064544677734 -1.78143310546875 47.15134048461914 255 255 255
-59.04648971557617 -9.023152351379395 45.53249740600586 255 255 255
-52.96651077270508 -1.717544436454773 47.05998992919922 255 255 255
-57.18416213989258 0.014690685085952282 45.806209564208984 255 255 255
-56.968196868896484 0.040919799357652664 45.74280548095703 255 255 255
-43.56489181518555 -0.09598488360643387 48.45155334472656 255 255 255
-49.56545639038086 -3.557838201522827 47.27389907836914 255 255 255
-71.17860412597656 -0.9799153804779053 43.00927734375 255 255 255
-63.16911315917969 3.4212899208068848 40.86371612548828 255 255 255
-66.30889129638672 0.8531237840652466 43.72754669189453 255 255 255
-66.29290771484375 -0.8610596656799316 43.53678894042969 255 255 255
-45.460453033447266 -0.9197450876235962 48.07331085205078 255 255 255
-52.80807876586914 0.3293859660625458 46.44207000732422 255 255 255
-71.58344268798828 -13.864558219909668 45.864986419677734 255 255 255
-43.84644317626953 -3.1992759704589844 33.159915924072266 255 255 255
-56.51817321777344 -5.663522720336914 45.87055206298828 255 255 255
-48.05117416381836 4.515960216522217 33.56288146972656 255 255 255
-48.63091278076172 -1.834669589996338 32.8935546875 255 255 255
-56.67833709716797 -0.045102380216121674 45.385902404785156 255 255 255
-45.055171966552734 0.20293281972408295 48.20771408081055 255 255 255
-57.43095016479492 5.941588878631592 44.89775085449219 255 255 255
-40.699317932128906 5.472390174865723 45.04600524902344 255 255 255
-60.39013671875 -0.904755711555481 45.35710525512695 255 255 255
-44.63822555541992 4.595785140991211 35.40346145629883 255 255 255
-40.865840911865234 4.069300174713135 48.088958740234375 255 255 255
-31.631017684936523 -14.30675220489502 56.313865661621094 255 255 255
-25.213958740234375 6.143958568572998 45.8598747253418 255 255 255
-45.29423904418945 2.5599191188812256 48.50580596923828 255 255 255
-45.0643196105957 2.637678384780884 48.5495491027832 255 255 255
-43.8863410949707 -1.5139453411102295 48.859642028808594 255 255 255
-43.71818542480469 0.5357445478439331 47.876522064208984 255 255 255
-50.821189880371094 -1.7830955982208252 47.449520111083984 255 255 255
-56.89986038208008 3.659250497817993 45.203853607177734 255 255 255
-65.58404541015625 2.9226865768432617 44.0721321105957 255 255 255
-53.71086120605469 4.470636367797852 45.57060241699219 255 255 255
-57.72629165649414 -0.38547396659851074 45.36351776123047 255 255 255
-54.15617370605469 2.0484871864318848 45.935546875 255 255 255
-52.287109375 0.2626824676990509 46.335792541503906 255 255 255
-49.81536865234375 3.131960153579712 34.975154876708984 255 255 255
-56.72034454345703 3.6732423305511475 45.159488677978516 255 255 255
-51.820472717285156 2.7046773433685303 32.71440124511719 255 255 255
-50.087806701660156 4.502945423126221 36.26506042480469 255 255 255
-67.65255737304688 0.9259346723556519 43.140010833740234 255 255 255
-63.2906379699707 -2.405914545059204 44.99140930175781 255 255 255
-58.84571838378906 3.0420379638671875 44.929290771484375 255 255 255
-45.257198333740234 -1.2563555240631104 48.39784240722656 255 255 255
-53.30857467651367 3.7627391815185547 46.03132247924805 255 255 255
-59.88356399536133 -5.867505073547363 45.66962432861328 255 255 255
-72.08702850341797 4.385232925415039 40.31808090209961 255 255 255
-69.96704864501953 -11.607470512390137 44.81271743774414 255 255 255
-49.581138610839844 1.6275099515914917 46.82313537597656 255 255 255
-50.10120391845703 -4.268280506134033 46.89248275756836 255 255 255
-48.921226501464844 -5.257843017578125 47.6025276184082 255 255 255
-52.75857162475586 -5.685298919677734 45.16301727294922 255 255 255
-56.22038650512695 -0.7153998017311096 46.0772819519043 255 255 255
-57.08478546142578 -2.407968759536743 46.817420959472656 255 255 255
-45.024173736572266 4.654178619384766 34.125518798828125 255 255 255
-57.649444580078125 1.3121509552001953 45.141136169433594 255 255 255
-72.45268249511719 -0.1630236804485321 42.861717224121094 255 255 255
-62.459754943847656 3.1577847003936768 44.5833625793457 255 255 255
-64.70977020263672 -2.1026968955993652 44.80812454223633 255 255 255
-56.39859390258789 -0.32472583651542664 45.47222137451172 255 255 255
-53.364227294921875 0.19060595333576202 45.2999153137207 255 255 255
-55.099300384521484 -7.892636775970459 46.35165786743164 255 255 255
-48.57982635498047 1.6664090156555176 47.19717788696289 255 255 255
-40.496849060058594 0.17025206983089447 49.13117218017578 255 255 255
-40.19874572753906 2.102419376373291 48.70037078857422 255 255 255
-39.58863830566406 2.065363645553589 49.040313720703125 255 255 255
-45.533355712890625 -0.0936908945441246 47.83594512939453 255 255 255
-57.580257415771484 -5.687769412994385 46.027034759521484 255 255 255
-44.98624801635742 -0.6849154233932495 34.51152038574219 255 255 255
-46.30658721923828 4.659079074859619 33.402801513671875 255 255 255
-43.59242630004883 4.154646396636963 48.36769485473633 255 255 255
