-37.84247970581055 -4.919776916503906 -52.673561096191406 255 255 255
-44.05307388305664 -5.1435441970825195 -39.1718864440918 255 255 255
-44.10144805908203 -4.189267635345459 -39.58477020263672 255 255 255
-43.63874816894531 -5.567828178405762 -39.062686920166016 255 255 255
-41.51907730102539 -4.987468242645264 -50.0010986328125 255 255 255
-42.981239318847656 -4.4142889976501465 -39.86859130859375 255 255 255
-45.23955154418945 -4.964492321014404 -38.95459747314453 255 255 255
-45.13679504394531 -4.953490257263184 -38.880855560302734 255 255 255
-38.42548370361328 -3.7060444355010986 -41.264156341552734 255 255 255
-44.38036346435547 -5.114642143249512 -46.063819885253906 255 255 255
-44.73069381713867 -7.772424221038818 -49.406333923339844 255 255 255
-44.86001968383789 -11.438080787658691 -48.68247604370117 255 255 255
-40.233924865722656 -5.359939098358154 -47.68376922607422 255 255 255
-44.72214126586914 -5.124124526977539 -38.62065124511719 255 255 255
-40.532569885253906 -5.234480857849121 -47.3969612121582 255 255 255
-41.004093170166016 -8.907295227050781 -50.70519256591797 255 255 255
-40.426902770996094 -9.602792739868164 -50.91201400756836 255 255 255
-43.151493072509766 -4.901793479919434 -39.723716735839844 255 255 255
-45.018714904785156 -5.291215896606445 -45.71582794189453 255 255 255
-44.71735763549805 -5.342811107635498 -45.8524169921875 255 255 255
-38.051109313964844 -3.678499460220337 -41.426544189453125 255 255 255
-43.671180725097656 -5.357797622680664 -46.29536819458008 255 255 255
-43.495052337646484 -5.110877990722656 -46.662315368652344 255 255 255
-37.7708740234375 -5.212573051452637 -48.90074920654297 255 255 255
-44.94942855834961 -5.16508150100708 -38.63411331176758 255 255 255
-45.114532470703125 -4.363096714019775 -39.20418930053711 255 255 255
-43.02839279174805 -6.091716289520264 -46.59748840332031 255 255 255
-42.68045425415039 -5.135830879211426 -46.78541946411133 255 255 255
-42.93593978881836 -5.088133335113525 -46.574275970458984 255 255 255
-43.305030822753906 -8.542247772216797 -49.09256362915039 255 255 255
-38.47454071044922 -4.2070393562316895 -41.929718017578125 255 255 255
-42.78326416015625 -11.138083457946777 -49.38146209716797 255 255 255
-41.370662689208984 -5.171760082244873 -47.57565689086914 255 255 255
-42.079681396484375 -10.814867973327637 -50.17317199707031 255 255 255
-35.70295333862305 -15.943758964538574 -58.86747741699219 255 255 255
-41.562042236328125 -5.1028947830200195 -47.225830078125 255 255 255
-45.15891647338867 -4.957236289978027 -38.94382858276367 255 255 255
-45.03348159790039 -4.919178009033203 -38.90945053100586 255 255 255
-43.870811462402344 -13.004228591918945 -49.696773529052734 255 255 255
-45.34990310668945 -4.9652628898620605 -38.9148063659668 255 255 255
-42.76288986206055 -5.132805824279785 -46.66613006591797 255 255 255
-43.059749603271484 -7.379607677459717 -49.635215759277344 255 255 255
-43.78873062133789 -7.565803527832031 -49.725711822509766 255 255 255
-43.231815338134766 -4.752654552459717 -39.74571228027344 255 255 255
-44.237003326416016 -4.92141580581665 -38.13481521606445 255 255 255
-44.2031364440918 -11.164449691772461 -48.79743576049805 255 255 255
-43.99309539794922 -7.134080410003662 -49.272708892822266 255 255 255
-41.93860626220703 -4.04892110824585 -38.53031921386719 255 255 255
-40.044734954833984 -11.631590843200684 -50.88175964355469 255 255 255
-43.446563720703125 -4.529361724853516 -39.76103591918945 255 255 255
-44.44581985473633 -5.279891014099121 -46.407283782958984 255 255 255
-38.526451110839844 -6.217605113983154 -53.116512298583984 255 255 255
-44.41433334350586 -5.4776506423950195 -46.1666259765625 255 255 255
-44.373226165771484 -5.593747615814209 -46.18954849243164 255 255 255
-44.308353424072266 -5.096445560455322 -46.074974060058594 255 255 255
-44.409603118896484 -5.421905517578125 -45.82391357421875 255 255 255
-43.54993438720703 -4.773369312286377 -38.45049285888672 255 255 255
-44.42365264892578 -4.882728099822998 -38.46726989746094 255 255 255
-38.3675651550293 -11.677192687988281 -51.46332550048828 255 255 255
-37.65452194213867 -8.90792465209961 -52.03303527832031 255 255 255
-37.70388412475586 -8.864996910095215 -51.93735122680664 255 255 255
-37.87126541137695 -5.364247798919678 -48.382972717285156 255 255 255
-40.91868591308594 -5.205466270446777 -48.38533401489258 255 255 255
-36.073177337646484 -5.150401592254639 -51.881507873535156 255 255 255
-37.05342102050781 -6.521220684051514 -51.43046188354492 255 255 255
-36.332462310791016 -5.164602756500244 -51.63507080078125 255 255 255
-41.0559196472168 -5.750462055206299 -46.762916564941406 255 255 255
-39.729896545410156 -5.191020965576172 -47.832767486572266 255 255 255
-35.88179397583008 -4.250747203826904 -43.07883834838867 255 255 255
-39.6281852722168 -5.222925662994385 -47.770320892333984 255 255 255
-40.693477630615234 -4.5861945152282715 -50.540592193603516 255 255 255
-42.185211181640625 -10.542271614074707 -49.7330436706543 255 255 255
-38.07868194580078 -4.967320919036865 -49.88862228393555 255 255 255
-39.136451721191406 -5.139028072357178 -48.57155990600586 255 255 255
-32.289737701416016 -5.565110206604004 -55.12419891357422 255 255 255
-37.41896438598633 -4.999940395355225 -50.09495162963867 255 255 255
-35.30664825439453 -4.134129524230957 -43.164615631103516 255 255 255
-41.98196792602539 -5.195529937744141 -48.09188461303711 255 255 255
-39.75092315673828 -8.935112953186035 -51.322418212890625 255 255 255
-39.3810920715332 -8.77996826171875 -51.24871063232422 255 255 255
-39.317325592041016 -5.305314540863037 -47.860984802246094 255 255 255
-39.441558837890625 -8.768701553344727 -51.22888946533203 255 255 255
-41.11319351196289 -5.117517471313477 -47.35782241821289 255 255 255
-42.10757827758789 -6.894359588623047 -50.383392333984375 255 255 255
-41.655967712402344 -8.930360794067383 -50.58710861206055 255 255 255
-41.635711669921875 -10.424576759338379 -49.750022888183594 255 255 255
-40.015621185302734 -5.164168357849121 -47.92593765258789 255 255 255
-38.80123519897461 -5.713486194610596 -48.661720275878906 255 255 255
-42.93443298339844 -5.151788711547852 -46.827857971191406 255 255 255
-41.6530647277832 -5.320786952972412 -47.33400344848633 255 255 255
-44.56113815307617 -6.048076152801514 -45.93351745605469 255 255 255
-41.99418258666992 -4.289436340332031 -40.54985427856445 255 255 255
-41.51913070678711 -4.242591857910156 -40.747196197509766 255 255 255
-42.80099868774414 -5.010282516479492 -47.35356140136719 255 255 255
-39.68056106567383 -9.234343528747559 -50.688297271728516 255 255 255
-39.513465881347656 -9.363429069519043 -50.97002029418945 255 255 255
-39.616416931152344 -10.724390029907227 -50.5242919921875 255 255 255
-39.529273986816406 -11.784153938293457 -50.79631042480469 255 255 255
-36.3277702331543 -5.1776628494262695 -50.03308868408203 255 255 255
-43.86720275878906 -5.162222862243652 -46.22352981567383 255 255 255
-37.86051559448242 -5.222912311553955 -48.78145980834961 255 255 255
-36.892059326171875 -5.525442600250244 -51.53916931152344 255 255 255
-35.08570098876953 -4.399166107177734 -44.65196990966797 255 255 255
-42.90520477294922 -5.310675621032715 -46.751678466796875 255 255 255
-32.87669372558594 -5.608636379241943 -55.38717269897461 255 255 255
-40.814022064208984 -5.27197265625 -47.835147857666016 255 255 255
-35.11699676513672 -4.439608097076416 -44.534629821777344 255 255 255
-36.70471954345703 -6.380880355834961 -52.848201751708984 255 255 255
-40.880374908447266 -5.13612699508667 -47.613460540771484 255 255 255
-41.33763885498047 -10.541695594787598 -50.088279724121094 255 255 255
-40.43711471557617 -6.2854838371276855 -47.66032028198242 255 255 255
-38.9948616027832 -7.676990509033203 -52.18390655517578 255 255 255
-36.17763137817383 -3.816056966781616 -42.41719436645508 255 255 255
-42.276371002197266 -4.8782830238342285 -41.24215316772461 255 255 255
-35.0255012512207 -4.443698883056641 -44.64506912231445 255 255 255
-35.033695220947266 -4.4333977699279785 -44.545310974121094 255 255 255
-37.547706604003906 -11.796833038330078 -52.20000076293945 255 255 255
-36.7112922668457 -5.72074031829834 -49.05190658569336 255 255 255
-35.277259826660156 -5.380662441253662 -50.19346237182617 255 255 255
-37.36685562133789 -5.749377727508545 -48.85527420043945 255 255 255
-36.16109085083008 -7.6606526374816895 -52.95002365112305 255 255 255
-37.05195617675781 -12.469353675842285 -51.926753997802734 255 255 255
-38.351680755615234 -5.129827976226807 -48.641483306884766 255 255 255
-36.50486755371094 -6.51142692565918 -49.37677001953125 255 255 255
-35.181461334228516 -8.304130554199219 -50.31836700439453 255 255 255
-33.426570892333984 -8.669934272766113 -51.94393539428711 255 255 255
-36.8377799987793 -5.723988056182861 -49.05733871459961 255 255 255
-34.970497131347656 -5.32680606842041 -49.908226013183594 255 255 255
-35.12532424926758 -9.174121856689453 -53.01872634887695 255 255 255
-35.20507049560547 -9.598982810974121 -52.80849075317383 255 255 255
-34.546775817871094 -7.879586219787598 -51.72948455810547 255 255 255
-34.6149787902832 -8.529836654663086 -50.9842529296875 255 255 255
-34.474830627441406 -11.717902183532715 -53.52345657348633 255 255 255
-34.255062103271484 -5.425174713134766 -50.52909469604492 255 255 255
-34.40937423706055 -5.44627571105957 -50.33576965332031 255 255 255
-34.10356903076172 -8.40071964263916 -51.10932540893555 255 255 255
-31.721538543701172 -5.143854141235352 -52.72957229614258 255 255 255
-32.7872428894043 -7.114418029785156 -52.38922119140625 255 255 255
-34.56392288208008 -5.309228420257568 -51.10165023803711 255 255 255
-35.28553771972656 -4.451748847961426 -44.585784912109375 255 255 255
-35.50745391845703 -4.209237575531006 -43.22724151611328 255 255 255
-37.12221145629883 -5.231111526489258 -49.0525016784668 255 255 255
-34.18302917480469 -8.804825782775879 -53.134437561035156 255 255 255
-36.77885437011719 -5.7222089767456055 -48.96855163574219 255 255 255
-34.86251449584961 -5.301248073577881 -50.039798736572266 255 255 255
-32.76969909667969 -9.152107238769531 -52.94478988647461 255 255 255
-31.943220138549805 -7.429032325744629 -53.65184783935547 255 255 255
-34.39947509765625 -8.98341178894043 -51.92873001098633 255 255 255
-34.244354248046875 -8.333878517150879 -50.9506950378418 255 255 255
-34.76470184326172 -11.583555221557617 -53.00922393798828 255 255 255
-35.70945739746094 -4.532205581665039 -44.4739990234375 255 255 255
-36.68539810180664 -5.724847793579102 -49.296783447265625 255 255 255
-34.369625091552734 -5.4378485679626465 -50.39261245727539 255 255 255
-36.06040954589844 -7.432558536529541 -51.89073181152344 255 255 255
-33.576236724853516 -12.14117431640625 -54.52668762207031 255 255 255
-32.634910583496094 -8.981086730957031 -52.92998123168945 255 255 255
-35.27974319458008 -11.096650123596191 -52.39000701904297 255 255 255
-32.45974349975586 -7.124250888824463 -57.046077728271484 255 255 255
-36.08101272583008 -9.055370330810547 -53.069000244140625 255 255 255
-36.189117431640625 -7.666003227233887 -52.91242980957031 255 255 255
-35.47151184082031 -7.549860954284668 -52.749080657958984 255 255 255
-35.325523376464844 -9.5418701171875 -52.649192810058594 255 255 255
-34.2731819152832 -9.771530151367188 -53.533912658691406 255 255 255
-34.5470085144043 -9.517838478088379 -53.44154357910156 255 255 255
-35.14356994628906 -5.614879608154297 -50.853843688964844 255 255 255
-31.41729164123535 -8.86844253540039 -51.65336990356445 255 255 255
-33.39809036254883 -9.689358711242676 -53.739784240722656 255 255 255
-33.792179107666016 -9.263724327087402 -52.76588439941406 255 255 255
-33.8167839050293 -11.468353271484375 -53.22593688964844 255 255 255
-34.299739837646484 -5.433689117431641 -50.46129608154297 255 255 255
-33.96082305908203 -5.177268981933594 -50.51405334472656 255 255 255
-32.45270919799805 -9.323338508605957 -53.37519454956055 255 255 255
-34.39022445678711 -9.500171661376953 -53.12995529174805 255 255 255
-30.858959197998047 -7.485030651092529 -55.069297790527344 255 255 255
-33.93519973754883 -9.311666488647461 -52.889408111572266 255 255 255
-34.00086212158203 -5.220595359802246 -52.25123977661133 255 255 255
-32.62248611450195 -10.811352729797363 -53.829689025878906 255 255 255
-33.294464111328125 -10.600637435913086 -53.33375549316406 255 255 255
-30.816967010498047 -6.715722560882568 -52.45006561279297 255 255 255
-33.43696594238281 -7.678767204284668 -50.59562301635742 255 255 255
-33.60620880126953 -7.606177806854248 -50.34958267211914 255 255 255
-33.22037887573242 -8.33908748626709 -51.07101821899414 255 255 255
-32.74148178100586 -7.662473201751709 -50.60504150390625 255 255 255
-33.97111511230469 -7.001448154449463 -50.93256378173828 255 255 255
-34.463096618652344 -5.1982598304748535 -50.1233024597168 255 255 255
-30.507408142089844 -8.152524948120117 -52.895870208740234 255 255 255
-30.098461151123047 -8.418601036071777 -52.430572509765625 255 255 255
-31.98897361755371 -7.213252067565918 -50.041194915771484 255 255 255
-32.91440200805664 -7.081099033355713 -50.29823303222656 255 255 255
-33.63475799560547 -6.883961200714111 -49.38322830200195 255 255 255
-29.57088851928711 -7.589340686798096 -55.67752456665039 255 255 255
-31.326168060302734 -5.217545032501221 -51.58487319946289 255 255 255
-30.30229949951172 -5.052308559417725 -51.98606872558594 255 255 255
-32.1749382019043 -10.753290176391602 -53.63997268676758 255 255 255
-31.89559555053711 -10.430150032043457 -53.84007263183594 255 255 255
-31.895971298217773 -10.471138000488281 -53.870784759521484 255 255 255
-31.470184326171875 -7.278086185455322 -54.22929000854492 255 255 255
-29.89621353149414 -7.668338775634766 -55.86077117919922 255 255 255
-32.862548828125 -10.65530776977539 -53.48978042602539 255 255 255
-32.17854309082031 -5.355893611907959 -51.11857604980469 255 255 255
-30.755168914794922 -5.279605388641357 -52.149024963378906 255 255 255
-31.6121883392334 -7.332185745239258 -50.49845886230469 255 255 255
-31.362010955810547 -8.105185508728027 -51.30453109741211 255 255 255
-29.744306564331055 -5.032286643981934 -51.49092483520508 255 255 255
-27.374465942382812 -8.608216285705566 -55.63792419433594 255 255 255
-31.84998321533203 -7.256591796875 -50.20043182373047 255 255 255
-31.013368606567383 -7.3842291831970215 -51.17597961425781 255 255 255
-31.626453399658203 -7.705809116363525 -51.48106002807617 255 255 255
-31.260244369506836 -7.380497455596924 -50.82191848754883 255 255 255
-31.851028442382812 -7.253720760345459 -50.17527389526367 255 255 255
-30.88531494140625 -5.105177402496338 -51.570518493652344 255 255 255
-31.21091651916504 -7.2032670974731445 -50.68926239013672 255 255 255
-33.11434555053711 -7.674068927764893 -50.608455657958984 255 255 255
-31.691184997558594 -8.900169372558594 -51.97511291503906 255 255 255
-32.13314437866211 -8.700798988342285 -51.444942474365234 255 255 255
-31.04205894470215 -8.903303146362305 -52.24910354614258 255 255 255
-26.728866577148438 -10.77608585357666 -56.865081787109375 255 255 255
-32.40966033935547 -10.082314491271973 -53.09398651123047 255 255 255
-30.36726188659668 -7.417547702789307 -51.81037139892578 255 255 255
-30.98695182800293 -7.2257771492004395 -50.93091583251953 255 255 255
-28.849666595458984 -5.645956039428711 -54.97682571411133 255 255 255
-28.03050422668457 -5.591459274291992 -55.51793670654297 255 255 255
-29.698179244995117 -5.674983501434326 -53.206382751464844 255 255 255
-29.30716896057129 -5.562734603881836 -53.739498138427734 255 255 255
-31.66139793395996 -7.279085636138916 -50.210758209228516 255 255 255
-31.34870147705078 -6.727237701416016 -51.89586639404297 255 255 255
-31.359073638916016 -5.36570405960083 -52.33827590942383 255 255 255
-31.858156204223633 -8.781095504760742 -51.69367218017578 255 255 255
-31.20781707763672 -6.510803699493408 -52.121883392333984 255 255 255
-31.437719345092773 -5.483504772186279 -51.629024505615234 255 255 255
-29.62381935119629 -5.925886631011963 -54.132774353027344 255 255 255
-29.929832458496094 -5.05956506729126 -51.317134857177734 255 255 255
-29.300813674926758 -5.065011501312256 -51.39869689941406 255 255 255
-29.25012969970703 -5.062516689300537 -51.42232131958008 255 255 255
-31.315303802490234 -5.4302496910095215 -52.12291717529297 255 255 255
-31.650196075439453 -5.523038387298584 -51.310943603515625 255 255 255
-27.98572540283203 -5.508692741394043 -54.71232604980469 255 255 255
-30.91602897644043 -7.444480895996094 -51.0696907043457 255 255 255
-29.089088439941406 -5.667440414428711 -54.066314697265625 255 255 255
-29.021814346313477 -5.548825740814209 -54.091468811035156 255 255 255
-28.65743064880371 -8.293792724609375 -54.734317779541016 255 255 255
-30.897903442382812 -7.420990467071533 -51.29679489135742 255 255 255
-30.93539047241211 -7.435737609863281 -51.25241470336914 255 255 255
-31.292383193969727 -7.115400791168213 -50.57103729248047 255 255 255
-30.54787254333496 -7.033021926879883 -52.00751876831055 255 255 255
-31.215381622314453 -6.771243095397949 -52.07124710083008 255 255 255
-31.951231002807617 -6.478416442871094 -51.31011199951172 255 255 255
-30.27423667907715 -5.391991138458252 -51.66749954223633 255 255 255
-27.81560516357422 -6.48436975479126 -55.053951263427734 255 255 255
-27.17481231689453 -5.428754806518555 -55.92641830444336 255 255 255
-80.07880401611328 -10.597513198852539 5.681005477905273 255 255 255
-85.80125427246094 -6.311620235443115 -31.745344161987305 255 255 255
-39.571205139160156 -11.674519538879395 -53.15645217895508 255 255 255
-87.27350616455078 -4.450756072998047 -1.8748358488082886 255 255 255
-48.53253936767578 -9.920491218566895 -30.042810440063477 255 255 255
-107.75968933105469 -28.466447830200195 -33.20341491699219 255 255 255
-47.265926361083984 -15.506595611572266 -50.75775909423828 255 255 255
-106.66998291015625 -16.831811904907227 -32.98438262939453 255 255 255
-61.89912796020508 -14.787328720092773 -32.082115173339844 255 255 255
-50.44837188720703 -4.724544048309326 -24.861570358276367 255 255 255
-65.32981872558594 -5.098660469055176 -9.815729141235352 255 255 255
-68.10020446777344 -10.092605590820312 -39.24482727050781 255 255 255
-77.46015930175781 -30.087997436523438 -37.96228790283203 255 255 255
-71.80300903320312 -31.92939567565918 -37.320106506347656 255 255 255
-56.7618293762207 -8.421910285949707 -16.594783782958984 255 255 255
-89.06938934326172 -18.103256225585938 -34.126075744628906 255 255 255
-93.29735565185547 -16.014577865600586 -39.82862854003906 255 255 255
-69.90908813476562 -24.68010139465332 -30.48537254333496 255 255 255
-82.06188201904297 -29.710933685302734 -44.57040023803711 255 255 255
-94.60930633544922 -26.51938819885254 -39.679847717285156 255 255 255
-35.37673568725586 -12.35336685180664 -56.79340744018555 255 255 255
-101.10592651367188 -20.843338012695312 -35.29733657836914 255 255 255
-99.8738021850586 -7.072116374969482 -34.86484146118164 255 255 255
-82.5388412475586 -3.8144466876983643 6.769838333129883 255 255 255
-61.5152587890625 -6.029453754425049 -11.499737739562988 255 255 255
-103.1369400024414 -7.166951656341553 -28.151382446289062 255 255 255
-99.41053009033203 -29.710233688354492 -37.66884231567383 255 255 255
-86.67000579833984 -24.160873413085938 -41.92336654663086 255 255 255
-86.99488067626953 -6.659087657928467 -34.53669357299805 255 255 255
-82.65837860107422 -20.443693161010742 -44.60615921020508 255 255 255
-69.19649505615234 -7.616476058959961 -23.322071075439453 255 255 255
-99.43077087402344 -15.927253723144531 -35.75449752807617 255 255 255
-96.57376098632812 -17.048978805541992 -39.30997848510742 255 255 255
-90.82858276367188 -26.579343795776367 -41.21053695678711 255 255 255
-84.85099792480469 -2.4957499504089355 -19.127277374267578 255 255 255
-82.79795837402344 -5.418637752532959 1.9854856729507446 255 255 255
-97.51557159423828 -15.238141059875488 -33.167274475097656 255 255 255
-50.87294006347656 -13.58356761932373 -39.682281494140625 255 255 255
-66.10591125488281 -4.495908260345459 -4.810103416442871 255 255 255
-83.60929870605469 -27.528125762939453 -37.20048522949219 255 255 255
-98.0781021118164 -26.10755729675293 -37.297061920166016 255 255 255
-88.9955825805664 -6.5371904373168945 -32.176414489746094 255 255 255
-104.37162780761719 -25.42368507385254 -32.08805465698242 255 255 255
-47.51686096191406 -14.943891525268555 -50.03254699707031 255 255 255
-91.93115997314453 -18.610137939453125 -14.44237995147705 255 255 255
-87.44861602783203 -7.051187515258789 -5.443387031555176 255 255 255
-102.75350952148438 -21.0371036529541 -35.504066467285156 255 255 255
-88.50143432617188 -13.853435516357422 -3.8481390476226807 255 255 255
-40.53467559814453 -16.44416046142578 -40.7132682800293 255 255 255
-90.69530487060547 -4.83477783203125 -25.09853172302246 255 255 255
-81.79854583740234 -2.6073405742645264 -16.518075942993164 255 255 255
-81.27941131591797 -11.654947280883789 4.698464870452881 255 255 255
-41.482967376708984 -9.412557601928711 -39.37138748168945 255 255 255
-80.93655395507812 -18.5050048828125 -23.593135833740234 255 255 255
-61.48945999145508 -9.174556732177734 -29.3364315032959 255 255 255
-85.28348541259766 -15.494978904724121 5.927734375 255 255 255
-85.67354583740234 -3.0890355110168457 6.115466117858887 255 255 255
-91.85504150390625 -6.844412326812744 -36.83908462524414 255 255 255
-86.4796142578125 -16.049938201904297 2.607318878173828 255 255 255
-86.74362182617188 -15.846338272094727 1.083894968032837 255 255 255
-79.60601806640625 -6.033728122711182 5.389255046844482 255 255 255
-70.3027114868164 -9.45203971862793 -13.168882369995117 255 255 255
-68.89180755615234 -8.669057846069336 -7.847137928009033 255 255 255
-84.37107849121094 -6.236690521240234 -29.805011749267578 255 255 255
-98.38633728027344 -29.123258590698242 -37.288841247558594 255 255 255
-86.71159362792969 -11.853178977966309 -39.873756408691406 255 255 255
-62.768741607666016 -11.778531074523926 -40.89958953857422 255 255 255
-54.60464096069336 -8.860676765441895 -45.371578216552734 255 255 255
-54.192012786865234 -17.219717025756836 -44.215797424316406 255 255 255
-28.740644454956055 -25.604854583740234 -56.76496124267578 255 255 255
-47.46746826171875 -12.80923843383789 -47.66373062133789 255 255 255
-48.09286117553711 -14.753645896911621 -45.22041702270508 255 255 255
-40.2338752746582 -4.994328022003174 -51.01261901855469 255 255 255
-84.4411849975586 -1.5019280910491943 5.16474723815918 255 255 255
-73.98731231689453 -6.866452217102051 -30.615081787109375 255 255 255
-72.53282928466797 -3.039612054824829 -3.7210323810577393 255 255 255
-78.22856903076172 -4.956330299377441 5.9094743728637695 255 255 255
-39.801334381103516 -9.901671409606934 -51.45973205566406 255 255 255
-49.81549835205078 -12.594728469848633 -46.483985900878906 255 255 255
-44.08244323730469 -3.9242751598358154 -36.548519134521484 255 255 255
-39.89552688598633 -10.543988227844238 -50.19208908081055 255 255 255
-44.567588806152344 -15.893718719482422 -48.11930465698242 255 255 255
-83.9261474609375 -4.682116985321045 -29.179039001464844 255 255 255
-57.37361526489258 -3.7301058769226074 -33.70464324951172 255 255 255
-70.690673828125 -7.286230564117432 -37.55363082885742 255 255 255
-98.40608215332031 -11.532243728637695 -32.135345458984375 255 255 255
-79.93606567382812 -4.740422248840332 -30.838722229003906 255 255 255
-85.6287612915039 -9.044453620910645 -37.54266357421875 255 255 255
-81.72892761230469 -7.708539009094238 -34.78633117675781 255 255 255
-87.7700424194336 -5.3722710609436035 -0.9357196688652039 255 255 255
-92.19558715820312 -11.551187515258789 -7.9453253746032715 255 255 255
-87.09188079833984 -4.455733299255371 -25.600692749023438 255 255 255
-41.364627838134766 -10.672260284423828 -49.99990463256836 255 255 255
-91.11080169677734 -12.917831420898438 -8.531126976013184 255 255 255
-96.73582458496094 -10.563146591186523 -23.792116165161133 255 255 255
-89.2408218383789 -5.61923885345459 -30.752470016479492 255 255 255
-81.99855041503906 -6.219336032867432 -33.97642135620117 255 255 255
-95.56492614746094 -6.6993489265441895 -33.66377258300781 255 255 255
-95.09101867675781 -16.80971908569336 -39.651031494140625 255 255 255
-30.669485092163086 -10.477293014526367 -54.445518493652344 255 255 255
-31.142126083374023 -9.899553298950195 -54.016639709472656 255 255 255
-88.76258087158203 -3.9332332611083984 -3.129850387573242 255 255 255
-86.15188598632812 -8.178385734558105 -30.964603424072266 255 255 255
-75.71385955810547 -14.680633544921875 -41.23491287231445 255 255 255
-72.5308837890625 -4.901537895202637 -33.67315673828125 255 255 255
-70.1605224609375 -10.833381652832031 -38.28192901611328 255 255 255
-73.56562042236328 -9.846220970153809 -34.86638259887695 255 255 255
-36.5900764465332 -15.585892677307129 -51.448909759521484 255 255 255
-50.807350158691406 -16.026351928710938 -44.8442497253418 255 255 255
-60.48832702636719 -5.1572041511535645 -39.59624099731445 255 255 255
-49.31735610961914 -11.251492500305176 -29.31131935119629 255 255 255
-50.14450454711914 -4.3994951248168945 -35.567298889160156 255 255 255
-51.40372085571289 -7.5107645988464355 -46.772300720214844 255 255 255
-88.82554626464844 -11.928241729736328 -4.911953449249268 255 255 255
-80.31021881103516 -6.908209800720215 -30.686376571655273 255 255 255
-70.47884368896484 -7.531569480895996 -36.97764205932617 255 255 255
-66.53829193115234 -13.294116973876953 -39.208030700683594 255 255 255
-67.83304595947266 -9.738207817077637 -41.20551681518555 255 255 255
-79.42076110839844 -9.569625854492188 -33.655555725097656 255 255 255
-30.76608657836914 -11.25457763671875 -54.24729919433594 255 255 255
-33.02234649658203 -10.85263442993164 -53.67568588256836 255 255 255
-95.7907485961914 -4.821638584136963 -21.52709197998047 255 255 255
-103.94085693359375 -15.976876258850098 -33.64545440673828 255 255 255
-86.53801727294922 -6.453418731689453 -1.6861796379089355 255 255 255
-111.00177764892578 -23.136159896850586 -30.670473098754883 255 255 255
-99.42169952392578 -19.973804473876953 -17.285024642944336 255 255 255
-87.8043212890625 -9.602293014526367 -0.9889605045318604 255 255 255
-74.58768463134766 -20.403053283691406 -40.814632415771484 255 255 255
-58.8173828125 -7.246153354644775 -42.60568618774414 255 255 255
-43.93747329711914 -7.547426223754883 -49.69382858276367 255 255 255
-47.2884407043457 -8.66456413269043 -29.86065101623535 255 255 255
-59.23445510864258 -3.992544174194336 -33.330535888671875 255 255 255
-57.19466018676758 -12.423096656799316 -43.29275131225586 255 255 255
-56.79943084716797 -4.100605487823486 -33.759559631347656 255 255 255
-82.14181518554688 -6.631017684936523 2.821211814880371 255 255 255
-91.6717529296875 -10.9583158493042 -9.030044555664062 255 255 255
-74.6024169921875 -2.836888551712036 -13.342535972595215 255 255 255
-88.0058364868164 -5.418170928955078 -1.0920954942703247 255 255 255
-62.847530364990234 -11.676987648010254 -40.72510528564453 255 255 255
-44.569923400878906 -5.501364231109619 -38.74641799926758 255 255 255
-63.1471061706543 -7.894296169281006 -41.05211639404297 255 255 255
-71.15544128417969 -6.496135711669922 -36.891780853271484 255 255 255
-68.47323608398438 -9.971007347106934 -40.330291748046875 255 255 255
-55.6014404296875 -15.92788314819336 -43.6053352355957 255 255 255
-51.897823333740234 -18.335573196411133 -45.76992416381836 255 255 255
-64.11521911621094 -5.01851749420166 -37.59332275390625 255 255 255
-48.10669708251953 -10.989855766296387 -29.69443130493164 255 255 255
-46.95549011230469 -9.942829132080078 -31.187482833862305 255 255 255
-51.16078186035156 -11.100828170776367 -29.859487533569336 255 255 255
-59.13835525512695 -15.57197093963623 -41.96846389770508 255 255 255
-54.07958221435547 -18.753047943115234 -43.26115417480469 255 255 255
-59.29227066040039 -7.10250997543335 -42.105186462402344 255 255 255
-67.42601776123047 -5.804405212402344 -37.73360061645508 255 255 255
-64.42170715332031 -13.21933364868164 -39.79083251953125 255 255 255
-34.697608947753906 -5.00596809387207 -51.795440673828125 255 255 255
-92.04402160644531 -11.096444129943848 -9.384530067443848 255 255 255
-74.95458984375 -2.880707263946533 -15.609173774719238 255 255 255
-85.53998565673828 -5.329212188720703 -28.869461059570312 255 255 255
-98.35418701171875 -16.694568634033203 -35.58950424194336 255 255 255
-81.65099334716797 -6.1955790519714355 -33.75363540649414 255 255 255
-59.2995491027832 -11.222346305847168 -42.66018295288086 255 255 255
-81.84474182128906 -7.398656368255615 -33.19953155517578 255 255 255
-55.804443359375 -10.856398582458496 -43.932125091552734 255 255 255
-72.15837860107422 -4.572325229644775 -32.13530731201172 255 255 255
-80.6645736694336 -8.467766761779785 -30.41470718383789 255 255 255
-54.27849197387695 -16.054752349853516 -44.323097229003906 255 255 255
-105.28385162353516 -6.403273105621338 -32.637611389160156 255 255 255
-97.38333892822266 -8.557034492492676 -29.40233612060547 255 255 255
-94.4180908203125 -11.6182222366333 -24.01582908630371 255 255 255
-91.53211975097656 -15.490679740905762 -40.101200103759766 255 255 255
-94.18648529052734 -18.698041915893555 -39.938079833984375 255 255 255
-86.59320831298828 -5.842173099517822 -33.00944137573242 255 255 255
-88.03168487548828 -9.817543029785156 -32.68024444580078 255 255 255
-77.2352523803711 -4.52998161315918 -30.267959594726562 255 255 255
-75.11195373535156 -9.224662780761719 -34.38945007324219 255 255 255
-85.34656524658203 -8.59450912475586 -36.346744537353516 255 255 255
-91.77275848388672 -6.071102619171143 -30.494144439697266 255 255 255
-94.47187042236328 -16.579010009765625 -39.114261627197266 255 255 255
-109.21502685546875 -15.775494575500488 -31.272497177124023 255 255 255
-90.9691162109375 -10.569161415100098 -8.531180381774902 255 255 255
-83.61316680908203 -4.528035640716553 -30.679475784301758 255 255 255
-95.95613098144531 -11.463526725769043 -31.71384048461914 255 255 255
-83.25825500488281 -7.871458530426025 -28.020658493041992 255 255 255
-98.80494689941406 -7.321961402893066 -35.75041198730469 255 255 255
-84.98676300048828 -4.648228168487549 -28.036582946777344 255 255 255
-76.2320785522461 -3.5836126804351807 -25.657024383544922 255 255 255
-87.79337310791016 -2.329686164855957 -0.22161029279232025 255 255 255
-70.50871276855469 -15.394373893737793 -43.7652473449707 255 255 255
-78.12051391601562 -4.69069766998291 -30.628992080688477 255 255 255
-60.50461196899414 -20.320541381835938 -45.30398178100586 255 255 255
-75.11814880371094 -9.228004455566406 -34.42900085449219 255 255 255
-63.53977966308594 -13.517393112182617 -40.6403923034668 255 255 255
-72.2545394897461 -6.19130802154541 -36.372886657714844 255 255 255
-77.72972106933594 -7.107949256896973 -32.80173110961914 255 255 255
-48.85954284667969 -13.147948265075684 -46.10398864746094 255 255 255
-46.5582275390625 -3.685537576675415 -33.359901428222656 255 255 255
-55.96641540527344 -11.23865795135498 -44.19132995605469 255 255 255
-53.879329681396484 -15.67237663269043 -43.680625915527344 255 255 255
-47.63734436035156 -10.946470260620117 -30.848678588867188 255 255 255
-55.952056884765625 -8.822595596313477 -44.312984466552734 255 255 255
-91.12092590332031 -4.706160068511963 -7.554811477661133 255 255 255
-71.59675598144531 -7.184447765350342 -36.886077880859375 255 255 255
-87.5970687866211 -16.022748947143555 -41.7085075378418 255 255 255
-72.57485961914062 -6.992265701293945 -35.37392044067383 255 255 255
-85.90254974365234 -1.9138798713684082 -2.474337577819824 255 255 255
-86.23438262939453 -2.0352799892425537 -0.40457677841186523 255 255 255
-86.91932678222656 -6.388059616088867 -1.408220648765564 255 255 255
-78.5295181274414 -3.196197509765625 -23.179088592529297 255 255 255
-88.79277801513672 -12.579442977905273 -3.618847608566284 255 255 255
-106.02558898925781 -22.725126266479492 -34.359405517578125 255 255 255
-97.335693359375 -7.353771209716797 -37.705692291259766 255 255 255
-83.56842041015625 -8.17340087890625 -29.815805435180664 255 255 255
-88.37120819091797 -7.137173652648926 -38.699161529541016 255 255 255
-39.98213195800781 -19.80647850036621 -52.65226745605469 255 255 255
-65.98736572265625 -7.270918846130371 -38.05662536621094 255 255 255
-61.574031829833984 -4.473635673522949 -31.380102157592773 255 255 255
-54.1776237487793 -9.416210174560547 -30.971616744995117 255 255 255
-68.23603820800781 -11.914285659790039 -39.337738037109375 255 255 255
-60.14102554321289 -8.243672370910645 -43.5443229675293 255 255 255
-56.524253845214844 -11.607863426208496 -43.99738311767578 255 255 255
-72.17433166503906 -6.152335166931152 -36.55259704589844 255 255 255
-114.12982940673828 -28.83847999572754 -30.055828094482422 255 255 255
-54.65810775756836 -12.374775886535645 -44.546531677246094 255 255 255
-41.95487594604492 -11.890155792236328 -50.70624923706055 255 255 255
-48.038333892822266 -3.724273920059204 -34.245479583740234 255 255 255
-53.706905364990234 -12.441102981567383 -44.69813919067383 255 255 255
-57.73165512084961 -6.048418045043945 -40.26399612426758 255 255 255
-36.03471755981445 -9.654407501220703 -52.698612213134766 255 255 255
-44.26433563232422 -9.591546058654785 -49.25960922241211 255 255 255
-55.77626419067383 -10.899726867675781 -44.00208282470703 255 255 255
-54.19160079956055 -11.191911697387695 -44.541015625 255 255 255
-76.26351165771484 -3.540987968444824 -25.475343704223633 255 255 255
-100.62850189208984 -21.35265350341797 -36.96072006225586 255 255 255
-90.82650756835938 -15.742293357849121 -40.8065299987793 255 255 255
-94.73986053466797 -18.49680519104004 -39.118003845214844 255 255 255
-81.55059814453125 -6.063630104064941 -32.84008026123047 255 255 255
-85.83086395263672 -5.820259094238281 -25.951114654541016 255 255 255
-33.53351593017578 -11.208577156066895 -53.051883697509766 255 255 255
-30.524065017700195 -12.604791641235352 -54.57073211669922 255 255 255
-49.67934799194336 -11.081583976745605 -45.20428466796875 255 255 255
-55.5401725769043 -10.710173606872559 -43.96492385864258 255 255 255
-35.6338996887207 -4.910206317901611 -51.67962646484375 255 255 255
-30.377214431762695 -8.910748481750488 -52.681427001953125 255 255 255
-109.58465576171875 -22.53057098388672 -32.97694778442383 255 255 255
-70.88475799560547 -16.02314567565918 -41.832725524902344 255 255 255
-76.06804656982422 -17.974817276000977 -41.143558502197266 255 255 255
-96.11060333251953 -26.244461059570312 -38.41438674926758 255 255 255
-85.33544921875 -25.70181655883789 -42.966941833496094 255 255 255
-71.07149505615234 -15.605103492736816 -37.870582580566406 255 255 255
-79.34841918945312 -2.821035623550415 -16.63259506225586 255 255 255
-77.03680419921875 -10.287109375 -34.17884826660156 255 255 255
-76.9666976928711 -5.632263660430908 -31.371435165405273 255 255 255
-77.5637435913086 -5.1695404052734375 -32.000709533691406 255 255 255
-49.98894500732422 -6.580581188201904 -43.06196594238281 255 255 255
-69.97913360595703 -4.4801859855651855 -33.06830596923828 255 255 255
-32.97415542602539 -8.864693641662598 -52.56243896484375 255 255 255
-61.156002044677734 -6.011101245880127 -39.15215301513672 255 255 255
-60.47036361694336 -4.962269306182861 -38.19120407104492 255 255 255
-59.793968200683594 -5.657719135284424 -39.32173538208008 255 255 255
-112.80061340332031 -23.27907943725586 -32.442344665527344 255 255 255
-34.819175720214844 -12.093043327331543 -53.691551208496094 255 255 255
-52.23646926879883 -14.232392311096191 -44.469261169433594 255 255 255
-64.3458023071289 -9.762104988098145 -39.79590606689453 255 255 255
-37.24894332885742 -19.08696174621582 -50.62521743774414 255 255 255
-75.20536041259766 -20.496931076049805 -38.50590133666992 255 255 255
-77.57225036621094 -8.853806495666504 -36.978485107421875 255 255 255
-52.21530532836914 -7.073606491088867 -46.09503936767578 255 255 255
-58.205711364746094 -9.404906272888184 -43.20306396484375 255 255 255
-46.04739761352539 -14.96784496307373 -47.238433837890625 255 255 255
-56.86410903930664 -12.430453300476074 -43.698265075683594 255 255 255
-59.234798431396484 -7.335939407348633 -43.30149459838867 255 255 255
-57.855316162109375 -5.214624404907227 -40.46765899658203 255 255 255
-111.00035095214844 -26.676448822021484 -32.066646575927734 255 255 255
-92.30949401855469 -9.490423202514648 -9.978184700012207 255 255 255
-87.77198791503906 -4.673509120941162 -0.05552144721150398 255 255 255
-87.70096588134766 -4.643778324127197 -0.022581107914447784 255 255 255
-75.38905334472656 -5.841250419616699 -32.76959991455078 255 255 255
-59.40760803222656 -8.867433547973633 -41.828758239746094 255 255 255
-67.57437133789062 -6.352112293243408 -39.12506103515625 255 255 255
-30.8249568939209 -11.29566478729248 -54.25233840942383 255 255 255
-45.4791374206543 -11.624896049499512 -48.532249450683594 255 255 255
-61.987709045410156 -3.8125407695770264 -31.917882919311523 255 255 255
-105.11835479736328 -24.11258316040039 -33.89247131347656 255 255 255
-90.4612808227539 -7.563806056976318 -35.95121765136719 255 255 255
-96.47257995605469 -5.323760509490967 -26.741798400878906 255 255 255
-74.73596954345703 -4.366087913513184 -16.837482452392578 255 255 255
-90.45950317382812 -7.529240608215332 -9.193199157714844 255 255 255
-88.09915161132812 -10.15346622467041 -30.891923904418945 255 255 255
-77.44929504394531 -2.9603190422058105 -20.119945526123047 255 255 255
-86.66972351074219 -25.31254768371582 -42.01947784423828 255 255 255
-60.869239807128906 -18.868589401245117 -45.351497650146484 255 255 255
-90.76183319091797 -8.719815254211426 -10.954632759094238 255 255 255
-107.9579849243164 -11.649977684020996 -31.756023406982422 255 255 255
-107.38978576660156 -26.00443458557129 -33.16798400878906 255 255 255
-89.20245361328125 -4.297590732574463 -5.153500080108643 255 255 255
-76.465576171875 -14.940707206726074 -40.19072341918945 255 255 255
-50.87594223022461 -13.277689933776855 -45.31897735595703 255 255 255
-73.23016357421875 -6.514177322387695 -35.901859283447266 255 255 255
-81.82051086425781 -2.6538403034210205 -16.411457061767578 255 255 255
-70.3304443359375 -17.644474029541016 -46.91222381591797 255 255 255
-75.02864074707031 -4.404625415802002 -31.395822525024414 255 255 255
-73.53409576416016 -9.873991012573242 -34.8810920715332 255 255 255
-76.40666198730469 -6.823241710662842 -31.590465545654297 255 255 255
-47.87915802001953 -21.489931106567383 -49.53055191040039 255 255 255
-83.10757446289062 -7.320030212402344 -31.559520721435547 255 255 255
-79.33407592773438 -9.182953834533691 -31.69095230102539 255 255 255
-85.26728820800781 -9.30965805053711 -41.36109161376953 255 255 255
-69.59913635253906 -6.982120513916016 -37.285667419433594 255 255 255
-80.96329498291016 -7.4909820556640625 -38.00442886352539 255 255 255
-82.43531799316406 -6.939638614654541 -31.696094512939453 255 255 255
-93.0781478881836 -10.238286018371582 -24.401023864746094 255 255 255
-101.59269714355469 -8.100696563720703 -28.7502384185791 255 255 255
-92.48345184326172 -9.385303497314453 -35.86021041870117 255 255 255
-95.90320587158203 -8.472077369689941 -30.694374084472656 255 255 255
-77.71569061279297 -12.680933952331543 -38.39030456542969 255 255 255
-79.95357513427734 -8.854816436767578 10.499944686889648 255 255 255
-64.24078369140625 -5.636044025421143 -30.071964263916016 255 255 255
-73.48936462402344 -7.527440071105957 -36.657161712646484 255 255 255
-71.9654312133789 -7.189973831176758 -36.62004470825195 255 255 255
-78.34839630126953 -10.00056266784668 8.113333702087402 255 255 255
-82.2669906616211 -5.80154275894165 -33.77906799316406 255 255 255
-96.14852142333984 -11.814566612243652 -36.0767822265625 255 255 255
-85.98114776611328 -4.724544525146484 3.8078482151031494 255 255 255
-57.45304870605469 -5.215583324432373 -40.720767974853516 255 255 255
-38.484622955322266 -17.786561965942383 -50.9333381652832 255 255 255
-53.73158645629883 -11.568944931030273 -46.07985305786133 255 255 255
-49.91835403442383 -15.820231437683105 -45.764503479003906 255 255 255
-57.07506561279297 -11.627166748046875 -43.801395416259766 255 255 255
-78.2420654296875 -7.395383834838867 -37.255245208740234 255 255 255
-67.672119140625 -13.100743293762207 -40.70026397705078 255 255 255
-39.02596664428711 -7.6028828620910645 -51.73153305053711 255 255 255
-59.562320709228516 -7.301114559173584 -42.86767578125 255 255 255
-55.33732986450195 -3.928964853286743 -34.0860481262207 255 255 255
-85.90095520019531 -8.803085327148438 -36.8193359375 255 255 255
-74.00194549560547 -10.230223655700684 -34.94392776489258 255 255 255
-81.20057678222656 -8.6703462600708 -30.8560848236084 255 255 255
-41.13058090209961 -12.38182258605957 -51.8040771484375 255 255 255
-96.0438003540039 -6.765805244445801 -27.62731170654297 255 255 255
-95.55172729492188 -12.147333145141602 -31.628604888916016 255 255 255
-91.10899353027344 -5.954519271850586 -31.931381225585938 255 255 255
-88.826904296875 -8.673110961914062 -29.08930778503418 255 255 255
-89.11390686035156 -4.409006118774414 -26.822477340698242 255 255 255
-96.93598175048828 -10.179241180419922 -38.12956237792969 255 255 255
-31.169313430786133 -10.93616771697998 -54.15637969970703 255 255 255
-38.85780715942383 -8.956644058227539 -51.5959358215332 255 255 255
-37.331119537353516 -9.10062313079834 -52.52597427368164 255 255 255
-58.49113082885742 -9.25036334991455 -42.828765869140625 255 255 255
-81.65174865722656 -11.393458366394043 4.380397796630859 255 255 255
-98.07547760009766 -7.855184555053711 -35.50257110595703 255 255 255
-70.2298355102539 -4.814169883728027 -34.3411750793457 255 255 255
-77.6687240600586 -8.972891807556152 -40.59326171875 255 255 255
-71.43465423583984 -4.102780342102051 -30.570987701416016 255 255 255
-67.20209503173828 -11.298471450805664 -38.86949157714844 255 255 255
-95.58097839355469 -8.179423332214355 -29.53590965270996 255 255 255
-45.70657730102539 -9.869475364685059 -48.652931213378906 255 255 255
-72.27005004882812 -4.886051177978516 -33.72066116333008 255 255 255
-71.963623046875 -7.602243900299072 -36.5825309753418 255 255 255
-64.78538513183594 -8.315766334533691 -39.761844635009766 255 255 255
-72.11493682861328 -6.5958099365234375 -36.62472915649414 255 255 255
-47.71459197998047 -5.442056655883789 -38.20884704589844 255 255 255
-47.27426528930664 -11.220314025878906 -29.74869155883789 255 255 255
-59.75204086303711 -4.043720722198486 -33.14272689819336 255 255 255
-107.20796203613281 -21.273229598999023 -34.523067474365234 255 255 255
-83.93375396728516 -3.479268789291382 7.549627304077148 255 255 255
-83.07962799072266 -24.10953140258789 -42.39699935913086 255 255 255
-97.33016967773438 -4.975461006164551 -26.76605796813965 255 255 255
-86.59770965576172 -1.9918824434280396 -0.765993595123291 255 255 255
-85.23530578613281 -3.2022640705108643 6.460320472717285 255 255 255
-78.75232696533203 -4.316410541534424 7.640483856201172 255 255 255
-81.15558624267578 -9.575865745544434 4.71497106552124 255 255 255
-81.6943359375 -2.608250617980957 -16.426036834716797 255 255 255
-70.97502899169922 -27.865325927734375 -41.30729293823242 255 255 255
-87.75357818603516 -16.204166412353516 -42.36192321777344 255 255 255
-107.40444946289062 -23.770233154296875 -29.387680053710938 255 255 255
-70.15892791748047 -1.0622212886810303 -0.4805981516838074 255 255 255
-81.25868225097656 -1.1467734575271606 5.795464992523193 255 255 255
-92.3344497680664 -7.244063377380371 -38.541255950927734 255 255 255
-81.92061614990234 -11.59174919128418 4.232806205749512 255 255 255
-86.54903411865234 -17.424592971801758 -43.12270736694336 255 255 255
-44.880802154541016 -4.158791542053223 -39.27585220336914 255 255 255
-52.00197219848633 -12.578231811523438 -45.99165344238281 255 255 255
-75.89799499511719 -8.782548904418945 -31.967565536499023 255 255 255
-98.40650939941406 -24.125411987304688 -37.355918884277344 255 255 255
-90.12755584716797 -2.5921854972839355 -14.205690383911133 255 255 255
-77.22872924804688 -5.1920576095581055 -30.049272537231445 255 255 255
-74.84915924072266 -2.9910507202148438 -16.70676040649414 255 255 255
-87.94573211669922 -5.461844444274902 -30.45519256591797 255 255 255
-111.52262878417969 -22.627050399780273 -31.45535659790039 255 255 255
-110.80452728271484 -26.66767692565918 -31.113481521606445 255 255 255
-84.40267944335938 -22.197811126708984 -43.42495346069336 255 255 255
-94.47620391845703 -24.345727920532227 -38.51947021484375 255 255 255
-86.2584228515625 -30.352224349975586 -42.96229553222656 255 255 255
-95.44995880126953 -12.504152297973633 -31.047883987426758 255 255 255
-81.16224670410156 -4.671056747436523 -30.043575286865234 255 255 255
-96.22657775878906 -7.914482593536377 -37.1417350769043 255 255 255
-89.06256103515625 -4.423411846160889 -26.764081954956055 255 255 255
-55.66224670410156 -15.072361946105957 -45.217445373535156 255 255 255
-57.52745056152344 -4.459599494934082 -39.35755157470703 255 255 255
-104.06157684326172 -18.420686721801758 -35.14650344848633 255 255 255
-72.96725463867188 -12.514981269836426 -43.07741165161133 255 255 255
-91.98737335205078 -9.64719009399414 -9.340876579284668 255 255 255
-73.7824478149414 -7.475555896759033 -36.36201858520508 255 255 255
-92.91178131103516 -17.359487533569336 -8.89466381072998 255 255 255
-83.91040802001953 -10.211057662963867 1.1184990406036377 255 255 255
-87.34017181396484 -13.501362800598145 -0.7543936371803284 255 255 255
-75.34715270996094 -21.091705322265625 -40.7640495300293 255 255 255
-63.28420639038086 -11.867011070251465 -41.06690979003906 255 255 255
-59.399295806884766 -9.288778305053711 -42.68142318725586 255 255 255
-60.20074462890625 -5.492171764373779 -39.24346923828125 255 255 255
-62.15565490722656 -8.662145614624023 -42.324989318847656 255 255 255
-45.30207824707031 -14.442536354064941 -48.7662239074707 255 255 255
-64.71794128417969 -9.89202880859375 -38.773414611816406 255 255 255
-42.02253341674805 -20.284399032592773 -48.231300354003906 255 255 255
-50.50898361206055 -9.122645378112793 -29.60205841064453 255 255 255
-51.33047103881836 -9.49611759185791 -46.262664794921875 255 255 255
-78.49614715576172 -3.7117836475372314 6.472736835479736 255 255 255
-69.30778503417969 -2.182960271835327 -1.2252905368804932 255 255 255
-50.69852828979492 -3.673086404800415 -33.01138687133789 255 255 255
-43.2873420715332 -7.567741394042969 -33.148277282714844 255 255 255
-54.19492721557617 -12.19487476348877 -44.64383316040039 255 255 255
-54.80754089355469 -11.867600440979004 -44.6179084777832 255 255 255
-90.67069244384766 -3.1392855644226074 -5.199708938598633 255 255 255
-90.57825469970703 -16.558792114257812 -6.394082546234131 255 255 255
-78.17710876464844 -6.726544380187988 8.509429931640625 255 255 255
-90.26268768310547 -2.920423984527588 -3.7543060779571533 255 255 255
-81.01580047607422 -4.711398601531982 3.6352899074554443 255 255 255
-80.5630111694336 -6.512025356292725 9.73209285736084 255 255 255
-99.1626968383789 -7.353887557983398 -30.225967407226562 255 255 255
-30.4910945892334 -10.523635864257812 -54.1976203918457 255 255 255
-40.749000549316406 -5.318603515625 -36.56206512451172 255 255 255
-73.66275024414062 -4.50588846206665 -31.431550979614258 255 255 255
-54.98740005493164 -16.18610382080078 -43.352901458740234 255 255 255
-59.07577133178711 -17.551273345947266 -42.25381088256836 255 255 255
-65.01509857177734 -8.116979598999023 -38.04718780517578 255 255 255
-69.02791595458984 -6.141347885131836 -37.560699462890625 255 255 255
-68.39183807373047 -7.034011363983154 -37.631568908691406 255 255 255
-99.23822021484375 -22.22327995300293 -18.495779037475586 255 255 255
-90.42996978759766 -12.679636001586914 -7.540215015411377 255 255 255
-84.7824935913086 -2.834111213684082 6.811432838439941 255 255 255
