-643.7988233057717 16.80438283416337 161.13951754889152 74 204 254 
-644.048618301737 17.09566095125292 161.96111867718105 75 205 254 
-643.8694814664482 17.577531956506327 163.04500226298623 75 205 254 
-641.9178739720047 15.317418683030727 157.19553755340226 75 205 254 
-643.0793282291345 16.59074295172469 160.2901171720268 75 204 254 
-645.203060185549 17.0460870347127 162.35594487147773 75 205 254 
-644.0848319652521 15.706854584376142 158.74467174720544 75 204 254 
-644.6432857091295 16.382319294341 160.4764599362514 74 204 254 
-642.6796530254745 15.447081129393517 157.7207783443075 74 205 254 
-644.0669334742304 17.17254883081625 162.15028480989304 74 205 254 
-646.3791365298315 17.10836637306346 163.06549824014252 75 205 254 
-646.2141985345148 16.951744461905836 162.58781670213057 75 205 254 
-644.6633094224146 17.169492080790157 162.42173428245454 75 205 254 
-644.8570501006863 17.014726210767762 163.61236982962336 74 205 254 
-643.8843822141987 16.570860340199435 162.11511077742585 75 204 254 
-642.9586434944837 16.097178391881435 160.6538239813733 74 205 254 
-645.4588374743234 16.384594653208126 162.325306922724 74 204 254 
-642.8572173195025 17.499001118153885 163.74793373477198 74 204 254 
-645.5660452426068 16.542879065225705 162.76348610564477 74 204 254 
-644.8452739244339 16.32720185575587 161.9567354314428 75 204 254 
-646.2289414191694 16.599687508976547 163.13404857978796 74 204 254 
-646.0986519366045 17.18122592989624 164.65191511309808 75 205 254 
-644.5033135025396 16.617678879900552 162.5074776184997 75 204 254 
-642.6831621368806 16.174914595013284 160.66414882988678 75 205 254 
-642.7636414651727 15.832770136174085 160.01924863830845 75 205 254 
-643.5758984815644 17.686289317515662 164.5504517472876 74 205 254 
-644.8748290002793 17.822966039301107 165.67330490461927 74 205 254 
-643.9330258954508 18.133129927688863 165.8361166278457 74 205 254 
-643.6762115326053 17.061100838780312 163.09961090977683 75 204 254 
-645.9553969449842 17.008267566620464 164.14310661834946 74 205 254 
-644.3571855345159 16.44089225945144 162.03844549266486 75 204 254 
-643.0427781688398 17.686187647424877 164.28404881259698 75 205 254 
-645.3574647552849 17.70701774033911 165.572171069326 75 205 254 
-644.5299581163142 17.401779707035644 164.4111535800513 74 205 254 
-642.505204734515 17.764310113933675 164.23107077670466 75 205 254 
-643.3440539019371 17.374219621584917 163.67130406828915 74 204 254 
-644.8594940031867 17.11537980790704 163.8560094770546 74 204 254 
-645.2657601995072 17.60675949793941 165.26390066108658 75 205 254 
-644.1995660743183 17.722965443803652 164.95184642609536 75 205 254 
-645.3760070046189 16.97672675196945 163.7996346284404 74 205 254 
-644.0985133850081 16.095912515954957 161.14493568070495 75 204 254 
-646.3389098932814 17.41835956726 165.39403785017126 74 205 254 
-644.2915389139305 17.198016095928423 163.7933292216525 74 205 254 
-642.9664130460795 15.56275371466809 159.59647096963542 75 205 254 
-645.7198718551598 16.731006529773726 163.29808923763946 74 204 254 
-643.5466765209061 16.90111497058901 162.6523582895014 74 204 254 
-645.1288345825159 17.437915429541206 164.77284010418856 75 205 254 
-643.1167524801638 17.81602373083577 164.6457200028765 74 205 254 
-642.6411004893463 17.953346355431194 164.75582301778567 75 205 254 
-642.5976973220335 17.160329682302375 162.83099708711507 75 204 254 
-642.8917201899405 15.986167894096011 160.38669789707393 75 205 254 
-642.3463090456925 16.819621293663012 161.93589906861396 75 204 254 
-645.8257366717579 16.859816013325368 163.69072326825034 74 204 254 
-644.1727687208867 16.916909259159503 163.047388668421 74 204 254 
-645.0931795030676 16.665480950202962 162.88376940585755 74 204 254 
-643.0424423261153 18.366218428534175 165.9964660911606 74 205 254 
-643.9314394047099 17.40397807023096 164.04253109248378 74 205 254 
-646.444545270673 16.895457574072303 164.04494288793774 74 205 254 
-644.008773022621 17.28341083786814 163.80895061067312 75 205 254 
-644.2707103629529 17.084117185233442 163.49800727859625 74 205 254 
-643.2429976366385 17.98522702460952 165.1173519979348 75 205 254 
-643.424591481408 16.711512381380473 162.17879128249834 75 204 254 
-645.5013160452437 17.149830145420015 164.28466144330497 75 205 254 
-644.6532586826333 17.569838160509704 164.89665952382708 75 205 254 
-642.3885286875253 17.63102393310017 163.84028775366326 74 204 254 
-645.0344703680901 17.26234232455655 164.30841849581319 75 205 254 
-644.8147743640383 17.702016372269643 165.32711393936853 75 205 254 
-643.4739305587342 17.546394553967705 164.1491941852279 74 205 254 
-643.4517888350384 18.26292191302041 165.9156327861265 75 205 254 
-643.3742208136075 18.13757559108144 165.5570665585375 75 205 254 
-645.7712119200207 17.4563149431845 165.17714234641477 75 205 254 
-646.6871249349385 17.214772923127278 164.9876852248901 75 205 254 
-644.4283223834013 18.002540231104312 165.7654554615571 74 205 254 
-645.3187850730196 16.20944829369786 161.83393153979935 75 204 254 
-642.7780502284841 18.108281313974963 165.20850008288346 75 205 254 
-644.0792745291523 17.554446564389238 164.48376400324452 75 205 254 
-642.6711655971997 16.499069658043545 161.36907753266345 75 204 254 
-644.3289152495154 17.88933376081541 165.42779107093713 75 205 254 
-645.8233994448708 16.572669890583516 162.93185513887803 75 204 254 
-642.7274960749193 17.329429685322488 163.2893568000844 74 204 254 
-645.2116561671361 16.813980411414605 163.31395817521727 75 205 254 
-642.5654971695528 17.843417620204566 164.43946353813118 75 205 254 
-642.4160211741952 16.25705592693232 160.76071552836908 75 205 254 
-643.3095896792485 16.54892712689225 161.76328080627385 75 204 254 
-646.2373121268345 17.333190926353 165.11470024956895 75 205 254 
-643.8557965173112 18.02978985008131 165.5253670644038 75 205 254 
-645.5183737859268 16.67890897104249 163.07761953680549 74 205 254 
-644.242384382397 16.27290904315183 161.6028443946648 75 204 254 
-642.8215010217209 16.684663799942484 161.83427862291097 75 204 254 
-643.8169083351195 17.232537209517936 163.58250623139506 74 205 254 
-643.1913861971648 17.176594070938556 163.13314943555977 75 204 254 
-642.461867708655 16.989743295743022 162.37008139456788 75 204 254 
-646.735946528264 17.332388150284643 165.3301904924519 74 205 254 
-643.0672901976374 17.03629236799781 162.738558684431 74 204 254 
-642.8895257516834 18.273192384918943 165.6773831432228 75 205 254 
-646.3457548149004 16.767061206663602 163.62892335060687 74 204 254 
-643.7137166276275 17.8474164555159 165.00956910500508 75 205 254 
-645.3621717150411 16.85122250561242 163.45434016669842 74 205 254 
-642.6038389804115 17.865314218307645 164.58712175638178 75 205 254 
-645.5937790367527 17.321003795750517 164.74474328932337 75 205 254 
-645.7795132284373 17.573045546947455 165.49316115558537 74 205 254 
-644.0075662474983 16.76297454005606 162.61264290467454 74 204 254 
-642.9377998807366 16.85542133556402 162.27092633378376 75 204 254 
-644.7445409692383 16.948833784935875 163.3971398902968 74 205 254 
-643.7486095653328 16.400184016775533 161.66260700878976 75 204 254 
-644.4292397566734 17.26027093912827 164.00035961116086 74 205 254 
-646.571619483216 17.04265161301986 164.49484998246265 75 205 254 
-642.392389587516 16.124047640246253 160.46945414773302 75 205 254 
-644.5358411481049 17.118796929632037 163.6804351049448 75 205 254 
-643.3645605805718 17.47751526381881 163.92325969917033 75 204 254 
-642.9147056483506 17.631430559251903 164.09416517217886 75 205 254 
-644.6318280259668 16.78245614792859 162.95547380502035 74 204 254 
-644.9662062598272 16.505540655620372 162.42920760224814 74 204 254 
-643.9209283737138 17.02488355244835 164.85036478516062 75 204 254 
-646.1980873946161 17.707628862705945 167.7268351827036 74 205 254 
-646.114897717955 17.588753900467157 167.37610183545598 75 205 254 
-643.1282664074266 17.484203775323536 165.52502043439767 74 204 254 
-644.8136773492622 18.12292694151621 167.98322502677982 75 205 254 
-646.4876154634238 16.511694729583514 164.8296941696331 74 204 254 
-646.4604032848785 16.643822575428892 165.0158190873426 75 205 254 
-645.2706145706145 17.26483649571134 166.12067756850587 75 205 254 
-646.7247769461163 16.519249012051596 165.13823658804654 75 205 254 
-645.2510009707928 17.960281035729682 167.88410344838857 75 205 254 
-644.4828545266444 16.233937757304684 163.33761616439284 75 204 254 
-644.4453247864913 17.71500387873679 166.745401492275 75 205 254 
-643.9674874462213 17.828962022222562 166.78528840135834 75 205 254 
-645.4691511856108 17.119967079748612 165.88982258412867 75 205 254 
-645.1367446354906 17.07649485126328 165.60761231824847 74 205 254 
-646.6357069444615 17.49036774702287 167.27851914502904 75 205 254 
-647.071068656049 17.379724917828863 167.20003038151415 75 205 254 
-643.593728715232 17.32807674678673 165.397246507994 74 204 254 
-643.2952457783241 16.25002484612575 162.8346804932176 75 205 254 
-642.7196311540655 16.959003007029786 164.1406350137693 74 204 253 
-644.0985259201954 17.988481754389724 167.24972893653708 75 205 254 
-646.6715137580627 17.61703588661208 167.6510427592059 74 205 254 
-643.3488504439204 17.75992436073372 166.28970127607857 75 205 254 
-644.1976858544132 17.501052670962405 166.11014892884342 74 205 254 
-647.1800167402339 17.495188048670638 167.55232821045652 74 205 254 
-643.8124413947176 17.617945633808105 166.1973027896875 75 205 254 
-646.8205055691234 17.070651370685148 166.28559160893442 75 205 254 
-646.2304448569454 17.02442258471168 165.90623579010446 75 205 254 
-643.0717995606335 16.64930151696307 163.60825624548804 75 204 254 
-645.6577847823107 17.734136267143555 167.4749836334104 75 205 254 
-643.8815636000026 16.174376832254346 162.96762785791466 75 205 254 
-643.2637105422411 18.445718841156285 167.91248441636776 75 205 254 
-643.7810360568675 16.875394339861323 164.43209866314567 75 204 254 
-646.0594292915694 16.779451738293666 165.19241140995734 75 205 254 
-644.3839678482344 16.888594472224398 164.79425835459287 74 204 254 
-646.9767566869552 17.231060940739727 166.75062776770048 75 205 254 
-645.5389165373801 17.582499686613883 167.02813723601906 75 205 254 
-644.2271931883927 18.146683673877362 167.71937755092034 75 205 254 
-645.7505846848617 16.358114511130854 164.07381933659696 74 204 254 
-645.2102496149922 16.474031881502597 164.16306570351344 74 204 254 
-643.739049258982 15.998998260096137 162.5359867182412 75 205 254 
-644.1481828915972 16.544132103114837 163.88928569635328 75 204 254 
-643.717041548268 17.512699242674614 165.88993108289003 74 204 254 
-645.0978040802901 16.29416934233288 163.71871419683947 74 204 254 
-645.770486419058 16.94865618501544 165.513057657286 75 205 254 
-646.0021630677995 17.441017537805124 166.92593640377743 75 205 254 
-643.0384981580729 18.112381857358475 166.9776211142007 74 205 254 
-642.9862469509317 17.309170546234494 165.05981897722828 74 204 254 
-644.6065637291947 16.423964075957635 163.81485627603354 75 204 254 
-643.3315909647558 17.006984380122315 164.51916364450148 75 204 254 
-645.5417896653989 16.969594064827575 165.52215482994083 75 205 254 
-643.2416337639362 17.65292440313614 165.97784244548302 74 204 254 
-643.7860386704143 15.62313740117636 161.77484480891434 75 204 254 
-645.497528093835 16.83366379171126 165.1153926116759 74 204 254 
-645.7090984007968 17.853169182927008 167.79668132498625 74 205 254 
-643.1766746000645 18.266278538306377 167.42904490996554 75 205 254 
-642.7807853222693 16.408452620598478 162.97477602762052 74 205 254 
-644.0098063099766 16.363390592764013 163.42844032647378 75 204 254 
-645.3999807141092 17.420721413061816 166.55802914815644 75 205 254 
-645.0315474974956 17.697513651878094 167.07150265596772 75 205 254 
-646.4866339301047 17.3441448023216 166.81432591698393 74 205 254 
-646.6829449857136 16.901326249477695 165.7923719821752 74 205 254 
-646.3545342624842 17.193479343136136 166.36187811554163 75 205 254 
-643.9599431002093 15.73041926259899 162.0587362240951 75 204 254 
-643.7432862835972 16.120734377726286 162.81503430510784 74 205 254 
-645.1480792481054 17.856687574198055 167.5504888079044 75 205 254 
-644.5973738902051 17.85764215831928 167.18116186349894 74 205 254 
-642.713502569745 18.083700476492176 166.75623994879834 75 205 254 
-644.5343707949693 17.05115999801606 165.24928125775472 74 204 254 
-644.0704921643256 17.202807733524377 165.33654915103057 74 204 254 
-644.3426091637418 18.26811323792617 168.09303923892213 74 205 254 
-644.7141564204599 18.026987152787687 167.67402617615843 75 205 254 
-644.7292052001204 17.343031910351588 166.0478711829523 74 205 254 
-646.09522016759 16.877574584534536 165.48183211226618 74 204 254 
-646.60262021792 16.75539524000505 165.36848499502926 74 204 254 
-644.2822072600052 16.725462890551096 164.3641806779622 75 204 254 
-643.2055875694588 16.820418162113352 164.04176693300863 75 204 254 
-645.8420857146373 16.520971584313173 164.51550237227434 74 204 254 
-644.6519345790084 17.216796888781047 165.70147847067642 74 204 254 
-645.9519904477438 16.719083417452495 165.03913985669544 75 205 254 
-642.9986986720553 17.97604057741049 166.61391487579522 74 205 254 
-646.8826152040588 16.52454399950068 165.00492150530067 75 205 254 
-643.8567970300205 17.702048966325414 166.4206704026339 75 205 254 
-645.0257898576568 16.92088272956407 165.18155829803942 74 204 254 
-645.739249959349 17.130911804988997 166.01424512283654 75 205 254 
-645.8544220853594 17.290768446757177 166.47021033492138 75 205 254 
-644.9369745027617 17.54611142004692 166.6481725876214 75 205 254 
-644.7430845765796 16.588427465620306 164.25641048487032 75 204 254 
-643.8767590958 18.40858462536356 168.16731392202524 74 205 254 
-643.5177501175515 16.514579245258485 163.5053586244946 75 204 254 
-643.371969845336 18.5407933504414 168.20027154933118 74 205 254 
-643.5961237269944 15.80144014407342 162.06878245366687 75 205 254 
-643.4661939097166 17.166582830083307 164.95568275303788 74 204 254 
-643.6595574193843 16.693131487091446 163.96232995384614 75 204 254 
-643.7630496771247 18.287721688000765 167.79763194513805 75 205 254 
-643.3909271509585 17.841673275955085 166.50618985349507 75 205 254 
-644.796683009556 17.424439059987886 166.26631603192257 75 205 254 
-642.9489840561885 16.468241705062262 163.1687774988769 75 204 254 
-642.8556909489489 17.128127576175896 164.58331997455468 75 204 254 
-644.2108040328974 17.385179404787916 165.8288724012641 74 204 254 
-643.9971835514793 18.442034016438193 169.58298104888758 75 205 254 
-644.2507139068812 17.201663135877503 166.79941402245944 75 205 254 
-645.4807561666569 16.59392685048407 165.97128864748979 74 205 254 
-645.0495679384513 16.86049528383797 166.42353735396014 75 205 254 
-648.1892588508349 17.4786911533523 169.33685571413397 75 205 254 
-643.455244408223 16.95654306822733 165.8883278826927 75 205 254 
-645.511864109784 16.68844268751188 166.18407599544304 74 205 254 
-645.2847053658849 16.769212099700546 166.27753270884799 75 205 254 
-645.2008855326727 16.904016060272053 166.58247815858198 74 205 254 
-643.6392762267246 17.967423768553985 168.2643841428831 74 205 254 
-645.6538794245909 17.571471992422392 168.36814755198054 75 205 254 
-645.0392197012028 18.301201857520475 169.83655383540162 74 205 254 
-645.1706569861144 17.68921986210654 168.42533248015891 74 205 254 
-647.0967955701459 17.219061947347452 168.11628672557626 75 205 254 
-643.5061822105326 17.79076413573202 167.7926986848639 75 205 254 
-644.6959638595528 17.0717078783691 166.7161140894044 74 204 254 
-646.339571679644 17.022536425531587 167.31893738480377 75 205 254 
-644.8886492604493 17.381979637133256 167.53788652697398 74 205 254 
-645.2628679296502 17.075746936641195 167.00831445982251 74 205 254 
-646.1347198795041 16.83790893674171 166.80763452165164 75 205 254 
-643.70296753979 17.291275427657602 166.7575786445038 74 204 254 
-643.0570270205576 16.383333535798872 164.48668128774483 75 205 254 
-644.5565977360491 16.890977683435956 166.2318267165427 75 204 254 
-643.668304353113 16.45722959133089 164.89249967908347 75 205 254 
-643.1303313624744 17.25028382781842 166.403836273665 74 204 254 
-643.9418625602186 16.828705600755857 165.80572991528342 75 204 254 
-644.9999419195099 16.732589207695046 166.100082080673 74 204 254 
-645.0625913027346 17.530980350366406 167.98126859193812 74 205 254 
-645.425263147367 18.027784332821344 169.38500320071134 75 205 254 
-642.9359441604277 17.629101594382256 167.12957728849204 75 204 254 
-646.480636733352 17.895835440154375 169.55556562033746 74 205 254 
-644.5069575388136 18.302205811069612 169.5117921607116 75 205 254 
-643.4264343966175 18.418687537935256 169.25521006108272 75 205 254 
-645.7728252382642 16.94200131018213 166.8812838241839 74 204 254 
-643.3305962649099 16.766033886822783 165.40977328309202 75 204 254 
-646.2623821117458 17.632139546264522 168.75130125603982 75 205 254 
-644.9797835624277 18.17454005014841 169.47945732313661 75 205 254 
-644.7116374319539 17.8304810233915 168.5068489344246 75 205 254 
-645.4868789941123 18.14806573545693 169.71338765176898 74 205 254 
-643.6493206009266 18.685884986232093 170.03799115448186 74 205 254 
-646.726736192888 17.49825690740234 168.62488568822528 75 205 254 
-646.1158654921657 17.469997976584782 168.28301689926815 75 205 254 
-644.5826522581608 17.675940455230194 168.06936140823242 74 205 254 
-646.594471301516 16.55963518010654 166.22980247700454 75 205 254 
-643.3968150002912 17.611928983218096 167.33652664070232 75 205 254 
-646.4074358034031 17.781963374675023 169.20834915338074 75 205 254 
-644.1464904705139 18.552339142950036 169.95183217107038 75 205 254 
-648.0091108409015 17.480939322515937 169.23670281969572 75 204 254 
-647.6272998658886 17.65850511410326 169.44584154964176 75 205 254 
-647.3563361441301 17.537801627089646 169.0255401717741 75 205 254 
-644.0118004393642 17.654429342103064 167.72220896137918 75 205 254 
-644.1634690607717 17.13284971724194 166.60282546871824 75 205 254 
-646.9112502995697 16.856694877954215 167.1599569644057 75 204 254 
-646.9955379477882 17.04763554018568 167.6145381297241 74 204 254 
-645.2332500214158 16.246264840452273 165.07679218195068 75 204 254 
-644.877402058877 16.54712175055218 165.6256831571035 75 204 254 
-643.5207060170688 16.268165587517505 164.43841930436614 75 205 254 
-646.7739170335284 16.710788790569076 166.73460220559878 75 204 254 
-645.6065068538148 16.79867681673254 166.4719094201385 74 204 254 
-644.3651396259968 18.148395091716278 169.0626734434609 75 205 254 
-644.3998622597117 16.69905725130598 165.7386567777835 75 204 254 
-645.7627450349912 17.738618653261664 168.82394456844187 75 205 254 
-643.2587469793256 17.547484665451368 167.1605264840356 75 205 254 
-644.08514106095 16.992020439725152 166.24272955757235 75 204 254 
-645.4047903508764 17.248792078134596 167.4709004241999 75 205 254 
-645.3486587001803 16.42764446050705 165.54694213828617 75 204 254 
-644.130558490026 16.311345686193032 164.80622316772127 75 205 254 
-643.2677523215765 17.425372392724896 166.8582114946283 74 204 254 
-645.9928476738472 18.00356329052663 169.59732658921178 74 205 254 
-644.0633817335447 15.702666726272604 163.52847225518224 75 205 254 
-645.7642263926584 16.49465505869527 165.83880808637474 74 205 254 
-645.9113847236463 17.14335102310644 167.41136284020578 75 205 254 
-644.7397379700495 16.369055611967944 165.17487034885679 75 204 254 
-644.6002264823558 16.179417942531025 164.71486808344102 75 204 254 
-644.2765208008282 16.49946168089701 165.26436667768095 75 204 254 
-646.0081649333118 17.29424978919997 167.81478315808928 75 205 254 
-646.9759875599605 17.787664673438165 169.45352036612968 74 205 254 
-644.7793256533529 17.20435307036008 167.07216160126785 74 204 254 
-643.8081776739372 16.645979500967037 165.3513531432013 75 204 254 
-646.1062230612627 16.672588623083477 166.36690983369155 74 205 254 
-647.9124001043359 17.486105439822204 169.11094166683054 75 204 254 
-643.2978934274481 18.240722673349694 168.75659528242522 75 205 254 
-646.4607775180945 17.182578217059696 167.75475347287156 75 205 254 
-647.4178702516448 17.660127101844775 169.37876657468783 74 205 254 
-647.2255257608549 17.398242227785136 168.59700405575177 75 205 254 
-644.4643807704335 17.506393669522446 167.610691456571 74 205 254 
-643.2740951615707 17.52777827132376 167.07608861522039 74 205 254 
-643.8864121180136 18.290397404754344 169.1586538838812 75 205 254 
-645.5282164215203 17.41639949681083 167.92492650624374 74 205 254 
-645.9161970731714 17.879691301003056 169.24654358414566 75 205 254 
-643.5972825719493 17.124061837406874 166.33550816388265 74 204 254 
-646.0355805030736 16.51237544140767 165.9131417635923 74 204 254 
-644.5636679962689 18.440989037533054 169.88862359854923 74 205 254 
-644.3478283925559 17.34717644701663 167.18156068010276 74 204 254 
-646.8764273166888 17.67452574977969 169.11691535460955 75 205 254 
-646.6367262766526 17.336873556073233 168.2060732125338 75 205 254 
-648.0031950604304 17.532700417785573 169.29414050329652 74 205 254 
-644.231799142824 17.994297413469543 168.62967100504 75 205 254 
-643.2119309295845 16.587936105201422 164.9732151591955 75 205 254 
-644.1067083769826 17.82966576173787 168.17543262365402 74 205 254 
-644.0750673238985 16.641690033111498 167.44747109208964 74 204 254 
-644.959871099635 18.587304566008747 172.3574901676026 74 205 254 
-643.8009868677264 17.125275634267215 168.36804220667662 75 204 254 
-645.2752542273903 17.5154168878657 170.02239655109997 74 205 254 
-645.1596502763454 17.347625087518097 169.5756283889671 74 205 254 
-646.7331943665115 17.889996451575755 171.69519106365314 75 205 254 
-643.6981242722869 16.95650354207716 167.94400575200072 75 205 254 
-645.3599689578144 16.86363354200107 168.58969781902988 74 204 254 
-646.6516864884763 17.737821114236535 171.27401465646585 75 205 254 
-644.4347503605237 16.416045829319074 167.17211140624278 74 205 254 
-643.8885306009679 15.729358566225576 165.5404532320225 74 205 254 
-644.6922256287576 17.507863885840607 169.6634902351658 74 204 254 
-644.2952247076039 16.971181007542725 168.26942822341263 75 204 254 
-643.8778687485891 16.426445963376757 166.9150484873903 75 205 254 
-644.6289465463803 16.643432524772617 167.75422621245625 75 204 254 
-646.5913694935789 17.28574165440127 170.14092410459494 75 205 254 
-645.2159491930972 18.15502859448807 171.4485621767787 75 205 254 
-643.7650152385697 16.241727213700972 166.48911282322499 75 205 254 
-645.8720991143988 17.520240223483658 170.3624189032932 75 205 254 
-645.2458879336248 16.689237454122946 168.1348775044178 75 204 254 
-645.503857537399 17.028785123556418 169.03754804294044 74 204 254 
-644.9255968581845 17.81693375973915 170.50460346953815 75 205 254 
-646.2721510962579 17.233052992462806 169.8655659750956 74 205 254 
-644.4658876280023 18.723955571764964 172.44582120999002 74 205 254 
-643.7573666604027 18.303230229307903 170.9735837145077 75 205 254 
-645.9309299767773 17.611316422180504 170.60199931733413 74 205 254 
-643.4880347058307 15.856279290094333 165.60922274555375 74 204 254 
-644.2382948862917 17.642282914578786 169.73795680798793 74 205 254 
-645.007842562616 17.169928934978504 169.10208764479776 74 204 254 
-644.0266904061081 18.10746693511551 170.71783710112732 74 205 254 
-644.1540101844266 16.803482555336092 167.83026673267926 75 204 254 
-644.2621890528756 18.447797121851984 171.65679799058907 75 205 254 
-644.3429804881773 17.82064389038402 170.19920599775705 74 205 254 
-645.3285711653994 18.328663694099845 171.93611890987577 75 205 254 
-644.6135190520802 18.15216515154529 171.11217229797012 75 205 254 
-647.6272998658886 17.65850511410326 169.44584154964176 75 205 254 
-644.3625007473328 16.270292425015466 166.833881754366 75 205 254 
-647.3563361441301 17.537801627089646 169.0255401717741 75 205 254 
-644.0118004393642 17.654429342103064 167.72220896137918 75 205 254 
-644.1634690607717 17.13284971724194 166.60282546871824 75 205 254 
-646.9112502995697 16.856694877954215 167.1599569644057 75 204 254 
-646.9955379477882 17.04763554018568 167.6145381297241 74 204 254 
-645.2332500214158 16.246264840452273 165.07679218195068 75 204 254 
-644.462470885269 17.968701247461468 170.608261672275 75 205 254 
-645.9158757759416 18.268208017517857 172.1950892419694 74 205 254 
-643.6205769526864 17.61560677266749 169.36443632846036 74 205 254 
-645.636811479953 17.206045359695658 169.50708119297343 74 205 254 
-644.877402058877 16.54712175055218 165.6256831571035 75 204 254 
-643.5207060170688 16.268165587517505 164.43841930436614 75 205 254 
-646.7739170335284 16.710788790569076 166.73460220559878 75 204 254 
-645.6065068538148 16.79867681673254 166.4719094201385 74 204 254 
-644.3651396259968 18.148395091716278 169.0626734434609 75 205 254 
-644.3998622597117 16.69905725130598 165.7386567777835 75 204 254 
-643.7586654222944 17.783966192370762 169.80945672992974 74 205 254 
-643.8620001074609 17.951068006804167 170.2501260524081 74 205 254 
-645.7627450349912 17.738618653261664 168.82394456844187 75 205 254 
-643.2587469793256 17.547484665451368 167.1605264840356 75 205 254 
-643.9607240362345 17.295815683322406 168.82381705750106 74 204 254 
-644.08514106095 16.992020439725152 166.24272955757235 75 204 254 
-644.5307845812698 16.504640735715522 167.40170463972214 75 204 254 
-645.4047903508764 17.248792078134596 167.4709004241999 75 205 254 
-644.0721184341201 15.894891849357128 165.94416785637313 74 205 254 
-645.3486587001803 16.42764446050705 165.54694213828617 75 204 254 
-645.7940586595616 18.16724172126639 171.8677610038458 75 205 254 
-644.2286371795209 16.094438533092557 166.41187129450606 75 205 254 
-645.7543762591185 17.369254018064822 169.94907168632173 74 205 254 
-643.7936962679158 18.588020600892243 171.7035275819422 75 205 254 
-645.490495291834 18.4394363725115 172.3020176446201 74 205 254 
-644.7510024288906 16.823397399658187 168.207099126295 74 204 254 
-644.130558490026 16.311345686193032 164.80622316772127 75 205 254 
-645.5599689669833 17.863775017515934 170.99133459678902 75 205 254 
-643.2677523215765 17.425372392724896 166.8582114946283 74 204 254 
-646.0355376068387 17.70042194277396 170.8685454270257 75 205 254 
-645.9928476738472 18.00356329052663 169.59732658921178 74 205 254 
-644.0633817335447 15.702666726272604 163.52847225518224 75 205 254 
-647.3382106962544 17.87403108390507 171.9654411052048 74 205 254 
-646.3589845213935 18.133990313240865 172.09471565362617 74 205 254 
-646.1414963574833 17.880053346531728 171.35262476501734 75 205 254 
-645.7642263926584 16.49465505869527 165.83880808637474 74 205 254 
-645.9113847236463 17.14335102310644 167.41136284020578 75 205 254 
-647.2189891839213 17.76197004589803 171.62002394282115 75 205 254 
-643.9622238172326 16.562259745717096 167.2322510597969 74 205 254 
-644.7397379700495 16.369055611967944 165.17487034885679 75 204 254 
-644.6002264823558 16.179417942531025 164.71486808344102 75 204 254 
-644.2765208008282 16.49946168089701 165.26436667768095 75 204 254 
-644.4220635649166 17.165847538398058 168.76170773790415 74 204 254 
-646.0081649333118 17.29424978919997 167.81478315808928 75 205 254 
-646.9759875599605 17.787664673438165 169.45352036612968 74 205 254 
-645.0726887898794 18.009641869341337 171.02717532929944 75 205 254 
-646.284048865914 18.018074447467367 171.76117502368479 75 205 254 
-644.8949995997931 16.99789625070964 168.66279093939056 75 204 254 
-644.7793256533529 17.20435307036008 167.07216160126785 74 204 254 
-646.501807732374 17.581921324360835 170.8175472409209 75 205 254 
-644.1445840694431 18.293648725301193 171.2256891369481 75 205 254 
-645.1410339968147 16.186449128635832 166.94986431307044 75 205 254 
-645.0404427436519 17.882347131556436 170.71340114096012 74 205 254 
-644.0093988381071 18.871352754234625 172.51102334708327 74 205 254 
-643.8081776739372 16.645979500967037 165.3513531432013 75 204 254 
-644.7242439344972 18.323136643473845 171.57209269349767 75 205 254 
-644.869622826907 18.470640974015677 172.0111492713176 75 205 254 
-645.518903115027 17.758056889764003 170.7514555309189 75 205 254 
-646.1062230612627 16.672588623083477 166.36690983369155 74 205 254 
-645.3513303125958 17.793076443637307 170.68812151595955 75 204 254 
-643.9339344106983 18.755132382814033 172.18608430396097 75 205 254 
-644.0988594297374 18.21018538798836 171.00693423885343 75 204 254 
-647.9124001043359 17.486105439822204 169.11094166683054 75 204 254 
-643.2978934274481 18.240722673349694 168.75659528242522 75 205 254 
-646.4607775180945 17.182578217059696 167.75475347287156 75 205 254 
-647.4178702516448 17.660127101844775 169.37876657468783 74 205 254 
-647.2255257608549 17.398242227785136 168.59700405575177 75 205 254 
-645.6393044006697 18.033794051548906 171.44241356630732 75 205 254 
-644.4643807704335 17.506393669522446 167.610691456571 74 205 254 
-644.571044036821 18.03616959065749 170.80836849893942 75 204 254 
-643.6103085754348 16.039963817332563 166.02016614271315 74 205 254 
-643.5890714685006 16.809681009657943 167.57550595549557 74 204 254 
-643.2740951615707 17.52777827132376 167.07608861522039 74 205 254 
-643.8864121180136 18.290397404754344 169.1586538838812 75 205 254 
-645.5282164215203 17.41639949681083 167.92492650624374 74 205 254 
-643.5140397103489 16.706229295429665 167.3312834824619 74 205 254 
-645.9161970731714 17.879691301003056 169.24654358414566 75 205 254 
-644.8191496893601 17.671413923184765 170.10656689320638 74 205 254 
-644.3864619792804 18.605190005727177 172.10874106274923 75 205 254 
-643.5972825719493 17.124061837406874 166.33550816388265 74 204 254 
-646.0355805030736 16.51237544140767 165.9131417635923 74 204 254 
-644.5636679962689 18.440989037533054 169.88862359854923 74 205 254 
-644.3478283925559 17.34717644701663 167.18156068010276 74 204 254 
-646.4514448567452 17.430833621174965 170.43382311811382 74 205 254 
-646.8764273166888 17.67452574977969 169.11691535460955 75 205 254 
-646.6367262766526 17.336873556073233 168.2060732125338 75 205 254 
-645.4305451953716 17.66229863089273 170.4538508446934 75 205 254 
-648.0031950604304 17.532700417785573 169.29414050329652 74 205 254 
-644.5530984679401 17.3196814793331 169.17218628833828 74 204 254 
-644.231799142824 17.994297413469543 168.62967100504 75 205 254 
-643.2119309295845 16.587936105201422 164.9732151591955 75 205 254 
-646.8355465266562 18.003006116045405 172.0344159902565 74 205 254 
-644.7238659332382 15.964610710650035 166.3085377862536 74 204 253 
-646.316273970852 17.37857275028575 170.24067887395853 75 205 254 
-644.0617453596104 17.476686745102484 169.2821732080289 74 204 254 
-644.1067083769826 17.82966576173787 168.17543262365402 74 205 254 
-645.5031933732829 18.395199412807195 173.14293507962066 74 204 254 
-646.2039374818733 17.7334968080027 172.03610594378753 75 205 254 
-647.5281585208332 17.966539809015618 173.26656077751076 74 205 254 
-645.2240651393139 18.649576024117067 173.66625582097691 75 205 254 
-645.7709247568057 16.61834427426576 169.35124057036128 74 204 254 
-645.1949679215892 17.19390264660919 170.29955323020278 75 204 254 
-644.066820082267 18.018858015557598 171.508809806226 74 204 254 
-644.0423062172358 17.913312287126065 171.2829503418766 74 205 254 
-645.534247073284 16.873224741985474 169.76405670598538 75 205 254 
-644.4778629838953 17.78153801980393 171.21744201423041 74 205 254 
-645.2752967216427 18.076814096864755 172.2286412461741 74 204 254 
-645.2833489404485 18.7617653251729 173.98670671009634 74 205 254 
-647.4299788542188 17.788273249232066 172.77632929906957 75 205 254 
-645.8035685580594 17.351096218921384 170.9655675189132 74 205 254 
-645.3292058603656 17.37647268350731 170.76511427597643 75 204 254 
-646.3494159670912 16.73791979094239 169.7941131370421 74 205 254 
-646.0987605938261 17.242405510624664 170.84160884744375 75 205 254 
-644.9745686821965 16.846151670586927 169.44147824666692 75 205 254 
-643.9982684919091 17.181627545527764 169.64841916077086 75 204 254 
-645.0238813831357 17.71628072997566 171.31431828416117 74 204 254 
-643.7825181350601 17.64179796203743 170.5496609346891 75 204 254 
-645.0592426506541 17.02829594551781 169.8659863101236 75 205 254 
-647.088001766683 18.101550192669247 173.35809802824244 75 205 254 
-645.4946023552235 17.452195988654317 171.02882055011958 74 205 254 
-644.3834117382994 17.676362366182264 170.9209664654567 75 204 254 
-644.1967192344179 18.166309365523173 171.9208119801682 75 204 254 
-643.679100323269 17.085716526867298 169.33031021676837 75 205 254 
-645.9723273006905 17.41453775048302 171.18514548498695 74 204 254 
-644.8881274224825 17.521752784547406 170.8301844064457 74 204 254 
-644.2663465390153 17.496097898364475 170.46353923149815 75 204 254 
-644.8464408907156 17.643912899817817 171.04213462772285 75 205 254 
-645.5902078368262 17.722442376851138 171.6714293699424 74 204 254 
-647.6594966605603 18.08671245732411 173.63725994099931 74 205 254 
-646.2214878121127 18.48768327963318 173.85513747838579 75 205 254 
-644.099882216662 18.79432895401193 173.35606503554905 74 205 254 
-645.6759071010728 17.048725363445318 170.22352064985918 75 204 254 
-645.9808280033662 18.204897910341302 173.03299702161155 74 204 254 
-643.6600046762708 17.46484473973434 170.1047991627902 75 205 254 
-644.3137638542198 19.079435917639497 174.18567713434163 75 205 254 
-644.7568869923388 17.346192290373374 170.38992976351042 75 204 254 
-646.938505935635 17.94526648922299 172.90681153707257 75 205 254 
-645.8381724939278 18.048890206596578 172.58002254629122 75 205 254 
-646.5476494181934 17.443444231198523 171.51743013616604 74 204 254 
-645.4486439020388 16.732895557595622 169.42140331415908 75 204 254 
-643.8421568185357 18.469551170909927 172.45043773872789 74 204 254 
-644.9282346081424 18.343744841519126 172.74876929358027 74 204 254 
-645.6521052417219 18.543418423267802 173.60571494517364 74 205 254 
-645.3842598105722 18.227358758603422 172.660235386536 74 204 254 
-644.7924605332953 18.18694915029428 172.29865759205745 74 204 254 
-644.8994055797416 17.637585341650315 171.09472656151232 75 205 254 
-645.490495291834 18.4394363725115 172.3020176446201 74 205 254 
-644.7510024288906 16.823397399658187 168.207099126295 74 204 254 
-644.130558490026 16.311345686193032 164.80622316772127 75 205 254 
-645.5599689669833 17.863775017515934 170.99133459678902 75 205 254 
-643.2677523215765 17.425372392724896 166.8582114946283 74 204 254 
-646.0355376068387 17.70042194277396 170.8685454270257 75 205 254 
-644.8453791788152 16.71806335025296 169.14271152172537 75 204 254 
-645.9928476738472 18.00356329052663 169.59732658921178 74 205 254 
-644.0633817335447 15.702666726272604 163.52847225518224 75 205 254 
-647.3382106962544 17.87403108390507 171.9654411052048 74 205 254 
-646.3589845213935 18.133990313240865 172.09471565362617 74 205 254 
-644.6918725419714 18.810177483586273 173.7611921919609 75 205 254 
-646.1414963574833 17.880053346531728 171.35262476501734 75 205 254 
-645.7642263926584 16.49465505869527 165.83880808637474 74 205 254 
-645.9113847236463 17.14335102310644 167.41136284020578 75 205 254 
-647.2189891839213 17.76197004589803 171.62002394282115 75 205 254 
-643.9622238172326 16.562259745717096 167.2322510597969 74 205 254 
-645.7353020941681 17.891865847661805 172.1503288791232 74 204 254 
-646.42903223023 17.268628526753954 171.05586112631644 75 204 254 
-644.7397379700495 16.369055611967944 165.17487034885679 75 204 254 
-644.6002264823558 16.179417942531025 164.71486808344102 75 204 254 
-645.8053770258896 17.226944508196514 170.68339927474682 75 204 254 
-644.2765208008282 16.49946168089701 165.26436667768095 75 204 254 
-644.4220635649166 17.165847538398058 168.76170773790415 74 204 254 
-646.0081649333118 17.29424978919997 167.81478315808928 75 205 254 
-646.9759875599605 17.787664673438165 169.45352036612968 74 205 254 
-645.0726887898794 18.009641869341337 171.02717532929944 75 205 254 
-646.284048865914 18.018074447467367 171.76117502368479 75 205 254 
-644.1264259154353 17.32962574666194 170.03126159354383 75 205 254 
-644.6018215106105 17.171952814082886 169.94207357617694 75 205 254 
-643.9187056686603 17.823683380661127 171.01007841349178 75 204 254 
-644.8949995997931 16.99789625070964 168.66279093939056 75 204 254 
-644.7793256533529 17.20435307036008 167.07216160126785 74 204 254 
-646.501807732374 17.581921324360835 170.8175472409209 75 205 254 
-644.1445840694431 18.293648725301193 171.2256891369481 75 205 254 
-645.1410339968147 16.186449128635832 166.94986431307044 75 205 254 
-645.482706690073 17.566080084464417 171.2628073890367 74 204 254 
-645.0404427436519 17.882347131556436 170.71340114096012 74 205 254 
-646.459730443262 18.062736270743553 172.94502659412763 75 205 254 
-644.0093988381071 18.871352754234625 172.51102334708327 74 205 254 
-643.8081776739372 16.645979500967037 165.3513531432013 75 204 254 
-644.7242439344972 18.323136643473845 171.57209269349767 75 205 254 
-644.869622826907 18.470640974015677 172.0111492713176 75 205 254 
-645.518903115027 17.758056889764003 170.7514555309189 75 205 254 
-646.1062230612627 16.672588623083477 166.36690983369155 74 205 254 
-646.6084817083399 18.243239119803043 173.44302087707334 75 205 254 
-645.3513303125958 17.793076443637307 170.68812151595955 75 204 254 
-643.9339344106983 18.755132382814033 172.18608430396097 75 205 254 
-645.745637777777 18.648289501056976 173.92865267928775 75 205 254 
-644.0988594297374 18.21018538798836 171.00693423885343 75 204 254 
-647.9124001043359 17.486105439822204 169.11094166683054 75 204 254 
-643.2978934274481 18.240722673349694 168.75659528242522 75 205 254 
-646.4607775180945 17.182578217059696 167.75475347287156 75 205 254 
-647.4178702516448 17.660127101844775 169.37876657468783 74 205 254 
-643.9678963215613 18.6435891542267 172.92101114704093 74 204 254 
-645.6393044006697 18.033794051548906 171.44241356630732 75 205 254 
-647.2255257608549 17.398242227785136 168.59700405575177 75 205 254 
-645.1556915056935 17.8737891628136 171.726744505376 75 205 254 
-644.4643807704335 17.506393669522446 167.610691456571 74 205 254 
-644.571044036821 18.03616959065749 170.80836849893942 75 204 254 
-645.0547913481107 18.494675661603264 173.20027862451562 74 204 254 
-643.6103085754348 16.039963817332563 166.02016614271315 74 205 254 
-644.3224741871209 18.335410065418753 172.39471625988608 74 204 254 
-644.534534752409 17.86487061193103 171.41495556978737 74 204 254 
-643.5890714685006 16.809681009657943 167.57550595549557 74 204 254 
-643.2740951615707 17.52777827132376 167.07608861522039 74 205 254 
-644.4505432603813 17.00019442952328 169.50810139069705 75 205 254 
-644.6397688056268 18.03607055861136 171.86029931020073 74 204 254 
-646.3351809496814 17.882425445451467 172.4520551449851 74 204 254 
-644.7962138445789 18.925610174026534 174.10135935228587 74 205 254 
-643.8864121180136 18.290397404754344 169.1586538838812 75 205 254 
-645.5282164215203 17.41639949681083 167.92492650624374 74 205 254 
-643.5140397103489 16.706229295429665 167.3312834824619 74 205 254 
-646.2988917219932 17.185461474195403 170.80326117340667 74 205 254 
-646.8177248184221 17.76640536712524 172.4198956608444 74 205 254 
-645.9161970731714 17.879691301003056 169.24654358414566 75 205 254 
-643.7284024997374 18.297142184743414 171.9963482186606 74 204 254 
-644.8191496893601 17.671413923184765 170.10656689320638 74 205 254 
-644.3864619792804 18.605190005727177 172.10874106274923 75 205 254 
-646.07537428957 17.580252792176346 171.6150420258527 74 204 254 
-643.5972825719493 17.124061837406874 166.33550816388265 74 204 254 
-647.1642354578612 18.225083856729807 173.70098065160718 75 205 254 
-646.0355805030736 16.51237544140767 165.9131417635923 74 204 254 
-644.5636679962689 18.440989037533054 169.88862359854923 74 205 254 
-646.0990780862688 18.381454167153265 173.526533718556 75 205 254 
-644.3478283925559 17.34717644701663 167.18156068010276 74 204 254 
-646.4514448567452 17.430833621174965 170.43382311811382 74 205 254 
-646.8764273166888 17.67452574977969 169.11691535460955 75 205 254 
-646.6367262766526 17.336873556073233 168.2060732125338 75 205 254 
-645.4305451953716 17.66229863089273 170.4538508446934 75 205 254 
-648.0031950604304 17.532700417785573 169.29414050329652 74 205 254 
-644.5530984679401 17.3196814793331 169.17218628833828 74 204 254 
-644.231799142824 17.994297413469543 168.62967100504 75 205 254 
-646.71015379459 18.36560225891704 173.7917160715741 74 205 254 
-643.2119309295845 16.587936105201422 164.9732151591955 75 205 254 
-644.584312338752 18.647826747904613 173.31022649439637 75 205 254 
-644.2275036808628 18.97653602191201 173.86617608187862 74 205 254 
-646.8355465266562 18.003006116045405 172.0344159902565 74 205 254 
-644.4561653916813 18.488508749647806 172.84600945860063 74 204 254 
-644.7238659332382 15.964610710650035 166.3085377862536 74 204 253 
-646.6804741112531 17.605514508088238 171.9624739273863 74 204 254 
-646.316273970852 17.37857275028575 170.24067887395853 75 205 254 
-644.0617453596104 17.476686745102484 169.2821732080289 74 204 254 
-644.1067083769826 17.82966576173787 168.17543262365402 74 205 254 
-644.8663731616298 16.435982046668002 170.1741196496334 75 205 254 
-646.2419003554884 17.66073711580715 173.55417874806525 75 204 254 
-644.6624865438672 16.960772968424305 171.16772897067594 75 204 254 
-645.4134878826252 17.15950724485568 172.00273495422488 74 204 254 
-644.1577965189168 17.76212668230863 172.69021890665962 74 205 254 
-646.8830340930688 17.564383812483584 173.64845483639084 75 205 254 
-644.1524524980769 18.596714404971287 174.60580867194764 75 205 254 
-644.0579219859862 16.94186158463768 170.85198103855873 74 204 254 
-644.8512401633327 16.57857790196395 170.46666346169042 74 205 254 
-646.9356488722642 17.40257208488021 173.28391311354252 75 204 254 
-644.6570168109271 18.441176278731668 174.51273955929432 74 205 254 
-645.8558078144262 18.465456176852516 175.22920839377468 75 205 254 
-644.5832881880685 16.0505241630553 169.2700792351327 75 205 254 
-645.3346188872072 17.827285751284258 173.43831492323915 74 205 254 
-644.5584287605105 16.780018416174524 170.73904350458827 75 204 254 
-645.0213502901559 18.17261267480766 174.05643745996792 75 205 254 
-645.6446679225132 17.519346661942457 172.92315774900774 74 205 254 
-644.9258257412197 18.777476366974632 175.4650186996523 75 205 254 
-646.2980565311173 18.321441861673634 175.1761996043669 75 205 254 
-643.9349278841089 16.724809460059568 170.34061364733478 74 204 253 
-645.7567817804105 16.847206556595708 171.43829462034898 75 204 254 
-645.7933691529325 17.677792437800367 173.3634441054671 75 205 254 
-645.9161401228731 17.766676486398282 173.65598376098984 75 204 254 
-645.7352953074183 18.30226922768552 174.77115323913063 75 205 254 
-646.0132586357665 17.205267162726326 172.37604276763534 74 204 254 
-644.8166896866027 17.13650017780281 171.62266194068533 75 204 254 
-644.6037550432643 17.61436239118032 172.57657599963477 74 204 254 
-645.5507813341591 17.338174398546787 172.47006522337352 74 204 254 
-645.0634850033113 17.478651624154583 172.50668974303994 74 204 254 
-646.4416845097252 17.708188178296208 173.76123820580392 75 205 254 
-644.4763589540573 18.24369997737963 173.95146735690304 75 205 254 
-645.5879242387873 18.15430698839857 174.32784600481926 75 205 254 
-645.2695007106238 16.986429643052738 171.54346141396775 75 204 254 
-646.6918324616618 17.4037341199096 173.17556992739546 75 205 254 
-644.5926641467049 18.31390888325644 174.16915107497934 74 205 254 
-644.2616793766404 17.951022517319586 173.16656152869734 74 204 254 
-644.1200174394926 16.187975196079005 169.34593998836763 75 205 254 
-644.2684790701804 18.760242813572848 175.0673435329504 75 205 254 
-647.0571105832679 17.721666367204712 174.1207313519638 75 205 254 
-644.5129946495776 16.683311258904396 170.52176174121718 74 205 254 
-645.8896427708219 17.035626863644385 171.92202424058806 75 204 254 
-645.9605200997819 17.872122663506072 173.8892635504735 75 205 254 
-644.3682175402378 18.11591723708613 173.59919123567295 74 205 254 
-645.1907256844931 16.462819342929222 170.36836607153506 75 205 254 
-644.7203670935686 16.252735055233188 169.7332108864268 75 205 254 
-645.0012022692233 18.070070406313867 173.81365715979058 74 205 254 
-644.4635965585728 17.44438173925532 172.12968084920857 74 204 254 
-643.9895458023082 15.9859002092109 168.894939366667 74 204 254 
-645.3977734462957 17.967374004814197 173.79764908932017 75 205 254 
-644.7908847523478 18.617891266891867 175.0111387639894 75 205 254 
-645.2097753519106 17.645270178797446 172.95737489186848 74 205 254 
-644.1881636946054 17.101190941840063 171.2491152864717 75 204 254 
-645.4498811360811 18.00137243482074 173.8976437270639 75 205 254 
-644.2564618258851 16.388907365579247 169.8050516059824 75 205 254 
-644.4896009618126 18.909824942333184 175.53839397826516 75 205 254 
-645.3957959642418 18.62436613702746 175.3406101060633 75 205 254 
-644.4020344736432 16.584667920213363 170.2663134472651 75 205 254 
-645.1463176162282 16.801834808500566 171.07790488604897 75 204 254 
-644.717121174358 17.794733180514317 173.0368798341281 74 205 254 
-644.6002264823558 16.179417942531025 164.71486808344102 75 204 254 
-645.8053770258896 17.226944508196514 170.68339927474682 75 204 254 
-644.2765208008282 16.49946168089701 165.26436667768095 75 204 254 
-644.4220635649166 17.165847538398058 168.76170773790415 74 204 254 
-646.0081649333118 17.29424978919997 167.81478315808928 75 205 254 
-646.9759875599605 17.787664673438165 169.45352036612968 74 205 254 
-645.0726887898794 18.009641869341337 171.02717532929944 75 205 254 
-646.284048865914 18.018074447467367 171.76117502368479 75 205 254 
-644.1264259154353 17.32962574666194 170.03126159354383 75 205 254 
-644.6018215106105 17.171952814082886 169.94207357617694 75 205 254 
-646.1514121031018 17.365469532034894 172.81402959067643 74 205 254 
-643.9187056686603 17.823683380661127 171.01007841349178 75 204 254 
-645.2475653277213 18.465494951520366 174.88034769008385 75 205 254 
-644.8949995997931 16.99789625070964 168.66279093939056 75 204 254 
-644.7793256533529 17.20435307036008 167.07216160126785 74 204 254 
-646.501807732374 17.581921324360835 170.8175472409209 75 205 254 
-644.1445840694431 18.293648725301193 171.2256891369481 75 205 254 
-645.482706690073 17.566080084464417 171.2628073890367 74 204 254 
-645.1410339968147 16.186449128635832 166.94986431307044 75 205 254 
-644.5248596331136 19.034177455063812 175.85957461751542 74 205 254 
-645.0404427436519 17.882347131556436 170.71340114096012 74 205 254 
-646.459730443262 18.062736270743553 172.94502659412763 75 205 254 
-647.2795430572456 18.055661362891144 175.04386247956995 75 205 254 
-646.2070395289272 18.149859830970858 174.71610484053468 75 205 254 
-644.0093988381071 18.871352754234625 172.51102334708327 74 205 254 
-643.8081776739372 16.645979500967037 165.3513531432013 75 204 254 
-644.7242439344972 18.323136643473845 171.57209269349767 75 205 254 
-644.869622826907 18.470640974015677 172.0111492713176 75 205 254 
-645.518903115027 17.758056889764003 170.7514555309189 75 205 254 
-646.1062230612627 16.672588623083477 166.36690983369155 74 205 254 
-646.6084817083399 18.243239119803043 173.44302087707334 75 205 254 
-645.3513303125958 17.793076443637307 170.68812151595955 75 204 254 
-643.9339344106983 18.755132382814033 172.18608430396097 75 205 254 
-645.745637777777 18.648289501056976 173.92865267928775 75 205 254 
-644.0988594297374 18.21018538798836 171.00693423885343 75 204 254 
-647.9124001043359 17.486105439822204 169.11094166683054 75 204 254 
-643.2978934274481 18.240722673349694 168.75659528242522 75 205 254 
-646.4607775180945 17.182578217059696 167.75475347287156 75 205 254 
