-19.4058944563 0.698233748414 3.02367625086 220 220 217 
-20.1625622757 1.9608289541 1.02762648836 36 35 55 
-20.1625622757 1.9608289541 1.02762648836 36 35 55 
-22.0890860399 -1.20852585774 -0.375322884657 249 249 249 
-32.572339144 -3.52212963341 13.1633438519 152 132 125 
-19.9128930216 1.91701493494 2.07121056609 216 216 216 
-19.9128930216 1.91701493494 2.07121056609 216 216 216 
-20.5226919179 -0.0977503547935 1.14410100904 51 54 70 
-23.6051467983 1.77762606478 -2.97405142845 204 204 212 
-20.2130797341 1.0414524911 1.52145958923 212 212 215 
-23.1479152318 0.860574824767 -2.40115235851 207 208 212 
-27.9528704772 -1.08994841998 7.96556240652 145 119 108 
-19.3799312719 1.76761972967 2.9667181857 103 103 114 
-30.3709758545 -3.55996401366 2.99090201796 241 239 235 
-19.5348523674 1.32803022281 3.61286690195 47 46 60 
-20.5215929857 0.287082850726 1.05730876497 226 226 227 
-20.3550320391 1.63476409747 4.62865735175 171 177 183 
-20.3657680154 1.63463088092 4.63169395581 171 177 183 
-19.8584861921 1.07436037434 3.87718130635 180 179 182 
-29.8345260899 -3.91374590171 3.54823601634 163 148 141 
-27.9046699953 -3.18268912604 7.12887062858 139 121 109 
-24.5034235123 -1.57698720781 1.64372906529 117 119 128 
-28.4652560462 -0.0279731745303 9.36785778372 128 105 91 
-28.6174463177 -0.470823303588 9.62537127352 121 99 86 
-31.1685073638 -2.67974719886 2.66424834385 152 141 140 
-29.135194 -4.69650853866 3.69919517053 166 153 145 
-39.1250841781 -9.63026164088 -5.82857093768 182 181 190 
-28.0047147602 -5.8580008386 6.06223625388 166 152 143 
-29.702186085 0.270394129387 10.8975359496 117 94 80 
-30.7410738618 -4.16648157566 2.59415379206 167 153 143 
-28.3890468819 -1.67352762845 9.09135046828 128 106 93 
-19.8836326659 0.873971330219 4.12809522473 45 44 51 
-20.786769967 0.74765668835 1.11989110252 112 97 180 
-20.7052268979 0.741386636492 1.116792159 112 97 180 
-31.7447399475 -3.19378699294 2.18478365851 194 194 195 
-29.9112209816 1.78544756921 10.9571526419 101 80 74 
-31.7194546742 -4.17352978994 1.48733019965 172 157 150 
-30.4173038504 -3.72269489445 2.90955632955 240 241 244 
-31.631061933 -3.3787978803 1.76740549803 98 100 104 
-39.6010888902 -9.27293616587 -6.50734756335 113 108 113 
-29.0969839809 -0.893958819234 4.16881424072 158 137 125 
-28.6289336047 -4.62456553575 9.81540331825 130 111 106 
-28.6749443861 0.553670675138 9.90765962405 119 96 82 
-23.5978075745 -0.34719899921 3.31929697564 124 118 114 
-27.8990584863 2.67282548041 7.43372413634 100 88 90 
-28.0162855241 -6.82202882297 5.98607525085 172 161 157 
-30.2162104915 -7.98493314057 2.98093818111 246 247 247 
-19.3583557963 0.546812466168 3.0178151048 252 252 246 
-19.9594645153 2.1568544593 1.91577728322 202 202 202 
-21.0445523661 0.898537498579 4.77984521093 48 47 48 
-38.4834847608 -3.72580936531 -5.58803081426 73 74 75 
-30.5534327819 -2.53495055951 3.0438045261 123 112 101 
-21.0972336756 1.79494382584 5.0571350199 60 62 63 
-39.6342019034 -4.16193666753 -7.14354205879 238 235 233 
-20.2434088623 1.20930975274 1.53506056419 211 210 215 
-32.9009319377 -8.53755797134 0.250830436298 146 149 156 
-39.3410738037 -3.77959928738 -6.5737690531 69 66 67 
-30.5243414407 -8.32502867527 2.79112826093 183 176 176 
-19.9229081807 1.59063587103 2.08113091766 234 233 238 
-19.9229081807 1.59063587103 2.08113091766 234 233 238 
-40.9911753475 -9.07229608821 -7.37748511127 239 236 236 
-19.7782317413 1.78624312204 2.31943009079 234 234 236 
-19.7782317413 1.78624312204 2.31943009079 234 234 236 
-20.0985004571 1.8169654897 1.85465301886 235 235 239 
-20.8328040792 -0.458902707237 1.19044735691 177 181 190 
-19.776526743 1.96024117338 2.30393745797 43 43 43 
-19.776526743 1.96024117338 2.30393745797 43 43 43 
-19.644701483 0.451772260907 3.1639167963 221 214 212 
-39.3659155569 -9.57713514728 -6.73588194564 161 154 161 
-19.8712264078 1.67788626815 2.22149853643 44 44 46 
-19.8712264078 1.67788626815 2.22149853643 44 44 46 
-27.8748550687 -2.58525205569 7.51486846969 149 132 122 
-19.9243877522 2.16683098366 2.10071043327 45 45 45 
-19.9212378401 1.90730021038 2.06949170177 215 215 215 
-32.2877850233 -3.07324228491 1.0463265477 194 194 194 
-24.0088165853 1.90415677284 -3.60650745056 62 60 71 
-20.0134170481 1.9707529693 1.8899988773 58 58 59 
-39.1661244872 -3.41551393702 -6.76958812986 182 173 175 
-38.9840590423 -3.39412115319 -6.73232120174 182 173 175 
-30.9965988304 -2.82473647482 2.5537405038 58 57 55 
-31.7581335093 -3.05883068199 1.55494241857 203 203 203 
-23.8014079796 1.49018151607 -3.11554211027 224 224 233 
-37.1630406792 -8.94832616568 -3.88710972286 100 100 107 
-23.4219054702 1.86989837446 -2.73819656421 222 222 230 
-30.7354623104 -3.00473384394 2.62396628765 188 185 184 
-32.1963994394 -3.07317822272 1.31181142239 199 199 199 
-27.7261731469 -3.93132195604 7.54696747013 151 134 126 
-31.4865084568 -3.03922741506 1.80939432121 197 197 197 
-36.8889899932 -9.63459682092 -3.84449623549 99 96 105 
-30.7026909358 -2.80029639056 2.9199794373 153 142 141 
-23.8459967454 1.80277805764 -3.24688923232 214 215 220 
-28.6503016877 -6.64794088703 9.66947117543 149 136 131 
-23.5405475951 1.70829084878 -2.7742874974 50 51 59 
-28.0393071513 -5.85884951635 8.61771653537 150 132 128 
-28.0619912536 -5.86459401977 8.62664018648 150 132 128 
-31.4630629474 -2.84039881792 1.77031703211 65 65 66 
-28.1497757347 -6.9641304061 5.22847195007 200 189 187 
-23.6424584752 2.01377404341 -2.87734416155 54 53 60 
-28.2699782068 -2.98652934235 8.83784759298 136 119 109 
-27.9838838084 -6.49433005486 5.63883358731 178 167 163 
-31.0134407936 -3.32822998758 2.7016405181 186 187 187 
-28.0309007283 -4.81178450891 8.44005197455 134 120 115 
-30.4945122929 -2.57883607069 3.3305417831 173 162 158 
-39.7405663818 -8.47782926334 -7.7007518283 133 122 121 
-37.2668777869 -10.1946187453 -3.96948645119 88 88 93 
-20.9045674047 -0.623673514979 1.23364376263 87 90 96 
-24.4361490434 -1.6466829287 1.23531819793 100 100 100 
-19.3317098703 0.876692175862 3.10980243575 235 235 237 
-30.9087966204 -4.79368735726 3.35448293276 183 170 162 
-30.6541601786 -4.75199977662 3.33117499086 183 170 162 
-24.1931532598 -1.75536043685 1.32498032444 231 232 234 
-35.0952770756 -9.51368938337 -1.44456324532 185 184 189 
-39.909976626 -4.48403065695 -7.30353904099 136 124 117 
-30.0988039823 -7.07490548552 3.27249998089 204 193 191 
-19.8931604514 0.836707034993 4.05029620108 38 37 41 
-23.7244074767 1.49849247551 -2.95772702708 51 51 59 
-23.7244074767 1.49849247551 -2.95772702708 51 51 59 
-27.973457978 -0.753765406922 7.55200540863 132 112 101 
-30.062260953 -6.92181682804 3.43117183163 175 164 160 
-30.3605611208 -7.67961035618 3.18433109221 203 193 197 
-19.5700254003 0.920114859608 3.52625615999 246 246 245 
-30.5238310309 -3.29019372189 3.03911634381 168 162 161 
-20.7533114595 -0.492218653333 1.32627965253 107 111 120 
-20.1800711132 0.115124524058 1.79140758366 128 131 142 
-21.8284797296 -0.845704855616 0.0504608369632 66 67 72 
-20.5125394755 0.996573332508 4.53887535074 180 179 184 
-28.8117068116 1.37394831207 9.86751269285 112 93 81 
-31.8882260611 -4.42404824411 1.6218821885 206 191 184 
-28.382119873 2.00765191489 9.25205160077 139 116 108 
-27.9570934201 -5.88823811591 8.21397873318 151 133 129 
-28.166441319 -1.87651864196 5.48840797987 139 118 113 
-28.1372694902 -1.87410451778 5.47901321502 139 118 113 
-31.1721278208 -2.67735508421 2.55018012486 60 59 57 
-31.2652387345 -4.23992327005 2.21782815176 165 150 142 
-31.184362218 -4.1264554984 2.30331681523 220 205 198 
-21.3670406627 -0.918121728666 1.19799300239 90 90 93 
-21.3670406627 -0.918121728666 1.19799300239 90 90 93 
-28.7182475232 -6.10565209883 10.0734006091 139 125 122 
-20.6011711305 -0.222060506421 1.50858450566 175 176 189 
-28.0298146425 2.3274516268 8.70488187633 115 95 88 
-27.9077597747 0.856726391183 7.94808602481 125 105 94 
-29.6028773628 -4.69025103422 10.8763394853 133 117 116 
-27.9728711193 -0.214219289629 7.82674410903 147 127 116 
-34.7796766262 -9.69391246365 -1.54516938103 203 203 205 
-20.9431556568 1.1053220125 4.73090084185 159 158 166 
-27.5594039353 -6.71229244675 7.26983339157 166 153 147 
-32.9902411191 -7.78450226643 -0.161172254987 173 162 165 
-27.9563305882 -2.31592795704 7.11677194652 142 123 114 
-28.2101658408 -1.97153159854 8.86647592872 131 112 103 
-35.6831638471 -9.38218041895 -2.25798485336 192 191 199 
-27.9546836503 -1.83758719849 7.76056991774 123 102 92 
-29.0784117396 -4.86111231577 3.85383770839 201 188 180 
-28.8752772593 -1.52504633206 10.0081664336 126 103 95 
-28.2746090085 -1.68195032703 8.8927397492 128 108 99 
-31.0338662301 -2.73564971752 2.41469454311 153 152 152 
-28.161257632 -5.42098196114 8.96888447035 173 154 142 
-30.2989738095 -3.31851506244 3.4007568974 152 137 132 
-30.2002541857 -3.30524788521 3.39489670454 155 140 134 
-27.9711040181 -1.71018710926 6.54478485471 131 113 101 
-20.4268365992 0.829319032736 1.30976512917 112 108 128 
-27.9064761666 -0.797647682847 7.96654075456 132 112 101 
-31.0114707162 -2.16210237309 2.68025518841 116 112 111 
-27.8649863679 -4.97574659271 6.8051511425 163 149 140 
-28.3114060807 -3.73152767951 9.2370756755 136 119 109 
-23.740324788 1.79847376761 -2.78164809218 51 51 59 
-28.2778724203 -1.89071050258 5.23931641941 130 112 108 
-28.3599477214 -3.64690532142 9.36580444855 166 149 139 
-28.0660198877 -1.99311017857 8.43968169209 132 115 105 
-28.3575363016 -1.38136873911 9.06631192402 129 106 98 
-20.2683392582 0.0429360636595 1.75213664648 165 169 180 
-28.1162330625 -1.57182522398 8.88546246012 162 140 132 
-28.369688318 -3.5867763121 9.46093099387 136 119 111 
-28.6103494141 -2.42734583489 9.86602215128 131 108 100 
-28.2694424056 -2.4170619322 8.99782438896 137 113 105 
-28.8435533545 -4.13156011247 4.13774921213 194 184 177 
-28.3343744262 -6.71174278572 9.54337953548 175 162 156 
-28.8917154848 -6.54426204206 4.203129901 209 198 194 
-27.9974485459 -3.35520331728 6.07993820419 144 127 119 
-27.9083517135 -6.12435671939 5.91276042538 174 163 159 
-30.9079067856 -2.38976899652 2.42816880027 166 164 164 
-21.9224750148 0.317042056703 -0.521377520669 231 232 236 
-39.4219100981 -9.00381622195 -6.62871334019 110 105 110 
-28.2685456051 -6.74463809638 9.18235203006 180 167 161 
-28.0117470044 -1.70978257018 6.27446382282 127 111 99 
-33.897497707 -8.62032600798 -0.513244468932 104 104 112 
-27.9180987905 -2.15321277416 6.92775226237 138 117 107 
-28.6446813545 -1.07621047477 9.66815545025 115 94 83 
-27.9625522219 -0.0588221788113 8.34581336115 132 112 101 
-28.4908933121 -5.31714885117 4.70719795626 174 163 159 
-28.5306688409 -3.15271212902 9.64928802286 126 105 98 
-28.0076358391 -4.38223933042 5.55453701125 166 153 144 
-28.3575415968 0.202302679978 9.28132919615 156 136 125 
-20.9382380319 0.668368489619 0.783015670978 206 201 233 
-40.2298578141 -4.88256128765 -7.35914722684 127 112 105 
-22.866976993 0.123837721256 4.20399086856 220 212 211 
-29.5400100789 -1.94965057939 10.8172260664 123 107 97 
-32.2125774573 -7.43385313379 0.906318412392 199 185 184 
-27.8882785859 2.14795254486 7.73011336907 105 85 78 
-19.3996587594 0.549577943084 3.02079753783 254 250 249 
-38.7241020383 -3.53501853408 -6.51632620556 73 67 69 
-28.0534594925 -4.06649398967 8.29035712068 141 124 119 
-29.4190358996 -1.51584293141 10.6382409132 124 103 97 
-28.5931120589 1.67129226183 9.64141994153 137 117 107 
-28.584578468 1.57954986048 9.62005710658 112 92 81 
-19.7056561388 1.26151713255 3.88980575574 138 137 142 
-43.9649570109 -3.28557259908 23.4909198414 208 204 207 
-27.9375602049 -2.00536867128 6.56952790147 148 128 117 
-30.3029238959 -3.41670919745 3.32019111996 186 172 168 
-28.4515426386 -6.46623481122 9.58885787431 165 152 146 
-29.4683997702 0.982436441269 10.7092800786 177 160 152 
-28.268240378 2.52060012612 9.03276643655 142 121 117 
-30.4382555679 -3.98036949273 3.15196451907 165 152 144 
-29.409086573 -1.21650072617 10.6666853808 116 98 94 
-27.8692966885 -4.88871082845 6.24205877089 188 173 166 
-37.6586237942 -9.75317706823 -4.74520514812 89 90 94 
-20.1739948208 0.759894182212 1.66944235108 140 126 117 
-30.9329666494 -2.4754362304 2.54309034526 138 137 135 
-28.4545497369 -3.21416400086 9.55989814184 154 134 127 
-28.7734186393 -5.07280397342 10.063377801 139 124 118 
-34.9138616748 -9.59094126729 -1.64269186731 59 57 60 
-27.8343567718 -4.85904779684 6.84719572878 190 175 167 
-19.9959538782 1.4027450126 2.07548314423 77 76 84 
-19.7671394 1.54351895992 2.23110004858 206 206 208 
-19.7671394 1.54351895992 2.23110004858 206 206 208 
-20.1116099497 1.74045229325 4.509311605 194 208 212 
-27.9606588818 -0.215204608005 7.95156566236 134 114 103 
-27.9606588818 -0.215204608005 7.95156566236 134 114 103 
-24.4781195718 -1.53732750889 1.25530026021 209 209 209 
-30.650787122 0.271558254138 11.6929547201 115 97 87 
-20.1140580744 1.89845683467 1.93387599347 208 208 209 
-33.8815847284 -8.61129999875 -0.51304470211 106 106 114 
-31.0809008977 -3.98676907736 2.36183322181 185 175 170 
-58.5268927549 -7.42753903114 33.9481823338 153 145 151 
-27.8444527786 -4.35065012133 7.57473586664 142 126 118 
-28.3857099354 1.44066621482 9.18320868015 109 89 82 
-27.8345569219 -4.50226141202 7.77533261861 140 125 121 
-19.9736602705 2.00094902192 2.01310737281 86 86 86 
-39.7055556143 -8.50780496575 -7.16955832881 92 88 89 
-40.0588696852 -5.01756926689 -7.31235665276 156 141 134 
-27.8656197419 -3.48631015593 6.99721163445 161 144 134 
-30.4417535915 -3.87818327989 3.12082537014 224 213 208 
-19.1155289258 1.28280803703 3.12571467629 205 204 208 
-39.3712891842 2.82126459644 17.5769351288 80 73 77 
-27.8906806627 -2.94870207941 7.50338584596 184 167 159 
-31.6049149392 -4.16918462042 1.70187315028 168 153 146 
-34.9584763268 -8.62057294842 -1.66773930964 97 97 99 
-30.6382970883 -2.92983803496 2.68582430035 181 174 171 
-30.9951300397 -4.58869943019 2.54353112447 171 158 149 
-32.6743592738 0.732553306786 13.1332624747 107 90 82 
-31.2145873506 -4.00646879854 2.57827988836 181 170 165 
-39.3350489203 -10.2998683442 -6.38963272926 85 80 87 
-33.1756983567 0.159669239382 13.5735930865 240 233 234 
-31.7601072705 -4.44272817691 1.69828082253 174 159 152 
-29.0820124189 -1.20480991534 3.83689884675 152 135 127 
-28.9229913888 -4.74378510194 3.86648175061 175 162 154 
-19.9584235186 1.94864431054 1.9794591021 231 231 231 
-29.077680565 -3.26621512083 3.87330604139 158 145 137 
-34.9961383185 -9.56131618988 -1.73872758893 190 188 190 
-30.8700748444 2.34984492054 11.9210227776 101 90 88 
-27.9927707655 0.154509725944 7.88254510806 165 145 134 
-32.9060937485 0.49503716535 13.308336358 133 114 107 
-27.9355019676 0.374956716553 7.38206851784 133 109 107 
-19.8639743223 1.12802537173 4.09175906278 57 55 67 
-30.8739781235 -2.27607654205 2.75296273499 167 161 161 
-19.8497647011 1.98904627561 2.17115433955 233 233 233 
-27.8401709143 -0.312563944436 7.22428460944 170 150 139 
-41.3254151148 -10.5772050359 19.3124022776 85 85 96 
-30.2590740803 -7.80746469906 3.13097482791 106 103 103 
-22.5506358793 -0.920419113704 -1.02856250879 111 112 116 
-39.1924970767 -9.37732778011 -6.70283170301 164 156 160 
-31.3087168873 -4.01982641981 2.18247430471 180 168 161 
-27.8197171344 -4.8475038273 7.27076525095 197 183 174 
-31.9840891801 -8.54280101983 1.70187408198 92 96 99 
-30.4089431018 -3.79267185085 3.17193242933 165 154 148 
-28.5571855743 -1.51529456768 9.77866453098 130 107 99 
-28.1322546671 -0.833511003003 5.84007061082 132 110 97 
-32.8572676194 -9.3474795497 0.411392308778 112 111 115 
-28.7932480507 -2.84437779673 10.0383823169 130 110 103 
-28.6151142407 0.493689148064 9.69468457725 158 136 130 
-27.9533319294 -4.05836403135 8.02118543023 143 126 118 
-39.3972760605 -9.00548970446 -6.40335084008 112 110 115 
-29.0851538977 -3.00400434065 3.99346247496 167 154 146 
-27.7915610272 -4.33657154469 7.80832760067 139 123 121 
-28.5826305446 0.409103327536 9.61146757653 122 102 91 
-27.8963466024 0.244552484022 7.7339528694 138 118 107 
-28.0298946713 -4.02355650463 8.43314284107 146 129 120 
-29.2108339932 -6.59367105205 10.6362431271 141 128 122 
-34.9931437574 -9.87644291962 -1.6520672222 94 94 95 
-28.2858009646 1.87572018242 9.16021237813 105 84 76 
-43.7708099191 2.9272519129 23.2569961579 160 154 158 
-28.4080059035 1.88737043215 9.19658756277 105 84 76 
-31.2122357632 -3.01834793447 2.07189577801 193 193 193 
-31.0091273432 -2.60328734381 2.28794189147 79 79 79 
-29.0657190278 -4.64475942431 10.442853939 132 117 112 
-28.2693722868 -1.81908358636 9.03206975716 130 108 95 
-31.2521966264 -2.84962890908 2.03740540584 70 70 70 
-28.9668967842 -2.74272574664 4.09466790843 195 180 173 
-27.8472272246 -3.67337642826 7.56570765713 160 143 133 
-33.9303565248 -9.46652457685 -0.501964144145 106 104 108 
-34.011616546 -9.48817694321 -0.509936472249 106 104 108 
-31.0727642096 -3.45410308552 2.52533141126 81 82 84 
-29.2250876445 -4.47996836787 3.97244437854 201 188 180 
-27.868936975 -0.137842887986 7.85977460528 189 169 158 
-32.9677959161 0.00832054994973 13.6686733155 235 234 236 
-32.9677959161 0.00832054994973 13.6686733155 235 234 236 
-33.1669968509 -4.22256166245 0.188920133302 164 151 144 
-33.071344302 -3.48368701328 13.7725621649 241 240 240 
-28.7924031153 -3.68324570786 9.96460382368 158 141 133 
-23.7396265978 1.72010053794 -3.09968969312 220 220 226 
-20.4108680467 1.08612478037 4.41404822969 59 57 68 
-28.5137918766 1.88485527597 9.34285431538 105 85 78 
-21.0903822901 1.18546843379 4.86798790707 57 57 63 
-20.4211236183 0.903712819034 4.44947288823 182 182 185 
-28.1238242309 2.6938035375 8.10880479357 101 87 93 
-28.163214307 1.15691280155 8.79219121747 119 99 88 
-27.9699244611 1.75098838915 7.68359855418 125 105 94 
-20.6683201303 -0.382484716827 1.34934635782 121 125 135 
-27.8549184835 -0.657303871274 6.88987471806 132 112 101 
-28.5270902444 -1.36459528412 9.6449938192 136 111 104 
-28.1348542577 -1.3744557417 8.827753628 131 111 100 
-22.4278501134 -1.53043928665 0.23850582155 220 220 220 
-21.8080813183 -0.81469008117 -0.0119648467583 235 235 241 
-28.386477918 2.18973287108 9.14199892508 114 94 85 
-21.5544933797 0.472060612553 -0.0750209457705 225 226 230 
-28.1020413048 -0.135967124132 8.52204004512 199 179 168 
-22.6154904758 2.55164061039 4.42856977363 72 71 85 
-19.217509698 1.21574777639 3.17772203851 86 86 88 
-20.0477973653 1.57008573855 4.38931159109 152 151 159 
-19.87314531 1.11555197502 4.17483027771 66 64 77 
-19.3162480854 1.26669054518 3.21575488898 204 204 205 
-21.5013326193 -1.15864334782 0.936107536736 213 213 213 
-19.7405339771 1.49574388813 4.00962198046 137 136 141 
-20.8402882206 0.517880870018 0.78549347759 111 103 159 
-20.0506350772 1.69176815767 1.95601176204 45 44 49 
-20.0234978224 1.97075070078 1.89400380826 62 62 62 
-28.1697053463 -1.96767181725 8.86484902097 132 114 104 
-19.4527621375 1.83062613168 2.77419182598 105 105 119 
-19.6178964558 1.20925654317 3.82901390481 82 81 84 
-30.5267632583 -2.21841815682 3.11787754784 160 147 139 
-23.6753744721 2.11619997228 -3.06211663244 202 201 206 
-28.532314012 -1.21499398994 9.60711599721 136 113 103 
-23.5544492642 1.5323752938 -2.80626945348 230 230 238 
-31.5287063913 -3.3016596596 2.06171650897 206 207 211 
-28.0651787774 -7.2248781137 5.23785429981 200 189 187 
-27.8897518338 1.90534580556 7.62389960924 150 127 119 
-27.6725267846 -5.1974402341 7.67810769656 160 145 140 
-28.9388584069 -1.62879887801 4.13259099777 140 123 113 
-28.1203601541 -3.02879581069 8.32430084564 143 126 116 
-28.7025789316 -2.12073614029 9.70337757568 131 108 100 
-31.3867538278 -3.91467711685 12.354390711 135 116 118 
-28.5844418158 -1.21853336806 9.76786931176 130 106 99 
-28.6623579355 -3.58791274718 9.84983090295 127 110 102 
-30.2363517811 -2.7074678943 3.36112277165 141 130 125 
-27.9890192582 -4.68903121799 8.3151628593 162 147 144 
-33.5187125878 -4.97876140211 -0.181570612492 155 142 136 
-27.949566546 -1.70755489531 6.69091140324 141 121 110 
-27.9218909711 -3.03241855963 7.73907572333 129 112 102 
-32.1644348155 -4.87591019206 1.0419159034 151 140 135 
-32.2664949858 -4.89310706163 1.04335632367 151 140 135 
-27.8450059068 -1.09326664994 7.80622014725 146 126 115 
-27.9945001746 -6.93758827446 8.56972697418 198 185 179 
-31.0960396984 -3.31957775988 2.56284920094 85 88 92 
-34.8078399996 -5.48125040057 -1.95195491031 156 143 137 
-30.4371390339 -3.56156048678 3.10991880083 185 177 174 
-30.6346065649 -2.9286360984 2.68453427564 183 180 179 
-31.1400984108 -3.19117890367 2.55271648455 73 74 76 
-19.9369618368 1.78561286189 2.0796668824 75 76 80 
-30.9411914046 -2.28190373395 2.75381492165 179 166 164 
-24.7250364453 -1.47888542378 1.27260035201 121 121 121 
-28.3448746233 -5.00899558355 9.19862949322 170 151 143 
-31.167808933 -3.32891799179 2.56739791347 80 74 73 
-28.083598583 -4.49892610743 8.61188506737 137 119 107 
-33.228455241 -3.41335728538 13.6402172232 221 213 208 
-33.3565226321 -0.327684795237 13.8437651627 95 93 96 
-21.8462885857 1.10614982394 5.18379297012 224 218 216 
-21.9728602083 0.9151520351 5.16241871182 232 226 222 
-21.9469294056 1.66418692487 5.32255186203 79 69 69 
-19.4189674103 1.41569918772 3.25190252819 207 206 210 
-39.8166433259 2.6783677343 17.8711091452 115 103 104 
-20.8441999963 0.667164025282 0.714684144654 124 122 147 
-39.4829243062 -8.88957922739 -7.19914287341 150 139 137 
-30.1615623427 -2.70263556159 3.35871549466 141 130 125 
-28.2842712697 0.114135336527 9.19125660655 121 101 90 
-27.9383590189 -2.54804000744 7.01416619266 185 168 158 
-43.9555977605 0.0475405706185 21.1017530245 233 232 233 
-43.9240371481 0.0478677385181 21.0880918688 233 232 233 
-43.7181226838 -8.3836783158 21.1926333033 226 219 224 
-43.5351559265 -0.743543213457 21.1041668246 122 108 116 
-40.0210354322 -9.93704514507 18.2648446078 156 156 159 
-29.8344123415 -8.35035129709 3.58836244389 204 193 189 
-43.5400752035 0.945557180999 21.1178797283 112 97 102 
-33.922554645 -9.58255866307 -0.556045933213 204 199 198 
-29.3106774127 -2.69345169263 10.583112982 133 113 102 
-27.9139850086 -5.83698152626 6.04862078052 166 152 143 
-28.8290261051 -3.74072388695 10.0630293573 124 104 97 
-44.4105085577 0.212900897147 21.4783392478 231 223 226 
-31.9646744498 -9.30817936423 1.69186693349 105 103 104 
-28.628808798 -3.6027393339 9.69747092449 122 104 92 
-44.3843286053 -3.46890504678 21.6237419282 126 110 120 
-32.9221690795 -9.71737396639 0.604497416199 91 92 92 
-22.4403011535 -1.46259767125 0.233188788554 173 173 173 
-28.3685191526 -7.20685002353 9.38543075476 168 154 145 
-28.9740962516 -7.96178464091 10.1622918021 137 122 119 
-28.0018992622 -3.01433005697 8.295865066 143 125 113 
-27.8945187641 -7.79677774959 6.45543454481 198 185 179 
-28.393209075 -1.82425421558 9.04877348226 127 105 92 
-27.9204830692 -3.43667060922 7.06425874126 185 167 155 
-28.5323542414 -3.09111486307 4.86137424847 154 137 127 
-31.0825721701 -2.76195751057 2.28668831785 162 163 158 
-33.207393622 -3.41697729526 13.6327851366 232 224 220 
-27.8839269517 -2.14551756357 7.20622276793 142 124 110 
-27.9195989698 -3.56204387027 7.28834574463 182 164 152 
-20.6283303023 1.63449142098 4.93791931468 56 56 56 
-44.413010188 -3.09327795428 21.51432678 135 121 129 
-22.6823079807 2.51767098365 4.61515895044 112 112 124 
-28.3634595881 -5.42969885299 9.37828914238 164 145 134 
-32.0194031165 -4.78446411009 1.30299758054 212 197 190 
-38.4399790685 -4.54987660887 17.0205344131 118 101 98 
-44.1426788236 -4.66158085635 22.1661897445 98 82 94 
-44.9238280324 -4.75712507738 22.5310591583 98 82 94 
-32.9555537765 -9.52218182885 0.524448222378 207 209 208 
-43.5812510308 -3.46717436912 20.916084344 67 61 63 
-33.0147033108 -8.62959529746 0.689972359104 109 110 113 
-32.251719076 -3.25873681486 0.74263107335 74 74 74 
-33.0773609113 -3.65655827105 13.5975116178 238 226 225 
-27.9718967816 0.948676238155 6.64441335886 130 110 99 
-43.4534505304 -9.58752701709 20.6852875166 116 113 122 
-28.1755365773 1.67966677696 8.46443771451 149 127 116 
-30.2195532693 -3.46961716379 3.08596371578 88 77 74 
-35.2040271316 -0.655839154679 14.5211473981 113 112 117 
-32.6902181719 -7.44161855177 13.6122441716 83 74 75 
-27.6832376347 -7.5250867672 6.86497787035 191 176 171 
-28.5421782175 -6.06663833611 10.0416926734 131 117 108 
-27.8967475196 -7.7710425674 8.54412201925 179 165 156 
-28.2742779255 -5.10269258945 8.78460512028 145 130 117 
-27.9427833107 -8.0772882501 5.99551815462 199 188 184 
-27.9002965008 -8.06177659741 8.52690790391 186 171 166 
-29.7392847825 -3.78091220232 10.8652640359 118 98 89 
-28.1476827883 -5.52447533051 8.93813285681 150 131 120 
-28.5088046485 -7.17176045312 9.74404306878 164 150 141 
-29.3477572649 -8.09539328874 10.8483516026 160 145 140 
-29.4161098236 -1.07313285457 10.5944811365 120 100 89 
-28.5789341767 -4.33331807458 9.66857277441 130 112 100 
-28.5343795248 -4.32753644889 9.65695715486 130 112 100 
-19.8522000223 1.88367747308 4.05696426485 67 67 77 
-27.7638508643 -1.69629924934 7.39791798347 143 124 110 
-16.0871238741 2.8766060101 9.49171253071 214 213 211 
-29.1731886119 -3.59852373434 10.4206205719 125 108 101 
-27.6626961282 -3.88835281252 6.62570238607 163 145 133 
-28.0263011033 -1.12302397955 5.83013720853 136 116 108 
-28.7036808403 -5.90313314022 4.15542348727 209 198 194 
-44.8075585722 -3.73955811471 40.755162655 154 136 131 
-28.5818487035 1.57731969226 9.62085825651 110 90 80 
-40.1884385804 -8.77399738386 18.0953544126 125 125 127 
-28.0631511543 -7.4593467252 8.96026521983 174 159 156 
-28.6911664896 -6.34797322143 4.17108228778 210 199 195 
-29.4407709368 0.279287560041 10.5019445594 124 101 87 
-27.8941377838 -4.70914777692 7.88754337934 188 174 161 
-27.857714593 -4.70192099043 7.88034447141 188 174 161 
-41.4720289454 -8.78563045791 19.1667965263 120 120 122 
-42.7464418266 -9.61008471523 20.3020846105 89 87 98 
-38.0764112315 -9.47593552255 16.6807498663 99 99 101 
-28.281549421 -1.87675157012 5.08485132039 145 126 114 
-28.1953197934 1.4285641642 8.36971715316 132 109 97 
-36.9317930713 -6.03891067435 15.9116355552 145 130 125 
-27.9926399159 -1.31288042401 7.24937299933 180 161 147 
-43.92927958 2.72509895787 23.1968687086 161 152 160 
-43.5319982145 0.133229976494 23.2241538657 202 196 202 
-28.0878956352 1.53140569155 6.70619922316 125 105 93 
-28.2583973983 0.977712967132 6.94715897207 131 111 100 
-30.8050391565 -2.8748602945 2.7190589801 76 68 66 
-31.3168466451 -5.95187372888 2.22246197 179 166 158 
-29.4371800037 -6.56638533748 10.9155548439 131 116 109 
-21.6122118657 1.28916106949 5.14823102555 35 25 31 
-24.2223376784 -1.53118659067 1.43283231337 232 232 233 
-31.3888602148 1.85707353876 12.1429874189 107 90 83 
-27.5588953901 -8.15541131503 6.61065332699 208 195 189 
-28.6459809536 1.43534053381 9.02238199811 115 91 83 
-28.1486780507 -0.0950324141762 5.78170112459 147 124 110 
-27.7379931795 1.07613900735 6.26151148334 124 102 88 
-28.5404408836 -0.028028221469 9.38095612686 129 106 92 
-27.9327523943 -2.60235824056 6.56762617018 144 126 114 
-16.0426020173 2.84552343207 8.89973375698 207 206 204 
-27.9497393141 -5.73246834293 5.94973658625 201 188 182 
-43.8498481002 -0.274189367777 23.4637969648 85 81 84 
-44.8991344739 -7.77367038926 22.5702664524 95 83 95 
-44.2760683801 -3.07230341933 23.7160194998 67 60 69 
-43.3446142841 0.052975416157 21.2562182363 92 78 84 
-29.1960702557 2.32196777796 10.1889468843 118 94 82 
-27.9036895928 -4.95580572572 6.32990194927 151 137 128 
-28.0670847226 -1.55609722694 8.32211992534 142 119 105 
-27.7355800028 -8.22148273774 7.47186573306 198 185 179 
-27.8829852967 0.355883471357 6.64918069024 127 104 90 
-28.3934924012 -2.78685724466 4.86068918512 165 148 138 
-28.680831671 -8.37934726829 10.1573512611 174 156 152 
-29.2407413686 -3.69616890164 10.1936908262 140 122 110 
-20.2139697761 1.75627449785 4.64159526979 185 198 202 
-44.2072269836 -0.285188386648 21.0521253393 71 71 71 
-29.818412946 -7.20167612021 11.2356279378 134 119 112 
-28.18706026 2.47108737325 8.05572498986 114 93 82 
-57.6067488864 -3.83941512409 31.5575903294 198 188 198 
-57.8432449546 -8.83756115238 31.8213288111 205 196 208 
-44.2123544878 -0.521099609521 22.2891050233 90 73 81 
-44.1544464052 -0.517626254801 22.2662691048 90 73 81 
-35.5996441693 2.62232798879 14.9748805847 111 97 97 
-32.0887837178 2.50561855591 12.518381925 121 106 99 
-33.2130459111 -2.80090590756 13.5315067545 135 117 113 
-28.0966214675 -2.00192280796 8.45877070477 137 115 100 
-29.8128711479 -3.99539192162 11.3265474497 123 103 94 
-43.003935691 -0.421037966223 20.2702764348 114 111 113 
-29.4608913939 -8.77892935375 10.9325253091 165 150 145 
-30.5021461027 1.60568015791 11.5746438253 104 82 73 
-27.9015478336 -2.21942242948 7.28398759171 177 160 150 
-74.975818197 -13.8730373457 45.8434380575 222 221 229 
-28.3580252876 -0.318792203316 9.01619007321 133 110 96 
-74.2076218109 -18.8435845524 45.1479405284 125 124 129 
-43.7593999194 -9.75611493374 20.910203267 88 84 95 
-75.0197760574 -6.65499341097 45.5975374584 185 189 203 
-44.3219509153 -4.93552210824 21.5854390889 118 103 104 
-73.2544609707 -14.1114353583 44.058887695 206 205 210 
-57.5653106384 -8.93566511551 31.539200958 208 199 209 
-44.1127658744 -10.7975268301 21.2909514254 86 85 93 
-57.2390884331 -2.04572522942 32.0532697929 81 68 78 
-57.5672964249 -4.02674164223 31.3619407143 209 206 207 
-58.0009044555 -3.28383160677 31.7772053533 110 104 111 
-44.1693196767 -4.96610681091 41.9464496546 199 201 198 
-44.1093628554 -3.82549875911 21.270178606 234 229 226 
-32.6137861206 -9.80654499731 43.8058320738 185 185 188 
-28.9209741538 -8.79778304621 3.95266585261 229 219 218 
-27.8458288149 -3.64965926348 7.72879448395 184 166 154 
-44.1844843674 -3.57321898438 23.5662069662 212 199 205 
-43.4732033997 2.88973781467 23.1118517238 169 164 168 
-35.9084940648 -10.0141825272 14.8637524311 172 173 177 
-37.3404913962 -9.43072975581 15.9985941033 76 75 80 
-35.9566795773 -9.13042546683 14.8549067338 139 138 143 
-29.1756960592 2.36967118803 26.8610180805 222 223 230 
-34.2849581204 -2.85121584723 14.10885516 116 115 111 
-34.4150102262 -2.86553693352 14.1433891709 116 115 111 
-36.2336054047 2.7945837931 15.0120148127 78 68 68 
-27.4269304963 2.22661379463 27.9720731975 77 77 87 
-73.2340050327 -19.1607539803 44.2995646248 215 212 221 
-74.2238561744 -6.36778653922 45.1730664538 85 85 97 
-74.8710754737 -18.969768403 45.7167858842 209 208 213 
-35.425880099 -3.62317577966 42.5715383368 72 77 81 
-42.6719977123 -11.5994429116 20.9878002475 74 74 88 
-33.0142717911 -2.4260910282 13.694384063 101 91 94 
-43.8471126945 -8.01075930429 21.5006212933 116 106 116 
-90.7537353621 1.20168005064 55.3523134818 183 182 180 
-73.6979298075 -19.4491361343 44.9000545111 122 119 128 
-28.0657740585 2.35395110049 26.8693826841 222 222 232 
-27.2639957437 1.51551843846 28.6831501907 236 236 240 
-77.6073035196 -8.09871334956 47.9311884191 180 188 207 
-27.5848666996 2.85865690051 29.3705602805 220 220 229 
-55.2393167455 -12.2018322064 30.8598948679 70 69 83 
-44.1379629246 0.0200647861322 23.6941242826 219 219 221 
-44.1256510181 0.0213311506257 23.6811973643 219 219 221 
-89.8500603747 2.94425406636 55.2619989021 83 81 82 
-89.581358426 2.62821258673 54.8028145814 149 147 148 
-73.5761634976 -15.6157485989 44.7420065042 88 85 92 
-82.8316623015 -17.1186465317 51.5336664235 173 171 177 
-56.8738665369 -13.0310800739 31.7679149716 203 200 207 
-71.3414597584 3.06537018957 42.3851394584 88 79 81 
-73.5917188671 0.0111874754417 43.2191592331 221 217 221 
-73.4140533451 -9.54027411867 43.3109097692 207 200 208 
-72.8358605829 -15.9988398261 44.3945507537 85 81 88 
-72.8042633088 -15.9915275003 44.3758614643 85 81 88 
-73.144780724 3.48001679451 44.7104435567 95 94 92 
-57.5800937664 -16.1001505909 33.7082100862 210 208 221 
-40.7562722794 -10.1018855642 18.5388412608 156 155 163 
-44.0493826104 -3.91065035036 21.4241598419 227 217 216 
-45.4407047033 2.28955439221 22.5561425232 83 66 74 
-45.0932968991 -1.06702759547 40.5320688692 144 129 122 
-44.5703672077 -2.72090967834 40.5542651155 140 123 116 
-44.4875132244 -3.88028438795 40.7136434118 112 97 93 
-30.820460201 3.06071238437 28.1487499344 34 33 49 
-35.8181219312 -9.99341277114 14.8408335194 170 170 171 
-38.6148808519 -9.98269936242 16.8154424896 152 151 159 
-37.780999197 -10.064332092 15.9855950515 161 161 165 
-27.5012953741 2.56377366426 28.1357986523 144 144 154 
-38.8602857428 -9.03185285125 17.4156567322 135 134 140 
-36.9365866001 -11.0409124406 15.7659251182 130 130 142 
-27.6646552444 -5.8389498152 7.49086794012 191 177 168 
-36.7097833562 -9.19295344832 15.4904277113 129 128 133 
-27.6509609533 1.78823482352 28.7548293284 217 217 221 
-29.3809271645 2.2969142031 26.920877631 211 211 220 
-29.3376823987 2.29986914056 26.8718033762 211 211 220 
-27.6486245102 2.73058753767 28.5098573886 53 53 63 
-27.9504895384 1.62317689529 29.9002436898 74 72 84 
-27.4295204172 2.24689519712 28.6632967974 65 65 75 
-27.9694817822 1.85463773263 27.0303300924 74 73 79 
-27.707965891 3.02987665559 30.3044289924 31 31 41 
-27.5400760855 2.20310224582 29.6207323518 199 199 207 
-28.0760420387 2.22823104809 30.7049622502 114 114 123 
-27.99373496 2.22612450448 30.6378285079 114 114 123 
-27.6465718339 2.59788997065 29.9427947578 206 206 216 
-27.4852429155 2.93052934527 29.6721204448 205 205 215 
-73.4545978979 -14.4641410272 44.2982871734 140 139 143 
-42.0099151204 -11.3062348966 19.613143231 106 108 120 
-90.017625265 -4.47565851478 55.0886907594 130 129 134 
-73.8731194627 -18.9196853676 44.6693544542 116 113 122 
-89.0167018501 -3.91314331641 54.5530579273 123 121 126 
-91.8479330781 -6.46926733336 56.903222428 64 61 74 
-44.321604826 -6.9585965536 21.6741909028 120 104 111 
-44.5996814058 0.871871081222 21.8193003882 86 70 71 
-27.9347338605 -6.41869127898 8.05280123189 145 132 123 
-73.7874001953 -5.0772347927 43.6175631172 84 74 82 
-73.7227315975 0.00702163388245 43.2846451836 221 218 221 
-73.8121559083 -4.35718509593 43.4213207025 210 205 210 
-72.3893555485 -10.8297371787 42.5055307814 83 81 92 
-43.7819888371 -3.42821476745 23.5852624199 225 223 224 
-58.2245456233 -1.90157579952 33.686235796 132 123 134 
-57.8498656439 0.029102926462 31.4872640022 215 213 218 
-58.2115834684 0.0420279618568 31.6411966362 215 213 218 
-53.8293587182 -9.44971343868 28.4871904704 134 131 136 
-44.2305826329 -11.4087512928 41.168328347 100 87 95 
-44.4589123705 -1.02853953174 41.5388845968 229 219 223 
-44.6680642332 -5.64224344797 41.7222671409 229 215 215 
-44.5149219152 -12.9611564788 42.2522831811 162 162 172 
-44.9815568838 -13.3724963126 43.038694183 78 80 93 
-44.607567222 -9.15285129319 40.7142019397 151 135 136 
-44.7587977597 -1.87376026044 41.4037753597 163 149 148 
-44.5331913721 -9.58520745963 41.6685479617 83 72 78 
-45.0583998908 -1.3403139174 41.93912848 72 62 67 
-45.2281600045 -6.19211535753 40.7028668318 120 108 98 
-33.4479302925 2.82256928074 13.3260531379 78 68 66 
-38.3871999019 -1.20523373348 42.1254969786 73 72 77 
-28.6844546278 -0.183990330382 9.80884184589 115 95 84 
-27.6503263146 2.22622769217 30.1060224431 43 43 52 
-28.1821656878 0.949668092748 31.253092358 76 77 82 
-27.6287136259 2.40808437884 29.9213724406 185 185 195 
-91.9385098263 -14.507581394 57.6514973792 74 69 78 
-30.2367623667 2.2747473788 36.7290132081 214 214 222 
-73.4333654764 -3.10079586128 43.1369331454 88 86 89 
-90.4335830021 -3.53459105459 55.2716931047 156 154 157 
-89.9148365324 2.18130115994 54.9107259709 186 184 185 
-41.255238616 -9.61347177734 18.9466612681 99 98 106 
-73.2030570398 -8.7854224838 43.5483311956 100 95 101 
-71.4896967426 -10.9390856336 41.5774176049 73 71 83 
-73.5233248878 -3.5220209916 42.862496633 113 110 112 
-73.3900528414 -9.53160419422 43.2982088965 218 213 219 
-72.1544874842 -11.2438923636 42.1708585551 126 124 135 
-72.3439815841 -11.2655096751 42.2735509044 126 124 135 
-58.647278568 -8.24734765218 32.8820797067 90 77 94 
-57.4318817613 -14.5890671906 32.4479733863 106 99 117 
-45.1780228638 -3.76416178891 40.655258467 142 127 120 
-43.6340925754 -2.36761494701 41.8074293125 104 103 108 
-43.6014944691 -5.98123061574 41.6848101917 135 112 110 
-39.810408638 -9.93497269863 17.7550988087 141 140 148 
-44.5978257758 -12.6147273803 42.1604142258 86 83 92 
-44.5740065092 -10.3338408283 42.2259255601 138 139 148 
-55.709588381 -11.530841093 29.8101152656 70 69 85 
-43.0803182489 -9.9511187041 41.958976441 92 90 101 
-41.4178370522 -8.41460952343 42.1767224184 116 95 90 
-44.3714517161 -13.0005185332 42.4096992475 85 87 100 
-44.6679807535 -1.79016273915 40.591567623 153 136 128 
-40.9662469737 -11.061964804 42.4969998939 113 115 127 
-47.2821347357 -4.34782549379 43.7701011744 103 97 98 
-39.8157991279 -10.6529060896 17.7870480069 106 105 113 
-41.3239974888 -6.12930981422 42.0390823554 136 116 109 
-44.4698315635 -12.5132063956 41.3316936008 103 92 100 
-41.9696656848 -8.54478971873 41.8673138279 133 112 109 
-27.3403251433 2.45672571567 29.3165397561 175 175 185 
-38.6378249796 -9.03140294933 42.460223097 168 152 139 
-39.6826940956 -9.34917937522 42.2866631846 104 89 89 
-40.6706227398 -5.80874014456 42.0396473286 145 128 119 
-27.627766855 2.82670592503 28.7006227766 100 100 112 
-44.9813393166 -12.4333234877 40.8666089067 140 128 132 
-41.4520075519 -9.80446350405 42.0591689145 95 94 99 
-44.2930678239 -13.8074199342 40.7187679954 167 162 163 
-27.8093566936 2.22317032235 28.8690160733 75 75 85 
-35.6341677475 -2.01487754269 42.8850499274 88 92 95 
-29.9421499029 3.22707588178 36.8215270482 44 45 50 
-37.1127005351 -1.30194101026 42.5713893998 106 107 111 
-30.0121797491 2.9773687458 36.273224848 228 229 235 
-35.4020809756 -4.0227888802 43.1193934004 182 184 182 
-35.3038266367 -1.6205399732 42.6305093592 147 150 154 
-35.8168660075 -8.88223841605 42.7049945607 171 156 153 
-38.9168938747 -9.74421222959 42.7550196838 98 88 99 
-30.1702459654 2.80583633485 36.6994942638 68 68 76 
-35.5328915199 -9.56917772447 42.9892970335 111 110 112 
-30.0798959367 2.5964642372 36.4562354751 176 177 183 
-30.1424290777 2.59748963891 36.505790057 176 177 183 
-27.77470241 1.83696160562 27.3714046045 207 207 215 
-34.6913438171 -5.80767120838 42.8849894418 144 125 114 
-73.1036653675 -3.90588850616 43.5126131299 96 94 99 
-44.4047587649 2.18758438168 21.4651735934 118 103 102 
-88.4838957832 -4.93519085436 54.2620510001 104 102 107 
-89.9477755717 1.68571320625 54.9384316 164 162 163 
-73.771456945 -10.7462781336 43.4374805739 92 90 101 
-73.4160929946 -20.2171440724 44.3808261697 141 139 149 
-72.8368670239 -13.324857523 43.3756766965 77 76 84 
-74.450247996 -0.512408803661 44.0078383127 91 89 92 
-74.8195743722 -0.526592045969 44.1992157378 91 89 92 
-66.1737044444 -15.6671767065 38.952231323 177 171 174 
-72.1710166407 -11.5138670518 41.9518273606 100 98 109 
-39.301344797 -5.83201683097 42.3367947689 127 108 108 
-50.8688331887 -14.3848402196 27.322513601 124 118 122 
-41.9770309341 -6.91197502366 42.4305017135 133 113 106 
-32.3956369572 -5.52992515962 14.1206191537 130 113 106 
-38.7011785364 -8.60627604846 42.2138299369 167 149 137 
-39.2097236068 -10.4517667983 42.5325303372 87 90 104 
-39.1915354102 -10.4438098907 42.5185712253 87 90 104 
-44.5494012693 -13.7938329357 41.6521548989 79 81 94 
-45.7475881204 -5.03512941574 44.3172432543 126 125 130 
-38.8149859833 -1.32270903399 42.5757076213 78 77 82 
-43.9461613365 -14.1775625589 40.8242752835 223 217 217 
-38.3645196684 -10.0622584754 42.9922066768 177 178 182 
-37.367934384 -8.93917022699 42.4414392221 166 155 149 
-37.9794482347 -8.99079945234 42.5432453386 175 163 155 
-27.638897973 2.7525306162 28.5970007658 60 60 73 
-31.0205852441 2.13061324017 34.9504549712 88 87 94 
-31.6692413094 -1.22777853868 41.8284894813 176 175 173 
-32.2060258666 -0.745283484145 41.4512503268 237 231 228 
-32.2797847271 -1.7741805696 41.8084416683 234 234 232 
-31.631183877 -2.08850866992 41.8729919924 168 167 165 
-32.9796610998 -1.20734780468 41.8040912876 120 118 121 
-30.6017590508 2.80440150489 40.3681093259 241 233 228 
-32.4389685345 -2.88718708209 41.9651235423 227 227 228 
-30.3073101348 3.2896878616 37.6419202598 75 69 73 
-33.0260197471 0.346503667508 42.9719963236 109 95 92 
-31.3528766804 -0.857416595302 41.7617386688 173 168 167 
-30.9622218176 2.56109331631 38.0490368289 152 150 159 
-32.2071390748 1.12561041024 42.893316056 104 86 87 
-32.417960005 0.895523103621 43.025364584 115 101 101 
-31.3974608584 -2.73197717085 41.8811531367 162 161 159 
-30.8779373027 2.99469695297 40.2878185497 178 177 169 
-33.2502495665 0.853007509462 43.3829409009 124 108 103 
-90.3293296721 2.41913143854 55.4990703989 73 71 72 
-73.3211423494 -11.6382938638 43.0754143803 87 85 96 
-43.966119467 -1.54715059725 21.3461309338 120 109 111 
-44.7816909931 -5.3509839536 40.8229415178 133 115 111 
-71.1179696166 -11.2199842756 41.2231962846 147 145 151 
-44.486043996 -9.38437414586 40.8844997864 106 90 91 
-58.3839502093 -6.66580013858 32.2618580766 88 76 87 
-55.6187153266 -11.280444903 30.4833947821 86 85 99 
-92.4679620019 -15.1858439013 58.2201484272 221 214 218 
-44.7903588661 -5.32781086556 41.9333536983 71 68 67 
-40.0714901454 -9.16334096883 42.6544651121 176 157 153 
-36.4346195163 0.328575588864 42.0608841418 162 148 140 
-45.8064516477 -3.47262845495 44.5206191825 123 123 131 
-34.2888633121 -8.4266952142 42.4651813469 171 151 138 
-35.848055992 -2.00980108626 43.0611224664 104 103 108 
-38.3932928169 -12.6801262809 43.0750688083 185 192 199 
-38.514146023 -12.7253888488 43.1787668962 185 192 199 
-36.2838132015 -1.1724034117 42.4756135562 95 90 95 
-33.1784680871 -5.75578396107 43.0727244553 151 134 122 
-32.1544363467 -0.395188137198 41.5384827486 108 100 94 
-31.0478883573 -1.67548852119 42.0547763263 232 231 229 
-28.9154042913 -5.68121937076 43.2436805839 185 169 156 
-28.5315272155 -8.76663513663 43.0924040785 170 153 145 
-29.5457173701 2.98316761352 40.5316784716 242 239 232 
-29.5955364198 2.99450662014 40.5908303865 242 239 232 
-30.269368707 1.01235153942 43.7145362078 123 109 101 
-28.8482664393 0.636679683008 43.2944125136 164 152 140 
-30.8413074231 -1.19785741859 43.385741462 111 112 107 
-29.9271047893 -0.727240630421 42.9520293717 221 216 215 
-29.9271047893 -0.727240630421 42.9520293717 221 216 215 
-30.1178423298 -5.14776864203 43.0474168962 243 238 236 
-32.4744626388 -2.89416998493 41.98907182 228 228 227 
-29.1894310139 -6.74200320147 43.0125633325 172 153 147 
-29.9577707245 -4.85720071585 43.2391536331 86 77 78 
-29.3845937453 -3.88125613038 43.0791932801 167 154 134 
-27.3635101943 2.67403043153 29.5415199973 68 68 78 
-30.6129952193 -0.814011790029 42.8484905404 93 85 86 
-30.6417945103 -2.25954656044 42.2348382804 235 234 232 
-28.1375528631 -1.48111787669 43.6021423923 197 188 178 
-28.0584100087 -4.1899080716 43.6111619573 209 199 197 
-31.0904843093 -7.39288002202 43.5460100241 80 63 61 
-28.4870941915 -6.25134349859 42.9391548556 154 133 122 
-29.8592784026 -1.40253983925 43.1318023234 61 54 53 
-29.8624293007 -1.39901305834 43.1357070481 61 54 53 
-28.2108951291 -7.151105853 43.8083369601 116 103 93 
-31.2800386037 -9.6846377689 43.877478964 204 203 207 
-28.3731773458 -0.656390565888 43.0353225153 170 151 138 
-28.4728556976 -3.95890733375 43.0344714145 137 124 105 
-29.0785284452 2.14662945438 42.7434177534 178 160 148 
-29.4937359113 -0.671190338675 42.9926427138 114 100 91 
-31.0230944808 -0.652638332177 43.5185804235 200 193 193 
-29.0674554602 1.49261719784 42.7190099655 179 162 149 
-28.4395022165 -0.644883747968 43.7882775779 124 111 104 
-28.1504494318 -5.37094717088 43.7217365893 129 119 114 
-28.2479580673 2.44528592751 42.8221977933 178 165 155 
-73.3863360434 -13.5954330064 44.0238183873 78 78 89 
-71.1879829663 -12.7214870708 41.5262778997 133 135 145 
-88.0436164256 -12.3466721899 53.6746241903 107 105 116 
-73.025264387 -2.07656440525 42.4458988698 113 113 115 
-57.520219755 -2.82687710951 33.3741569682 120 104 108 
-56.5504682296 -17.7123385388 31.8799661338 211 207 224 
-38.2710794839 -10.6220620999 17.2394510656 80 80 89 
-42.7987763623 -13.1947403973 21.9643717117 114 101 119 
-91.3523940184 -10.7953418842 57.227463367 99 92 104 
-36.8604335703 -6.54278734041 42.5518798774 182 162 151 
-32.5816862529 -3.1787178184 43.1408238924 81 82 86 
-28.7861544946 -1.45743714993 42.9776966752 182 159 145 
-28.3565756676 -1.40290776438 42.5217304583 182 159 145 
-27.1181593185 2.44347321872 29.2125332173 189 189 199 
-109.581531955 -4.36095671457 70.7578391228 90 95 94 
-89.5303406335 -0.649694787987 54.6915397618 176 174 177 
-71.3737930244 -12.3373112684 41.3421523505 99 101 114 
-42.3277724375 -10.6821989858 42.1043613506 93 94 112 
-32.4825137982 -12.3680385577 43.7309879254 197 200 209 
-72.0526773797 -12.6224005883 41.8906584872 82 84 97 
-72.9889001747 -23.4994201809 44.3230777936 209 209 216 
-56.5553733827 -16.6769669493 32.1772165141 114 105 126 
-37.7885235903 -3.53445831836 42.9199145254 114 119 123 
-37.8273556229 -8.77819643166 42.6474716465 143 123 114 
-47.3269499759 -8.27232667705 42.4753777227 134 122 122 
-30.7263085705 -0.12626393383 43.3033716329 116 102 102 
-32.2687636236 -8.24945036917 43.3834920481 172 150 139 
-36.1091724793 -10.4286834522 42.8197646532 89 91 103 
-83.2516470544 -10.4691729762 50.2497968299 107 111 117 
-46.0605168424 -2.62645985283 40.6115864259 120 107 107 
-42.3734056366 -10.6752819981 42.1280587954 93 94 112 
-74.7968162451 2.64211001192 45.2142793516 188 187 185 
-34.4692207822 -6.5020334011 43.1020583061 149 130 120 
-43.770452902 -7.42779711398 23.504171928 72 67 73 
-65.5405500626 -15.1630346168 38.6037696135 112 109 118 
-38.8366277241 -4.61188814016 43.0490795822 165 166 171 
-35.4101032059 -4.69805178225 43.1541981496 200 201 205 
-28.1789549144 -6.38925338433 43.4027325052 135 116 110 
