141.84011799455163 -22.124618003871706 -366.6138353779234 207 208 205 
140.3686361523436 -23.395917817599432 -365.7543953010229 192 171 152 
140.09377207849056 -22.55136801917263 -365.7585441850813 194 172 150 
140.20403135160146 -25.512046837718184 -365.52257683724457 191 170 151 
140.0740531820588 -20.844461016729944 -365.85421837589473 89 71 68 
141.50319500944332 -24.504971903149322 -366.27359915087766 144 139 139 
141.129717477566 -24.814960566931795 -366.01755405213726 242 241 238 
141.8465594449092 -20.391466964696725 -366.0890666363567 126 111 100 
143.00151106296303 -19.803256756863835 -365.441609332834 240 231 224 
131.81012796333738 -23.03359445394851 -365.243331564087 55 55 57 
132.59340817262225 -19.394963710974658 -358.37777094768694 37 28 26 
144.00211923068005 -24.18373464799114 -366.7277882744227 200 202 201 
130.70214350214098 -19.56658323837067 -357.0483428825227 42 38 55 
130.70217984276442 -19.566553381195863 -357.043662212085 42 38 55 
138.7351005588471 -30.676896442901924 -365.05925504547145 78 68 79 
143.9945942765889 -23.008793362166905 -366.67994884256007 197 199 198 
132.49670465214854 -19.748057141142482 -358.26310951384073 171 143 123 
140.54028762985226 -21.686858147766007 -365.671292266888 213 193 181 
126.98955078642489 -23.4305029896841 -364.9236453934414 217 215 216 
127.21187274875292 -23.43682952324124 -364.9649737439805 237 236 236 
127.22992407297262 -21.075338273617614 -364.6555533134503 139 137 142 
127.72844819329887 -22.2292841369991 -364.85524500609023 102 101 106 
139.33575665607594 -27.784006110397097 -365.06159467094125 152 134 127 
135.94574494449836 -29.81651930662735 -365.3712168734973 213 213 223 
136.0688855654275 -27.892558171589013 -365.25124403022176 203 203 205 
131.03287770406985 -19.284225298541706 -357.43786379774144 164 133 118 
132.63101057093968 -27.231019588736615 -365.2078609044943 196 175 170 
132.67356719469606 -27.664339656666325 -365.14780708253727 140 137 143 
132.23046826498464 -28.171561392399315 -366.47413111353217 231 232 235 
140.3182538470383 -27.633657481300787 -365.3129450655995 136 113 110 
116.66973202947104 -24.583572645634142 -350.1819784236669 150 136 128 
133.08922330677467 -30.015342358002858 -365.1386096691882 218 218 226 
99.23641488722448 -18.181418175295274 -329.08200034303377 236 227 220 
135.55736971954127 -27.96860082836891 -365.45929009483416 209 209 217 
127.06859720981463 -21.33888469546137 -364.80846566541504 216 208 212 
132.59802586068903 -27.818900063057857 -365.72455018348757 180 175 179 
116.6920424249954 -24.82523011727832 -350.22669522161675 156 144 132 
126.82881841615267 -28.89776135667601 -365.0610484551602 232 231 235 
126.79059981413766 -22.18544035760176 -364.74957059942886 175 158 150 
134.57538541644985 -29.26029079253094 -365.50085373420956 223 226 235 
130.996738026579 -29.34745080062126 -365.26734168825936 125 128 137 
139.31585802413142 -27.134816358335684 -364.50924215972736 202 182 170 
136.37753469785173 -28.24297974859994 -365.2708757877245 195 195 203 
135.49509816797854 -29.328803868105023 -365.48938874415705 208 208 216 
132.92135470696257 -27.794469372634115 -365.7091283981009 148 145 150 
135.5666651577345 -29.43481639192508 -365.3115522115439 52 55 64 
133.84386941673182 -29.164790018918065 -365.28647401815385 205 208 215 
131.70574216517713 -28.525132626701104 -365.77210126193216 139 140 144 
136.56195417206635 -29.028775490117084 -365.67080357074633 211 212 217 
144.66233236338903 -23.612092114324497 -366.8232809639296 79 79 79 
143.31304418071545 -23.54280995857084 -366.626172284891 88 90 87 
143.4911591450539 -22.302354678680253 -366.6711590292532 113 113 113 
132.77666521229543 -29.643679667710895 -365.2223471627652 214 217 226 
140.1848627937766 -29.998747285838384 -365.32388853835846 231 230 235 
135.87794606219728 -29.78455662911221 -365.29097677307146 210 213 222 
133.11543613948376 -29.22244968093082 -365.52339242591336 205 205 215 
138.08445128597324 -28.741718965289497 -365.4759551179142 230 230 238 
129.6205592404831 -29.193567761282754 -365.2915303660484 148 151 160 
139.52856743228276 -23.39517886218483 -365.73182336887163 99 99 102 
132.71497482761836 -29.401205267099947 -365.36448011486056 140 143 152 
139.15893365088232 -27.74903207023777 -365.56397047960314 190 177 175 
126.8610502698191 -30.28689441956055 -365.0861877667394 70 64 68 
141.60797876920512 -19.279197155130326 -364.8540893734055 230 226 223 
139.34554092259634 -25.969810111432313 -365.2567359766043 141 121 114 
141.04032639793652 -29.746861024764847 -365.58920654561297 225 226 230 
137.1892984237862 -29.47412382374806 -365.5687447031727 126 130 131 
132.56177690802733 -27.949080652344925 -365.95718782200584 176 177 182 
140.93130100257468 -28.85646024114876 -365.9097925472557 219 220 224 
142.48232905967353 -30.21403165581046 -365.690131480958 237 236 241 
135.86746280548746 -27.518510754694244 -365.3058979148654 207 197 198 
128.20804654765374 -21.387605892358007 -365.3259044194831 237 235 237 
127.91073708264013 -29.17944113642973 -365.08907638955634 128 131 137 
109.2644683042704 -18.59058098091479 -328.18298973856383 191 184 176 
109.37000524217913 -18.562734886080868 -328.21258528013465 123 102 97 
109.33313096622395 -18.706349026472584 -328.2098567304454 55 48 50 
108.24957895213917 -18.48388707841445 -328.69932054729725 151 114 100 
109.18595697091958 -18.545993531879965 -328.21663351320166 160 127 107 
137.15066282510236 -29.4558670739147 -365.5037627008326 126 130 131 
138.73649817924147 -30.00306668836898 -365.5686957783047 210 210 220 
101.51878557833868 -19.869096165873867 -326.88748835434075 70 70 78 
109.17368045816224 -18.226355290203454 -327.94812232581444 227 227 220 
109.07019745759976 -18.27516863917524 -328.2243255311267 159 137 126 
108.8858608869606 -18.28444474416652 -328.3391689730251 202 176 165 
128.29785766720534 -29.484078924389763 -365.33928114646164 227 230 239 
143.46258898433214 -29.953648925403773 -365.6712649710772 139 140 145 
116.68654264882463 -21.114060950254146 -349.94765979549186 82 70 57 
136.22274472825248 -30.06584429640043 -365.0746297974025 217 217 229 
142.62687228112148 -19.627786673803 -365.2677325594307 138 131 125 
109.3153307925709 -18.411503418735293 -328.16792432461017 124 100 100 
109.02334403169043 -18.55845276073691 -328.19121761437884 214 215 210 
133.84274493239542 -19.25281284524194 -358.01042468292565 72 52 51 
140.29315345678629 -29.681999818368546 -365.3964304256376 222 219 222 
139.03013833824843 -29.32445797426007 -365.41203508775516 95 92 103 
138.47707655628335 -30.275021257547426 -365.6846100915633 209 210 220 
139.4083889805339 -31.10911720442984 -365.08116229787566 254 249 246 
135.2825826486568 -30.173705485161076 -365.64217769578744 218 218 226 
129.29351041995076 -29.997504339187923 -366.1739847277915 214 215 225 
130.08245155323576 -29.903424772889057 -365.18689870384765 208 209 218 
109.49207625357087 -18.247468521808564 -328.20951167571434 95 84 82 
103.72477492197417 -20.564441524846824 -328.73317245196955 129 109 103 
106.02301055665029 -18.357260757911636 -325.4872560304073 252 246 254 
106.02352385475008 -18.359327273937744 -325.4792961572903 252 246 254 
145.1529994305289 -34.61557488040092 -365.20212165129203 227 227 227 
141.4469217035226 -19.428506733375823 -365.3976245485189 76 62 60 
141.66286679294964 -19.518895745275284 -364.75014782760024 234 233 231 
132.51763371053744 -29.68626652280304 -365.42230729478655 215 218 227 
140.43099703229794 -30.351072129168642 -365.2983658414463 237 237 240 
132.13832337039648 -30.00174755304157 -365.6066343182096 208 209 219 
145.42480857809417 -19.911294136026957 -365.8053619480394 173 172 168 
143.3832966173143 -24.68213092224495 -366.70048963568087 79 77 81 
103.64479347397523 -22.115920711500284 -328.7949956336393 153 134 129 
103.69006462429519 -22.937964100348086 -328.7891678766221 161 140 135 
103.34360297314086 -22.56666787716264 -328.63498077409287 204 185 171 
102.97545297155827 -22.0926375391622 -328.38412360896723 129 106 102 
103.32085840541987 -20.183111086706173 -328.46031231440753 142 119 103 
103.05163121686884 -20.511022164746404 -328.34822634806363 104 80 78 
103.47058286677152 -20.193230612406353 -328.58091466302204 149 123 98 
108.69944548105606 -18.375560266135107 -328.34595792476216 131 107 99 
132.86461184287805 -34.09129212275968 -364.8578369566965 224 226 231 
103.04225778043731 -20.894588584707083 -328.3702500391397 101 90 81 
102.53776402235572 -20.20477564298377 -328.1821046867055 194 180 166 
102.77626624691476 -21.64248855029164 -328.29950503625867 209 191 184 
102.77523105233816 -21.642609501047918 -328.3086726081064 209 191 184 
103.43811462459388 -20.43662867473946 -328.53892130921383 122 104 109 
102.37608942313629 -20.791202075465804 -328.1253451780492 205 196 181 
102.75788118310491 -21.233198835485698 -328.22623944390375 147 130 123 
102.58273496458229 -22.332592280913666 -328.2655940222761 210 190 159 
102.68177464255176 -21.280282537522776 -328.259211079998 194 168 163 
102.5993800801174 -22.208421768953045 -328.2723211871573 192 167 154 
102.36737042736708 -20.575829231888413 -328.1036093343255 212 201 187 
102.57357516185071 -22.689593713722278 -328.2852497865911 189 167 153 
102.87805525181496 -22.555200540356957 -328.3262903968578 211 191 184 
104.31079282802554 -18.936778461585448 -323.81740513023954 247 246 251 
132.61607188989944 -30.53480273080211 -365.3260130303042 80 74 78 
146.57712895986978 -23.112403542900257 -367.21859048383885 190 189 187 
108.9055299688513 -18.20500044830277 -328.01602071234356 230 218 218 
137.01127244312917 -18.69351104722797 -358.84575897010325 150 148 149 
103.45305644331401 -21.980520777332117 -328.6806138634151 150 133 118 
102.45102737043392 -21.42766400880486 -328.18870298215313 212 185 166 
103.84764081255867 -21.51038563080286 -328.9019920100512 138 115 109 
101.77086967297672 -21.70172554032965 -328.08782056473484 157 140 120 
101.8820002957316 -22.76271009976451 -328.11416245936937 160 141 130 
101.78920802437023 -20.974704339347426 -328.04673249946336 129 108 103 
101.8747005222436 -22.316423839577084 -328.09268651423156 211 181 151 
101.87547420966129 -22.3164119207654 -328.08936145382376 211 181 151 
102.11345480957111 -22.800381592652503 -328.13423879821795 186 171 162 
101.75448370139806 -20.63771391819677 -328.0696801984101 192 163 151 
101.68281580192759 -21.95382443522579 -328.05725571905964 196 164 142 
135.94964077696756 -30.842690148552105 -365.0059244159877 212 199 199 
103.80142941835307 -22.69755482094672 -328.96706251572493 170 150 143 
102.48813782037324 -20.758396567298487 -328.14823271020833 153 138 132 
109.99421060396998 -18.239282045772416 -328.4105386661087 161 157 158 
102.66580037333274 -21.35883127682348 -328.23992788215446 141 120 113 
102.72839233924606 -22.566492433319183 -328.3216718741166 205 185 171 
101.37823832904475 -22.910914216680137 -328.127439764427 200 174 160 
101.58714199722137 -19.652550816344576 -326.7832861255812 234 237 247 
101.15651498984833 -22.54583161962131 -328.1451814892764 174 155 144 
101.06381873979717 -21.709532253522024 -328.12775336988483 148 127 112 
101.0554854910163 -21.881287353719937 -328.12384329551395 201 180 161 
101.19284033250145 -20.958406972406422 -328.0941630037621 144 120 115 
101.19150114755601 -20.959469682511724 -328.1005797086336 144 120 115 
101.85512991648127 -21.27270338521276 -328.08539113337355 168 147 136 
101.44000288711528 -20.977165905155648 -328.0858679235487 135 115 101 
101.18098212659993 -21.21982016930551 -328.0931424341226 206 180 154 
103.07597699324495 -20.287392749381887 -328.34624865186413 108 89 75 
101.19541769038452 -20.38443696665009 -328.0848424445912 200 178 156 
101.41969810555898 -20.63886920464188 -328.06343344325194 189 166 147 
101.51062153116499 -21.347957378714 -328.05286585622105 197 176 149 
101.05119724620637 -20.147885107014137 -328.10161511859343 185 155 140 
100.95401178729635 -20.43444611327941 -328.1195210711485 118 92 80 
142.26662188681087 -29.843285748256875 -365.80005901046223 94 97 104 
138.85965456869562 -30.659191241197785 -365.78495327859434 208 204 218 
127.7624573846697 -33.88915486169137 -364.87046279936345 217 220 227 
101.70927673767999 -19.62573603999278 -326.7704935744405 236 236 230 
103.2343310852564 -22.32711100446891 -328.5109215300338 156 142 133 
101.40008586398487 -22.309556381965972 -328.09727482612544 203 183 171 
101.45480696049835 -22.761534381654013 -328.0957348647818 156 139 129 
100.55405179856555 -19.94807192663229 -328.3077314724244 189 162 141 
100.97564655931731 -20.328332123892988 -328.1522952381131 175 152 139 
100.32142494072913 -21.894879564130804 -328.41671446953245 153 130 122 
100.41665085829149 -20.681383920420632 -328.38312336514076 155 133 111 
100.41802175392203 -20.680966754263164 -328.3943065876325 155 133 111 
100.36118094171546 -20.920091581251555 -328.4113119582705 143 121 110 
100.39693323833437 -20.203652702893 -328.38192902876307 135 118 103 
100.48877178462882 -21.422349631818758 -328.3225055483693 144 123 115 
102.87458574300491 -23.51729325490851 -328.35591204408786 185 170 163 
100.08076279527991 -21.77795830990463 -328.5693890009684 204 184 173 
103.28624671756532 -20.797142330781355 -328.47242007346955 144 122 109 
102.3647086722743 -22.20069885819662 -328.13823096232596 186 161 136 
102.00574841874902 -21.331332811473818 -328.16791553724187 202 179 164 
101.44390548444503 -23.09981969119163 -328.1290839638335 165 150 140 
101.14518244987588 -22.146987813404234 -328.1130788699376 158 142 130 
101.14770552952197 -22.148909235030686 -328.1130284115673 158 142 130 
102.58516083995683 -18.64850041923197 -328.11106873514524 116 96 89 
99.96978989421133 -20.914093597585378 -328.64009799415817 198 177 159 
100.08788531592344 -21.61459379145433 -328.5816548361777 199 176 168 
99.36112028934053 -22.883200163364936 -328.9753058129054 151 132 120 
100.031734525562 -21.277594409361157 -328.5732457180598 138 116 105 
99.32513926996417 -23.010543234484167 -329.0356583984896 204 187 174 
99.98473441781049 -21.19914024663709 -328.6282079733217 193 170 157 
99.53088671682767 -20.79650812052896 -328.88093038574306 183 165 147 
137.56333925219033 -27.609065735213864 -365.51728439222927 211 202 204 
138.8981178338062 -30.68402856896509 -365.829863124138 208 204 218 
130.8361948653878 -34.15278124144265 -365.18115454357945 226 229 236 
102.59700470138844 -18.976746608593174 -328.1374755594343 110 92 81 
101.62542439029845 -21.82167828363951 -328.0702629678573 200 173 153 
102.9330160333078 -21.153555823758953 -328.3097041993889 193 170 157 
102.90703320063241 -23.652817053235356 -328.40843768879546 205 190 183 
99.66583972122342 -21.845110954380768 -328.82694039953407 205 185 170 
99.16859554929673 -20.85396211305314 -329.1976279846849 145 127 115 
101.94341434865783 -23.627892166986353 -328.10026866647064 196 180 167 
98.48610632901287 -22.36538075177428 -329.5061237342426 184 168 149 
100.8772862084183 -20.944576769244684 -328.1718579291661 139 125 124 
100.10112559542007 -21.40342308120577 -328.5347152092352 142 123 114 
98.35109410560406 -23.18541106129278 -329.6293109164634 204 188 175 
98.53231815339262 -22.111751386583517 -329.4981969446453 155 133 115 
99.23997426259503 -18.823799283529127 -329.0594568875332 130 109 83 
131.84724365529485 -18.4009155184025 -356.08773825383815 90 87 95 
131.99481049169574 -28.64393879207677 -365.15581807899383 145 143 145 
136.98548264027954 -29.950453741866394 -366.12124113505854 216 218 231 
132.49365673012161 -29.391867226538913 -366.10883478710775 164 164 174 
129.46790021289752 -33.43525523350968 -364.75519142976225 202 190 193 
101.24469629678848 -22.192727829972686 -328.1143199709669 200 178 170 
102.60648764549305 -18.560421407917847 -328.1397203973529 167 148 137 
138.31169715778077 -36.191135694643194 -365.0117835137628 210 210 218 
100.15874461802875 -22.45652248711475 -328.51111341291164 164 144 129 
99.49329229180378 -19.923835228395117 -328.91389151485646 144 117 107 
100.6065532896391 -20.03853004144544 -328.25687005274676 204 181 164 
98.64742273293504 -19.400533072368734 -329.40772223828907 174 154 131 
99.32565816991789 -23.338095227620716 -329.00095843441625 159 143 130 
99.21821315268798 -21.109995532895418 -329.09762580682667 135 117 105 
98.78269654709496 -19.302623852429225 -329.3339218906855 133 111 94 
99.00734327033756 -22.75612861330416 -329.2515353349496 201 185 172 
98.61384618759936 -22.157922439208935 -329.49012436135746 184 163 144 
98.25441451737662 -23.404093398973913 -329.66583436490777 206 190 177 
98.55779000478223 -22.714895438382165 -329.51271537068976 144 128 115 
98.58183383503734 -19.66350377358896 -329.46657471454097 186 164 140 
98.31182737472503 -23.06461584636282 -329.6880701230524 188 172 159 
101.81999410455637 -23.454691831691772 -328.1161558138499 175 158 150 
99.32352093504866 -23.2564864893107 -329.12258740491006 173 158 153 
104.30658058628407 -18.300730873885634 -322.3840673676178 82 81 86 
97.99850662181834 -18.759079490047903 -329.7830029486877 244 245 237 
98.38551861119807 -18.567265120127708 -329.57168399564904 246 239 231 
98.84148694834607 -20.25096658811529 -329.3090091582106 146 124 107 
98.1704053170399 -18.946943770437176 -329.7263552146769 155 134 118 
98.502853947407 -18.294903335333885 -329.3959567002198 67 64 57 
98.07595299600058 -22.804968407377583 -329.85319617288326 149 130 116 
100.3895921384763 -18.87265505372851 -325.4421560713294 52 54 57 
102.76603059651026 -23.067549712991955 -328.3630451098592 191 167 159 
99.65019509413462 -22.096803559338678 -329.0017051714414 206 184 170 
100.25645472530003 -19.974718501074502 -325.13568283388645 187 173 159 
98.79714694566115 -19.42413681388047 -329.37890699645584 177 151 137 
97.49160255035281 -23.587660276225286 -330.1288990428346 190 172 160 
97.49072272834371 -23.586132046866048 -330.1308387710461 190 172 160 
98.22466953360602 -20.45448833531573 -329.72592790549334 182 160 139 
102.67223227712951 -23.952626527098072 -328.27072991035106 199 185 176 
97.89846487301142 -22.68620122036528 -329.9110577046871 159 140 127 
97.42661635131303 -21.125372665628095 -330.1861000145946 186 163 149 
98.05595948502304 -21.04122606310953 -329.8226539319467 133 111 98 
97.46806915353108 -20.998875099865494 -330.062797540339 126 103 89 
97.51636933430018 -22.87869196045103 -330.13888843884627 191 172 157 
97.94267479108993 -23.39236768399064 -329.87563875194326 201 182 168 
97.49524573971078 -21.22806138914952 -330.09370558745053 154 131 117 
98.9939881875514 -20.366044835918753 -329.2486411526375 147 124 106 
97.25623207424928 -22.65483916205304 -330.27768394590566 195 170 150 
97.73416532243748 -21.015978022622384 -329.9610442071019 136 116 107 
98.65098503954262 -21.860093488712565 -329.4321452433776 156 133 119 
102.97008455980739 -22.501782014352596 -328.43530335366216 161 141 132 
104.22335355267091 -18.375149767884658 -322.6950893300333 227 226 231 
98.22365550293641 -18.44485710091001 -329.64747071838076 230 229 222 
131.85285351062558 -34.341171586182675 -365.2567438921065 203 202 206 
134.27869249520126 -27.440865071359728 -365.26347367529104 196 179 186 
135.65460372125656 -29.397462202121034 -365.38552566632245 88 90 102 
135.88309133515088 -34.15108674778072 -365.3022965994736 152 152 158 
102.5594060920208 -20.089891326209024 -328.12228601525027 200 171 152 
138.93390222543383 -35.982058736812824 -365.7512241463061 108 108 109 
97.75160984317463 -21.498832495477412 -329.8887426012657 154 131 117 
101.57809752410952 -19.899420287799323 -326.82636154804266 226 233 242 
100.3987969529183 -20.2044527305671 -328.3582325180036 135 118 103 
102.99431007923087 -22.80226447440725 -328.45538921330115 172 155 145 
99.31429599523103 -20.02705770926569 -329.0347843867304 139 113 97 
99.9081866744504 -19.73085335374679 -328.6474823341172 186 163 140 
100.33668330703539 -19.777322418984134 -325.2410990778791 41 40 48 
98.06256986263426 -21.970838425579537 -329.8182123625794 150 126 114 
97.26054749468001 -22.5296939059824 -330.2836252267399 194 169 147 
100.34058035691957 -18.06965138641537 -324.0315377892092 32 31 38 
104.22705167015116 -18.343805481564907 -323.79386325716104 41 40 45 
100.39334423240466 -18.734345977504894 -325.43572753853846 253 251 254 
96.52697391090177 -21.43695729532152 -330.7033551866665 168 144 120 
96.39324973721651 -23.37402728630609 -330.7079924912863 126 101 96 
96.39298047003872 -23.37409666964183 -330.70925591842644 126 101 96 
97.08919496735393 -22.50500804523382 -330.3724703348925 187 168 151 
97.40014374996731 -23.692911773079057 -330.2019115215742 144 126 113 
96.86477260762726 -22.82192550744735 -330.53193741719167 176 150 135 
96.86846990900645 -21.895158423744043 -330.5029204794902 136 111 91 
96.99876266900333 -20.846510121898046 -330.45297265334796 120 97 83 
98.63068989531477 -19.750412054157614 -329.44099559392924 145 122 103 
97.04300781318261 -23.319153164866915 -330.3859211789926 195 172 153 
97.86214339294136 -18.244683191923205 -320.3351905429209 80 73 45 
134.02932533894386 -18.601949434164393 -357.60237101089905 76 78 68 
135.0049070453701 -34.58890458052895 -365.2785837511219 209 208 213 
139.16731412480195 -34.14074077834082 -365.4991127632582 158 153 160 
138.4977741097828 -34.66680482051839 -365.9288306572349 197 195 206 
139.48057630891577 -34.70342886318703 -365.5895933135458 236 235 241 
139.69651038502988 -35.00632785469741 -365.2381614451192 114 114 114 
132.64488763083472 -34.066999674233145 -365.2658903251058 158 157 168 
134.1236395064116 -33.94923302394697 -365.0274395878217 137 137 140 
124.03788126625048 -30.832507939459262 -361.6816969052984 137 124 117 
101.41092288217918 -21.712781345756813 -328.07725897496437 150 137 121 
117.08956717872039 -30.43727226397564 -350.8527772911688 247 236 236 
100.34974715404698 -19.663462107489625 -325.23922672113724 239 239 246 
97.52941413862341 -23.24544616821508 -330.1190993383519 191 172 158 
96.91635756559309 -23.705136862705814 -330.49639153962977 178 157 142 
142.27971837690333 -18.623674371305988 -365.8963913752803 90 89 82 
96.28561948249767 -23.68697959297988 -330.8836993277578 163 140 127 
95.97209953128618 -22.07862373711541 -330.9583331622371 156 124 113 
96.11471298361988 -23.225275278166674 -330.9667693870745 155 132 118 
97.4886333877812 -17.998731045943533 -327.1837207540878 182 177 174 
96.05330536411789 -23.368642384025843 -331.01298270135106 121 97 88 
98.77544655779678 -23.99644792892126 -329.35075461103446 196 176 168 
98.81285555557625 -23.899009887606592 -329.3969076241904 165 148 140 
98.43609312280358 -20.09937208029179 -329.5449911754217 139 116 99 
103.05756318202482 -20.989083091234015 -328.3509988072466 120 104 91 
96.09314435105976 -22.88794684322629 -331.00966668075694 134 109 92 
95.79572427706385 -22.987835142714985 -331.16743103706955 120 92 79 
99.48779734559842 -19.700287014100244 -328.9532529258263 189 167 146 
104.29647418280528 -18.62489341154194 -322.27441934542327 87 74 83 
97.92974510007014 -18.235568221288876 -320.28706509400627 43 40 51 
98.00174533898277 -18.438726655893888 -320.2966013948778 186 184 189 
97.8739740844111 -18.199667656758496 -320.30641122803536 223 225 178 
131.98698191020335 -18.69556401435172 -357.04066146486855 71 65 64 
139.33169833619002 -35.200384446619374 -365.24529840168145 167 166 172 
137.9363738717824 -35.02876750473285 -365.4577358624741 64 62 73 
137.54922088466947 -34.510397159910454 -365.3679498942929 164 161 174 
138.93453054682513 -36.01281262358667 -365.0621390812776 100 100 100 
136.44942323545914 -34.767736827531685 -364.86552462759073 210 209 217 
134.88725606498926 -34.55459842800774 -365.13479530714307 211 211 213 
131.0224499698362 -33.80759784902799 -364.94776187352346 145 137 144 
127.95873712020818 -33.68585280821838 -364.96318350983364 153 139 147 
98.94380881056617 -21.693170603613993 -329.269961052857 208 189 172 
98.91172566933227 -22.274894727353594 -329.2261465076262 209 187 174 
100.22060778940278 -22.96614031831712 -328.4772053116595 205 181 157 
99.44393965768117 -21.8519149433051 -328.95845486253904 191 169 155 
96.75252277617797 -18.340727569180533 -318.4408135758452 64 64 66 
96.95529752401016 -22.002936545798697 -330.5014585747247 176 151 131 
96.55813460382157 -20.9519396009909 -330.7075940754521 118 93 82 
109.4967998860661 -18.551981859546565 -328.23780367123095 231 221 217 
96.70861576508973 -20.835880301372267 -330.5888286024654 115 92 78 
96.46331157218984 -21.304271826496223 -330.7324603346769 111 85 71 
95.8728944486641 -23.50231390248813 -331.04764296637103 139 115 105 
98.113990790075 -18.473922738313377 -329.66387139624885 71 67 58 
97.16048357667543 -21.913155258725983 -330.2889061426159 157 132 110 
99.05994411477937 -19.89289341847267 -329.18754866812293 149 122 103 
96.86903506851777 -21.895386505297083 -330.49028453223553 145 117 106 
98.95658074831687 -22.835891372357718 -329.2097744609036 158 139 125 
105.85525232980153 -18.29780210144835 -325.43545066959433 249 239 248 
101.92959753101553 -24.066498080549774 -328.04960889911007 215 201 192 
101.57743071259122 -24.064987018077897 -328.0605561565856 215 201 192 
99.59544347197912 -23.891248651879245 -328.81447720776146 203 184 170 
96.08292536606034 -23.92950642305678 -331.05113701473977 140 117 102 
101.10856940460107 -18.941398017099637 -321.9148190902549 225 226 209 
104.34600998685455 -18.36518560897426 -322.2867933577238 58 58 60 
95.72139222276682 -23.339771726043622 -331.1840898591126 93 71 68 
94.83631968303581 -23.833820648000593 -331.4675231379656 49 38 42 
96.74613031551743 -20.97052201104676 -330.61293686956395 176 153 139 
97.81484685382134 -18.255875707338422 -320.3654006218301 229 235 141 
104.34164547055366 -19.942445440129056 -323.54908152554964 42 35 47 
97.11666407189587 -21.80314686773814 -330.35135324030335 202 176 159 
98.89103290308324 -20.102446236772597 -329.27785952578273 141 116 93 
137.0191054728492 -22.98973683219818 -365.0719457051025 88 86 97 
96.9331172459319 -24.018765839814694 -330.4961918446583 192 166 153 
102.43991183114487 -24.439341201474896 -328.1794193992243 205 191 182 
95.78354018006102 -24.173854975111947 -331.09149737625063 246 234 230 
96.12336973131096 -23.17584443442661 -330.98201892292235 163 140 126 
96.60433201939446 -24.15477654431586 -330.6523537642172 138 117 103 
95.6524242583715 -24.115593128181565 -331.12908048429534 239 236 229 
95.68629720098353 -19.607114628640957 -325.20387393264554 151 141 135 
94.76052459532805 -23.84698786663413 -331.4128437435837 116 106 107 
96.35047957613592 -18.144171680173642 -323.09376989050634 242 236 205 
98.10645003192184 -18.38167977792205 -320.3358660636367 22 20 21 
97.19862412248523 -18.344807607111466 -317.82088985334696 248 246 250 
96.74930802434108 -20.001829540068872 -318.5349233147154 237 234 236 
96.6982130118984 -18.84811187220107 -318.7276439996613 244 242 247 
89.96510200407775 -18.15498799018364 -327.55710244886933 67 51 50 
96.65097043818184 -18.46128213140538 -318.7540503890927 165 164 172 
96.85328219000043 -19.995663308817598 -318.4886808171424 231 226 232 
139.199853134704 -33.92161594244386 -365.1599150380234 252 247 250 
138.48131003647052 -34.808534144518475 -365.1272232023127 55 53 66 
138.5235319828759 -34.82587623607425 -365.187233048256 55 53 66 
100.68239016010178 -21.240524670350197 -328.32769744801664 195 174 155 
97.51667684208235 -22.869606690507027 -330.1211403774751 191 172 157 
94.94376813198991 -22.723310939363827 -331.68825263325675 92 69 65 
97.50675334593956 -22.66349218637267 -330.0999785643256 184 162 147 
98.87546468593781 -19.55432678925631 -329.26776218064805 129 102 91 
138.7945620422318 -24.25888881812724 -365.1643048785175 103 97 96 
96.16781045876093 -22.77457168700239 -330.9723609701585 167 140 120 
96.46319133898318 -18.00642832554074 -318.9245911046743 118 116 118 
95.72720847889371 -23.91437205346583 -331.1867770709128 57 42 39 
102.1312568528487 -24.33204266964957 -328.17712913970064 215 201 192 
102.80195329207153 -24.44567372627782 -328.2969436515685 225 209 202 
102.49075855902682 -20.566164717053084 -328.1619728907255 191 168 156 
104.9732855806723 -18.198145659244034 -326.4528546558509 80 78 83 
100.89067263314804 -18.44081229622454 -321.7278880426062 44 44 48 
95.84027747057968 -18.66145955721208 -325.0884682643701 130 110 101 
95.96693981162882 -18.67816371353281 -324.9631949953998 136 118 114 
96.16686064921595 -22.570217495505148 -330.92765164435167 170 139 119 
102.45682988225602 -24.56930087011819 -328.21005156065627 221 207 198 
96.76976927192344 -24.12785738797353 -330.6051103716842 168 144 131 
95.7735477615381 -24.243418977629933 -331.06925150947427 113 97 94 
100.34968562017163 -18.11485543873028 -324.1460018793905 53 50 53 
93.08274616056252 -22.517075757319862 -332.66115165635574 91 85 87 
93.07782498829489 -22.515614885987606 -332.68422510036413 91 85 87 
93.04807469865489 -23.129586471023902 -332.66609832704773 60 55 59 
94.98027878908852 -19.964864807234953 -325.59893781409676 121 103 100 
95.32611344058265 -19.79603114258517 -325.43132068098515 147 134 134 
95.97002563400052 -18.32554212627783 -325.0029300659258 138 124 113 
100.41325275889014 -18.53245639350759 -325.3896369759437 228 217 218 
94.96302567245436 -19.761930215391953 -325.64667253258824 148 129 123 
96.2869280342415 -20.943110863436416 -330.9043867759434 123 93 89 
93.04915981977697 -22.951508925448216 -332.6095934561358 34 31 34 
99.07930037975456 -24.61859226480665 -329.1304277089094 162 140 127 
101.04048961779232 -18.989112429878208 -321.997977012695 56 56 57 
96.35388231466375 -23.969761291969 -330.79991496851744 167 145 131 
95.94915595336712 -19.357938487141872 -325.0460675041817 159 151 146 
96.62023759082221 -18.269119528549247 -318.7937807823595 27 25 37 
96.81664842248546 -18.40173032176649 -318.55519805105274 245 243 244 
97.15267004232064 -18.230883659167027 -317.90698714728643 237 235 236 
97.87934391841148 -18.2835130516353 -320.34616597805615 242 239 224 
141.60528904574315 -19.389073582823723 -364.1607343550091 237 236 234 
140.26995697819524 -36.063435156760555 -364.99700248699355 131 130 137 
139.86756225491033 -35.53129213354512 -364.8970199945883 222 221 225 
141.41154943129405 -35.949063374017754 -365.0171831839723 94 93 101 
139.2459627568109 -35.97106247212423 -364.95666947045993 116 116 116 
138.83509394861562 -36.19800876994425 -364.9067939509699 194 194 194 
132.8643197435455 -34.08273799647882 -364.86325689913093 224 226 231 
100.57444554747137 -18.58206021316956 -328.2002859111898 135 112 101 
94.77748264759585 -23.71964281193118 -331.35158621825246 79 68 72 
95.9577664561035 -18.18969367828707 -325.0067630354473 130 115 102 
95.82630624195741 -19.428677475066365 -325.0476543176683 194 183 181 
95.85155559475675 -23.807941368620263 -331.14912939778884 133 112 108 
102.7546515348732 -20.892318398669968 -328.22838966275447 136 115 106 
95.61364458272763 -23.86791521153724 -331.3023414281726 54 40 37 
101.22685573187522 -19.311251684659368 -323.165827821597 249 250 71 
105.01814848176619 -18.776477322613665 -326.2269480280442 252 246 251 
95.1545851708275 -19.857887783774494 -325.55565237266705 128 113 111 
101.13073506843506 -23.666005064575 -328.0421662537818 158 140 128 
105.03680961576816 -18.611098082106416 -326.3332100321816 66 65 62 
95.44975440680534 -19.771021561887917 -325.3580698217845 145 131 130 
98.47803834602625 -20.84567083861045 -329.6423896830037 176 154 141 
104.95114756445076 -18.38814971555238 -326.2633743832492 166 157 171 
104.29302307783092 -18.672892690911507 -323.9085353786777 237 236 241 
101.69030080960712 -18.591199261698602 -327.04668916990346 228 216 212 
94.95612557463826 -18.359654455379555 -323.40954007458845 242 240 154 
100.36222492476877 -18.2781319915673 -325.08507017000534 229 227 229 
99.35781508704544 -24.61915919812896 -328.84306338112253 175 153 140 
99.35814878466692 -24.61968594366311 -328.8463831916548 175 153 140 
93.18542817971132 -23.831182607322507 -330.1122035517703 102 93 88 
97.4361781191237 -24.65948260959797 -330.1325373051498 187 165 151 
95.01840125443877 -19.387443066138413 -323.6140663491446 239 228 195 
94.03873608076216 -20.351767235071687 -326.1342498573706 200 187 183 
94.35823890331011 -20.263171130080924 -325.9165597503727 206 192 189 
97.25182056712961 -18.26193238032651 -317.711398535267 230 223 231 
97.34814049912916 -18.325980869432843 -317.6512554698465 242 240 247 
97.44334965909873 -18.410171850513123 -317.58875323795536 100 103 110 
97.18262764880087 -18.27656846190988 -317.8540184116792 76 76 81 
142.06915099828583 -33.15595644910147 -365.51153698908905 107 103 104 
143.2785890433978 -36.2908883970338 -365.55761023019545 104 103 111 
141.9395175009794 -36.380014925813924 -365.24476214068596 229 228 236 
141.06240419640608 -36.160206701744265 -365.45389092637384 132 132 132 
141.3157053474983 -36.26506288561602 -364.9933299142026 223 223 223 
98.56368449608811 -21.620175492380003 -329.50728388160167 194 172 158 
102.28945629084456 -23.10544492134755 -328.1788543802018 152 125 114 
96.42928498241604 -18.79431083048086 -325.22368697153996 169 163 157 
94.9347240986292 -23.96475555486314 -331.49170223796835 40 30 30 
98.77582234008881 -18.18010866636815 -329.21085458582706 189 186 179 
104.26949810606395 -19.844148909346522 -323.4709174518167 235 235 233 
105.1066305840701 -20.023458846140027 -326.11651773472306 57 50 47 
95.96991310835521 -18.554923662314284 -324.9876450641712 142 124 120 
100.33863166946018 -18.269107163850045 -325.72629508529377 67 66 71 
102.69992961129795 -24.619535438910113 -328.20573675197335 125 111 102 
104.42647961116441 -18.142287968016408 -323.6725862947188 109 109 111 
100.70715436667169 -24.488130863028633 -328.2927208291611 175 159 149 
104.1643069976661 -18.14954164829093 -323.7397933109413 104 103 108 
102.99012512610882 -23.60858926022258 -328.41308883231665 161 147 138 
93.98729669401341 -20.29264067168802 -326.107733718374 143 124 120 
94.09197598890859 -20.306441722076585 -326.11056541923426 149 136 131 
102.56993810657616 -25.13820813531184 -328.20380138556226 222 207 200 
104.23816972654451 -18.421183069308682 -322.5497305798898 240 237 242 
104.23816972654451 -18.421183069308682 -322.5497305798898 240 237 242 
94.26095126162114 -17.766369536232993 -323.71219855302144 58 52 52 
93.49458278718146 -19.771913319779006 -326.39963321687685 72 67 67 
93.33321387844855 -20.535451667209824 -326.28942022243405 202 212 216 
94.08799823839826 -18.578412737329675 -324.98196344027554 69 60 59 
95.4960793753901 -17.790383827294917 -323.4642341257065 63 57 57 
97.49799594928464 -18.534012034903608 -317.54695406601326 169 167 168 
93.29407238180593 -20.774633734390573 -326.14364362700394 185 195 194 
100.34725238972369 -18.208485728168903 -323.9914898958296 49 49 51 
96.81113784318528 -19.96484900842432 -318.5285843993279 48 47 53 
93.54007639129276 -20.798009554319503 -326.30391894876084 233 231 233 
93.4659112135668 -19.875203249777798 -326.3391369261439 158 171 173 
94.11450276307158 -18.47633460814268 -324.9913807568881 233 224 225 
97.57187787426408 -18.49550071682521 -317.49390333147517 87 62 73 
142.02576514509607 -32.40007240774424 -364.24928799811175 243 243 243 
141.5125649638694 -29.90852270467787 -365.89346763650076 128 131 138 
142.3037057976636 -30.985288728748575 -365.81941592723956 57 52 55 
142.31855174728784 -30.59681839050158 -366.5787891756002 216 221 227 
142.11000341011456 -35.57107757473847 -364.94156420233327 234 234 234 
141.5367666654518 -35.96586809034077 -365.8405214195783 200 200 200 
143.20340950918094 -36.29792755265524 -364.7484624961226 226 226 226 
140.26846202524902 -34.732249056003354 -365.22598334129157 211 211 211 
129.55860422861943 -30.411358505080567 -365.30186018141944 64 55 62 
95.87755418781663 -19.245556596309285 -325.05352068798845 133 115 115 
137.75826789213622 -25.92994411117966 -366.68022632019716 198 174 172 
108.84704639659373 -18.649426584484225 -328.2094136825695 203 192 190 
97.1941637123444 -20.85013858196149 -330.32744498992906 129 106 92 
101.70782387584846 -20.560855546827128 -328.00896081367375 146 124 111 
104.45604072188941 -17.962504612652044 -322.70896063786614 173 173 175 
105.07968447254848 -18.170264335272766 -326.3479064225423 129 129 131 
94.82233239097907 -17.756684064563288 -323.32327969197144 78 73 71 
104.33145213118239 -18.319202814967635 -322.40451692065574 88 87 92 
95.94613760729436 -19.25024091028413 -324.99084209952196 151 137 134 
104.2111654524956 -18.42390521224077 -322.67610281927455 76 75 80 
106.22745553585065 -18.836336247113433 -329.6364804031197 51 42 55 
101.13151253577377 -19.289549675437915 -323.2174284752395 218 220 89 
101.6756784616825 -19.783433122033674 -326.72923140528883 57 53 56 
98.1212839065811 -23.84228787403412 -329.69836976917435 169 151 139 
95.67565307440616 -24.702821174123088 -330.9793269615769 107 88 84 
95.22986896351978 -23.693215920142837 -331.2175317684983 38 26 28 
104.19214625878479 -18.43512439177577 -323.3032755833058 225 225 227 
101.05500507606274 -18.187222155732492 -323.8246367887922 154 152 155 
95.12729472793411 -17.870875798818535 -323.2593967571207 207 205 198 
101.14957243069631 -19.155581749866045 -323.2826155059892 48 38 33 
98.62495934307505 -24.744518720610397 -329.4146091497317 167 145 131 
94.94377194248204 -24.502205193969896 -329.775053877416 162 137 130 
101.71685248599154 -18.859344001664212 -327.00204719022344 64 56 52 
101.6967986433236 -18.513230453700327 -326.9134563843301 226 219 221 
101.72799365118757 -18.71383989727093 -327.04367126109685 253 249 243 
95.00823429209959 -17.923288634523683 -323.22975054130524 60 61 57 
99.89745914290316 -24.893669172733702 -328.5295918733863 161 144 134 
101.69842550870739 -19.436974165524507 -326.8234482158568 228 221 212 
101.5314817691364 -24.83099117294825 -327.9690552244015 142 128 119 
93.49047866929433 -20.730061310698744 -326.39760526736904 84 77 81 
93.60422039501027 -20.342804349856404 -326.3507696344165 185 164 163 
93.45150458326948 -20.831843998575643 -326.37425924686517 100 102 106 
93.16680105070836 -20.349260503304254 -326.3541898438874 196 208 208 
94.89408486722554 -17.943217933021206 -323.334201274994 65 59 60 
96.24782293376113 -17.945815072512367 -323.1456654811584 57 50 56 
96.15827861152542 -17.95871491659118 -324.52519446232617 97 92 88 
96.25929405842909 -18.106039357336666 -323.11222074386905 226 226 154 
96.07705063882456 -17.990956206235694 -324.8828844775768 242 231 228 
94.08229192867935 -18.443482316684324 -324.98563475303575 248 243 242 
92.77131951749858 -19.813902989661628 -326.77031818067957 200 201 205 
92.99523439076518 -19.659474730547903 -326.59623606552543 124 125 129 
92.99523439076518 -19.659474730547903 -326.59623606552543 124 125 129 
94.86030667618557 -19.556784811565333 -323.5478740844047 45 31 30 
94.86303326064053 -19.560063882888464 -323.5049440882707 45 31 30 
93.94008631820928 -20.403713342284608 -326.2184752732755 130 115 111 
96.70540488235439 -18.6320945027748 -318.694141368865 81 80 84 
93.29454801273603 -20.477268483827054 -326.2536470319472 137 151 151 
95.00080332035476 -19.441568845205897 -323.5843682414069 79 75 64 
101.0451459112775 -18.688651277297524 -322.61687144514906 206 207 162 
141.22752244721363 -22.54863247041581 -366.1127735679249 221 220 220 
137.14515052916067 -18.653847239505794 -358.11104914867525 225 225 218 
141.98114210917026 -32.45111213688986 -364.79888664329803 201 201 201 
142.47717288527465 -32.84374239690593 -363.87462055669056 173 173 173 
144.13929435224512 -36.47122939069203 -365.30519146197344 226 225 233 
143.69028943621686 -36.12734229709967 -365.2288521650208 83 83 84 
144.65755525442114 -36.106016668363736 -365.1487508872228 85 85 85 
144.7327081841345 -36.14386476788305 -365.2380475973176 85 85 85 
143.77434304337584 -36.113965446611694 -365.8762244889607 191 191 191 
139.37850956354484 -35.65983655107197 -364.92975078622123 121 121 121 
137.39523014600465 -35.45478595693314 -365.2393546159575 171 171 172 
132.27523473516314 -30.022377388291705 -365.81575331252236 198 197 204 
133.10104489132664 -30.998028586530445 -365.3156842771645 206 188 184 
109.46676334993981 -18.730992878499002 -328.1401491770562 107 106 102 
131.62935552982742 -21.24721520270739 -365.20638797915797 81 81 81 
98.85837889776872 -19.661214229039114 -329.32138446497646 186 165 141 
100.54988049290276 -22.725332477468058 -328.3062175753364 171 149 136 
98.00684481104969 -21.749714529521313 -329.89987352757004 167 144 130 
102.81915841145528 -22.93532023899633 -328.2922183651333 153 134 124 
95.91366236382217 -19.302844631441037 -325.0295005698171 198 185 186 
105.11675495110407 -18.456382409013138 -326.08777634959404 251 246 250 
95.55234059312576 -24.647283416654385 -330.7891323485291 153 129 129 
96.460623577696 -24.554755620543688 -330.6991464237558 180 158 145 
101.62039420585008 -18.744322073190094 -327.3077291646315 167 149 136 
104.91922225346198 -18.259951695276115 -326.1619331178331 55 54 60 
97.63474555701475 -24.776160665871608 -330.131985895804 196 174 160 
103.76678564945246 -24.28076854371983 -328.9934508688392 219 205 201 
93.38405916317579 -19.214874471595863 -326.27338434232564 183 201 201 
102.22249882910847 -24.774579461209623 -328.0795884046052 212 197 190 
99.04534749948583 -24.881663211894256 -329.2199878127442 193 171 157 
101.81914641210741 -19.889719424451716 -326.76249092391157 40 29 27 
102.682443930795 -25.11997468710074 -328.1238019335084 224 209 202 
101.2864981296878 -24.958190951470463 -328.1308428009405 158 141 133 
96.68938694710968 -24.60568514313083 -330.6245902319528 180 158 144 
93.10849605477911 -24.266682956979952 -327.9165863476857 163 141 123 
94.04411946599338 -24.328442718336472 -328.73729830831405 158 134 127 
100.53493580018169 -24.554571713134415 -328.01057633008634 189 172 162 
92.7937516736549 -20.33222810729909 -326.59325526957286 212 215 220 
101.36654908379421 -24.142611071123508 -327.8778145067065 170 153 145 
97.71267137006764 -22.6633446216096 -330.02210288817787 146 121 115 
100.53070997442991 -24.719717957032795 -328.3318538257598 165 144 135 
94.58965465051965 -23.942178857571662 -331.51546940797783 42 33 39 
102.25927729269712 -25.68596704410216 -328.01425757458065 213 196 189 
100.33956081881827 -18.52824497339481 -325.4562456589553 58 52 50 
95.24196493211863 -18.006491034725066 -323.20447546185005 76 75 13 
97.27699649955744 -24.85658764532586 -330.1953957628054 184 164 151 
96.04064129477933 -25.25025257234834 -331.08501923015126 157 135 128 
101.64902100506298 -18.71441183294241 -327.0559615937162 129 120 114 
96.49355064234726 -18.11061995986592 -323.6148214289464 66 64 64 
92.02734826014574 -19.329821763787542 -327.16389622873083 227 228 232 
94.09327731466429 -19.34055919975631 -324.7213239009589 232 224 218 
92.0686395966675 -19.786324214277528 -327.0980082316745 205 206 210 
92.28852224036233 -19.624956705973318 -326.983112843381 123 124 128 
92.28824324861318 -19.625647171146557 -326.98561248761393 123 124 128 
94.55424301846533 -18.484255709656075 -325.80620394071565 116 97 83 
97.48164838310825 -18.507314582038212 -317.44337787986126 140 141 146 
145.2052750457308 -19.630819274807394 -366.46409957881195 242 242 240 
144.96095324911815 -36.05622753653999 -365.08153222015517 221 221 221 
135.614866133602 -30.642028805066513 -365.2662097359528 73 59 62 
128.94812768775327 -34.283964393731615 -365.05831505500646 197 197 205 
89.0849519046289 -19.910421524460613 -328.93477164454214 70 71 100 
105.06643578670781 -19.908328145357512 -326.0854359611826 246 243 241 
101.60002542379598 -23.93706319616825 -328.0405864167054 215 201 192 
97.16757515415114 -22.74162517078355 -330.47961292402374 145 118 101 
103.06917392356979 -20.995991617624593 -328.3679182492327 122 108 97 
93.19039360943228 -23.62433727031607 -330.33846591240075 40 35 37 
92.04497538581366 -21.919459350824237 -332.34897016628656 141 142 146 
101.39752376921031 -24.170747689094053 -327.98030128431185 166 148 140 
91.29476120291153 -19.694568978377305 -327.5492941790738 198 174 177 
105.0439231186599 -18.976170404431812 -326.23660819557114 84 72 72 
91.26633868563525 -19.343033108479094 -327.5846742674508 239 222 220 
102.59915344137815 -25.256197890456143 -328.2241937731032 218 203 196 
96.87654967428351 -23.899783847068065 -330.5528205802772 169 147 133 
102.98227440752517 -24.90266798421878 -328.2885052603079 213 198 191 
92.9082915401133 -19.646664775895406 -326.6857255064621 227 229 233 
100.98459534463552 -18.465305198113654 -322.79425759502317 95 94 94 
94.53138849160048 -24.50694881068507 -329.19602225944715 139 111 99 
93.8961130898213 -24.367601549913253 -328.4237550773521 156 130 117 
101.52879112583817 -18.074100101827693 -325.66049504606224 62 56 61 
92.44316940014058 -24.245105557466765 -327.8354114298402 194 168 151 
91.90457148659334 -20.22233292692297 -327.1889306410679 217 219 218 
101.09862638525854 -18.477334643355004 -323.3473137484438 46 46 45 
96.8201043702934 -25.073997451947573 -330.3685594102988 161 142 127 
100.78465589696397 -18.049866505469787 -323.59821137095616 122 120 123 
96.4556154771317 -25.015469768930124 -330.90850302380215 132 109 101 
100.55939642470491 -25.622298440135545 -328.2517352590719 191 171 160 
99.50522257166713 -25.617506042344818 -328.7371066614063 163 143 132 
100.40622784344008 -18.535437713787754 -325.3758179130982 215 210 205 
92.71110880761886 -22.94075948491271 -332.0458433457101 32 30 33 
134.92526204185262 -21.390595059888096 -365.4096128594522 59 60 64 
96.5938908689455 -20.963308836331286 -330.84796291443024 111 86 82 
94.89969858076515 -18.298756396555483 -323.3503785512847 248 241 186 
99.5268856859458 -25.553178804058334 -328.8083448915621 163 145 133 
96.48217314123674 -25.582858321724974 -330.6229246461861 171 148 134 
99.84237454560372 -25.445583597493346 -328.52161866642183 161 143 131 
97.20531219192797 -25.18680550111266 -330.22144213936485 184 165 151 
97.24378982674975 -24.918009466760427 -330.18024383551375 137 117 102 
100.81907506339567 -18.63105972726513 -321.70427098694915 101 105 42 
92.62921452551188 -19.70307083032845 -326.67832915985775 233 234 238 
92.62800654020614 -19.7009490489777 -326.69149209906567 233 234 238 
97.47658408382368 -18.263596795238758 -317.54735620046915 68 67 78 
95.17917289713668 -19.534320128860948 -324.44477892687286 154 137 126 
92.03555348498034 -20.1083093837595 -327.1219815322295 209 211 210 
91.27601707661822 -20.868734308577682 -327.54247976694796 237 236 227 
97.36408350738901 -18.44755415631004 -317.6395075979155 67 67 76 
90.7974139539687 -23.009805869758935 -327.99149971704503 157 137 128 
90.80047550063509 -22.54911795177821 -327.8501177981517 174 156 144 
95.97901871580044 -17.88165916016405 -324.929345602364 117 106 93 
96.9311192272088 -18.146931523215986 -321.4802672520902 42 37 42 
91.44831256647481 -19.679781777920258 -327.44462625797553 217 193 191 
128.94840521977156 -35.15919085868082 -365.4797864120596 199 200 205 
91.1309808499761 -21.383039464409936 -328.1062826395549 125 105 96 
90.87439730334351 -21.50004958563536 -327.970572850073 129 113 100 
90.98785087873269 -21.72057173883359 -327.8513758030666 125 107 95 
90.58653412023457 -19.986511504949004 -327.97317044106165 192 158 163 
90.62483914666164 -20.0824056792117 -327.90591780821285 223 219 220 
90.81712019087638 -23.342396869826313 -327.94945375854326 139 120 109 
90.81715739857188 -22.986500662453338 -327.866683817419 153 134 124 
90.91693302539775 -19.18557790952638 -326.5075853234081 183 142 146 
90.86959250575568 -19.19811318456732 -327.7685476083766 245 220 220 
91.01918228720072 -20.96976367816728 -327.7244382887013 235 232 222 
141.75399860638873 -29.76620089603136 -365.96523022856957 157 160 167 
128.72561086175725 -34.18082063217482 -365.10131959327146 196 197 201 
132.0040883539617 -35.20962228386955 -365.5502260675176 207 207 215 
100.64454763932775 -22.731906867314663 -328.32967560312835 171 149 136 
102.99162572321644 -21.381606606147542 -328.28405111550416 135 120 109 
