116.46763327124893 17.410746926869873 5.567136783703077 129 111 107 
120.76011335358254 22.146924156856485 1.2064930402095229 203 202 206 
120.76010402022617 22.14691928164838 1.206492756862545 203 202 206 
120.52581380301464 22.470013919734807 0.9814395088194061 228 228 233 
116.23187678822465 18.018590407332617 5.170655008935768 125 108 102 
116.34943130266697 17.739785614498626 5.008364546355153 181 160 155 
115.96344026363053 18.24673796869671 6.518514237622767 130 108 95 
115.97015607599346 19.386382380148007 5.100492808124159 150 130 123 
116.79919768338763 16.189571874385017 5.725714329703251 181 166 161 
116.80042938450498 16.18990725533979 5.725227203513725 181 166 161 
117.43433574051636 21.42803067671421 -3.27836008214814 111 111 121 
114.10082380640193 17.040206682977725 1.6803411474796661 138 136 139 
114.072055213245 16.74702616075772 1.3181631444526545 65 66 70 
114.77333838946113 15.508583353647204 1.8447282257048698 140 126 126 
117.72757318418203 20.850981122760622 -3.0084384768729393 82 84 98 
120.6230399798387 22.39595018932083 1.0646202995859113 216 216 218 
119.49749157580986 19.08039423106079 -0.4031352142927318 104 104 108 
114.30471671855048 12.439869462323909 0.13746549498706884 143 142 150 
113.78524668201383 16.498209678386964 0.965520036221335 206 207 212 
116.62933101899193 16.94878430834168 5.451933214740549 149 131 127 
116.78658423450824 16.3904411773199 5.5651694776736065 158 143 138 
116.72201048683881 16.395236212638345 5.750404717499279 164 149 144 
120.70469900085274 22.001697888866076 1.0625149397875333 70 68 79 
114.87326464761114 12.596498746482247 1.1936221618734066 97 98 102 
121.31916501762859 22.110966965877637 1.9003241573335856 188 187 193 
113.12438336578052 11.058827448688666 -1.1913397306132936 79 80 87 
121.20354111246347 21.596282146817117 1.8497852887785626 210 210 211 
121.04300366794654 22.427026269958034 1.766208662347637 91 93 105 
120.92825533770406 21.83918430497892 2.4994400116154765 186 186 188 
120.58852286840364 22.19998087227473 0.9797951893758778 41 41 43 
116.94200641162854 15.348527178687679 6.30755598271584 147 131 132 
116.95003209837603 15.351968667924897 6.302632832875489 147 131 132 
116.76606529486259 16.11983965494382 6.13002813206208 134 120 117 
115.95717133087345 19.041935519990254 5.3698144839657544 131 111 104 
116.10085517644075 18.168554269221545 6.381357847498819 129 108 103 
121.11777978759045 21.764079986867998 2.2344453978467698 243 243 244 
115.927513132204 18.101753618039254 3.8607083303000422 135 116 110 
115.97353427993677 18.358752441482267 6.39381133074653 122 101 96 
115.57418796311231 20.2045787476088 5.664193932147313 121 101 94 
116.61164562199181 16.69051823450566 6.108003225316338 140 125 120 
116.23456491655725 18.009080981592888 4.943007778708761 134 113 108 
115.78803895262587 19.783512549481987 5.4877424588253945 129 109 102 
115.67526391104096 19.53088762355896 6.005377476292935 128 108 107 
116.71370882376036 16.440088313408804 5.680242258994127 138 123 118 
115.19537856271367 21.284497451135262 6.207768139377677 107 89 87 
115.94514121754396 19.01843968329385 5.703567554936939 123 103 96 
116.09645991197864 18.306489350475232 4.645435746146134 128 108 101 
115.80431754959794 18.895548914428865 4.094228942869478 122 102 95 
115.99218681964527 18.44362720732166 6.413895073164483 151 130 125 
116.60870141953359 16.655836700204134 5.996586883280713 136 121 116 
120.47205774868621 22.276791690735703 3.081697961679936 188 198 203 
116.09318507307005 18.306984756181613 4.4318145934255 123 103 96 
116.76862456270739 16.33277934843566 5.64215373283848 136 121 116 
115.78300829381486 19.428055531378384 5.683865113548862 132 112 105 
115.78300829381486 19.428055531378384 5.683865113548862 132 112 105 
116.59171749825927 17.072766094405026 5.007984807642259 153 135 131 
120.6491781056016 22.378109040724766 1.1482229905425498 68 68 70 
115.83477454410297 19.500155865087347 5.609636879887887 185 165 158 
115.74030360902029 19.49221842387932 6.087890971527216 193 172 170 
114.3052980183837 16.349959163741822 1.6962601082630897 80 81 83 
114.56516091733101 15.937767391682241 1.809096338832461 172 159 161 
114.64935245274583 17.04591263874066 2.265855808632182 129 115 114 
116.79739274609891 15.950419825420665 4.558631190881883 144 128 123 
115.82566921952045 19.511403141282656 4.518041478898311 116 96 87 
113.59674897870781 16.43610900733454 0.7858274891415391 188 190 188 
113.89749059784826 16.347967647867677 1.3532474127622862 209 211 209 
114.71854650545528 17.186624951844713 2.247849998569862 165 153 155 
116.17355786605377 18.264072328001255 5.567651489538278 114 96 92 
115.99037327054627 18.79265701317324 5.611080421022521 131 111 104 
114.88093975346455 16.453180701551595 2.031084435700521 237 234 236 
115.82576168485848 13.25745367998113 2.1255008463679417 245 244 244 
116.83235722592654 14.767457707442409 7.059778635530279 146 134 136 
115.17675553903864 21.53288174026907 5.708358647263793 88 78 88 
117.14096575857148 14.592936112061254 4.341036877040821 169 157 157 
117.13928367806932 14.243008453711004 3.788228890479118 198 187 185 
116.74824366629169 15.64276993667752 6.561548571711825 166 152 149 
116.89387244422741 14.689403243084572 7.022954962389676 170 158 160 
119.269502501221 20.592010308971773 2.7774273623979298 217 213 212 
116.34463708427144 17.184081328162645 4.138524808914738 139 115 115 
120.5492759358721 21.746266383069685 2.9223826764830534 59 57 68 
120.44786868966382 22.173290348363686 3.085929288170931 172 178 184 
120.44820020109675 22.16951908398929 3.086552632897707 172 178 184 
120.13745481218885 21.487507603802268 3.222282081683005 46 45 46 
120.61015107844422 22.389713569944078 1.067155523420709 217 217 217 
121.2898029304609 21.76386881023922 1.9027777977890707 234 234 236 
120.14874285060856 21.721570258881897 3.2481035372269673 57 57 63 
120.58745889642964 21.61228149587868 2.954208785306065 182 182 185 
120.89983106811003 21.879423849356982 2.670323516377067 59 57 69 
120.61247432488678 22.30480914790182 2.982587670678157 196 213 215 
118.69802964731944 22.40087735697704 2.917544338145831 72 71 85 
120.72028169191587 22.189923977604955 2.884055066376021 152 151 159 
120.9440735243789 21.878549049886665 2.7225261247323402 66 64 77 
121.20461116606677 22.062804084587412 1.979334953055755 204 204 205 
121.03967172859589 21.98028808923857 2.4624303088777566 64 63 67 
114.41850711425505 17.36133141584211 2.104642538355108 160 147 139 
115.88468287836895 19.04668317976742 4.227433263768276 118 98 91 
117.05729470480524 15.095057528280847 4.336103307357973 200 188 188 
116.69074037956862 16.62355192820184 5.726024413211135 157 142 137 
116.55484259024398 17.104356019432853 5.067672344166482 171 153 149 
114.29416453732084 16.898353978657305 1.5006759231750522 144 145 149 
116.85026031373117 16.09204775218939 5.588414741604524 187 172 167 
120.65533174664326 22.445191654836915 1.175733570155728 96 96 98 
110.55303236925096 10.560535997110042 -4.116206705478184 169 172 183 
116.25571433327202 17.4096874367635 6.381340101494416 133 115 111 
116.2288015303976 17.925569715965853 5.626386239890877 138 117 114 
116.84592024178572 14.892416755906751 7.026593064994728 164 152 154 
109.47958157389853 14.796305119097195 -4.779181065154177 61 58 60 
116.36585332988909 17.402590631851922 6.003722181248378 137 119 115 
116.61517767774114 16.648217509242475 5.814021417618889 136 121 116 
117.02023490246589 14.705076572096816 6.729630637455898 175 163 163 
116.67106075684632 16.07606058222005 6.531113694427589 166 152 149 
115.14399471859032 18.370836121194408 2.6055696561513315 143 129 123 
115.6579472361373 12.936059879301581 1.998088544557774 183 175 175 
121.17852889413493 21.3862948113223 1.9598734092833894 218 210 210 
115.37704351745347 20.973586749678507 5.38514944835687 150 127 119 
117.03666909467188 15.864743946579733 5.577688597538341 160 145 140 
114.12854398608411 16.911994416562244 1.6907065867282824 54 53 51 
116.61277004440429 15.12137855976874 7.376991973883705 140 126 126 
113.27813609704894 11.254291603765665 -1.1252383283555503 201 201 202 
115.36935621354347 20.84512672893721 5.430928015669096 125 105 94 
116.0942922193502 18.16586038389716 6.373588586507253 130 111 102 
115.92641986824248 18.08817649485195 3.6584524324996153 130 112 108 
116.09227755128421 17.814495940013316 6.505447790996527 137 114 106 
115.7668287728373 17.972952369697325 7.020779326293194 131 108 100 
120.75577168974813 20.895369086271764 0.8688329799502412 173 176 186 
115.65696462342731 18.647642634484946 7.050400930558268 130 106 99 
116.11752674485614 16.932923431233075 7.15619810020813 127 110 102 
116.7382289396261 16.200142101143452 6.042353209292045 162 147 144 
115.13623402401089 17.956126269734547 7.880218841665027 124 109 100 
115.22744532596117 20.703184526680047 6.811464747766749 110 90 80 
113.80883624326441 11.587910655493955 -0.38119103180827096 96 94 98 
113.77494564593098 11.568069893922809 -0.37503403269111857 96 94 98 
114.65054334926486 20.099968128224027 7.69689886549628 178 158 151 
115.32335191607125 18.349848871362248 7.6390317987541465 126 105 102 
115.08803801367523 18.511508309165777 7.736530306294895 116 97 98 
114.10597957979718 19.414650127529757 8.404032892200647 117 97 88 
117.22802916247583 14.59513449093746 6.276817600394111 198 185 179 
116.13024986077234 17.999854191883955 6.458726260412249 163 140 132 
116.35051992833372 15.849719901633165 7.35278203331697 141 126 121 
116.84446476072658 15.485035308714007 6.822598940628936 174 156 153 
115.55406190617818 18.38667364165169 7.225050966402236 126 103 95 
116.73310608706838 16.28832845732735 4.910614623916345 150 133 125 
120.91691991759149 22.17846151928257 2.592660268764604 137 136 141 
118.20382695979517 18.881849685493407 0.9018470928909892 118 121 130 
120.5150344621627 22.408169665043918 0.9302991949489012 62 62 62 
114.2660464449426 13.557626063972462 10.01214127509678 81 71 78 
116.01975075728309 17.171503063236898 3.410422181683998 129 114 111 
116.7561877013995 16.45507546449999 5.473940273217067 133 118 113 
116.72759333659506 16.035034465145536 6.441075948384409 138 124 121 
113.34176667171421 16.34262449583653 0.5969938402729014 191 191 192 
115.03974253474979 20.890621951152575 6.665942596074117 105 85 78 
115.76126439724024 16.01164805411794 7.93368412447694 134 118 121 
115.20797328768518 20.589556823955732 6.560406057658 109 89 82 
115.0090580358837 20.48565201276131 7.050429696873337 113 95 83 
115.093757793206 21.000746949876607 6.598666244023974 140 117 109 
115.3779712836562 20.405745806953146 6.280942879530258 119 99 88 
116.31567301492301 16.98103772110754 6.860402688480676 137 120 112 
115.60244111992371 18.743623942616306 6.967785752443959 115 94 83 
116.46234509093507 15.541139653089179 3.3426871032320093 174 163 159 
115.60579348271752 16.88534091539011 2.6763662984457284 150 137 129 
116.13877953616053 17.21715309167211 6.945668729611825 154 134 127 
116.77924180812516 15.993063610620105 4.497664261906493 188 173 166 
116.0065892941812 18.443294076297903 5.982354334143665 142 119 105 
115.03936519299525 20.730902008711602 6.893052530233717 136 116 107 
116.20231332427524 18.096978423935063 5.371671273034195 169 152 142 
115.05308614936979 21.387402367303473 6.42547927605321 142 121 117 
120.1432259959941 19.729019361171204 0.2764245602714652 213 213 213 
112.6429186418789 18.833701126977516 9.865533291798144 235 234 236 
112.6429186418789 18.833701126977516 9.865533291798144 235 234 236 
116.07451792306904 16.11754768394506 7.620570949599895 132 117 112 
114.0980859386667 16.946106441830647 1.5002603240384076 79 79 79 
110.05367080044647 11.627613509073326 13.065544437276927 134 133 141 
114.20901663409788 16.66595917399225 1.3453890909379567 193 193 193 
115.0935817600422 20.901069963500895 6.561976047134237 105 84 76 
115.17395504145553 20.915108824428643 6.536104681598559 105 84 76 
116.42903544838167 14.718952704017816 7.791912695931117 141 128 122 
115.29574516817239 19.81289019144127 6.903640128576981 122 102 91 
115.8647548272871 17.444516598603727 7.28693139045788 130 110 103 
115.67842748971242 18.42152513676853 7.084880683663954 130 107 99 
120.55425366580691 22.446531272948768 1.0164446224206642 86 86 86 
114.36190937290553 16.93707609786223 1.5866596915088707 158 158 156 
116.11600540564247 18.321119162781642 4.760075647641926 142 122 115 
111.02001805779602 12.018388512022028 12.334228688322355 135 134 139 
113.47882080990415 20.850075366699837 8.550937025878014 101 90 88 
112.51736719071253 18.911025765418465 9.771906702892053 240 233 234 
108.04895467162736 19.597825702655154 12.662013281972577 115 103 104 
112.72096506230105 19.395211022488667 9.441166248583187 107 90 82 
121.29296885555402 21.495333077866725 1.8401075333231773 254 250 249 
114.26919543596797 17.175875503283613 1.5905925752231695 166 164 164 
116.30208422071594 16.921807425204733 6.806921543242353 158 143 138 
112.59316108162601 19.168329315087014 9.59541399246757 133 114 107 
121.08146631633846 22.147891896448243 2.001586211665469 207 206 210 
115.63970309311615 19.427635671093388 4.03770577153233 128 109 98 
116.316533114566 17.674552652007534 4.676435307914645 142 121 116 
116.21392007113067 17.877729624269612 5.094287014965872 142 123 114 
116.16174211714115 18.35254850925511 5.304482667001864 138 118 111 
116.32240403893759 17.70374818748717 5.4052421943540025 142 121 118 
115.27730857449754 20.516982008377234 6.493425116407693 134 117 109 
114.64980883220281 15.421034359072534 2.3431105192358643 183 170 162 
116.84299413781383 15.963758972311606 4.914554095522945 161 147 138 
112.50072287237593 11.009585881548704 -1.8287963734612305 153 151 155 
117.06649410942022 14.81889923332084 4.070022746636582 178 167 163 
117.90666634085412 21.391501682154143 -2.6475428005390214 55 55 63 
115.72696479179292 18.55115289566458 6.960486677477505 136 111 104 
116.07985266051986 17.258481316130457 7.0141864705087045 127 106 98 
116.615742449195 16.64969185005792 6.3110352466625415 165 148 140 
116.76770012661298 15.532849498189389 6.70090818311138 178 161 153 
115.06073738997506 21.121787500435772 6.506597157694813 114 94 85 
115.95451975494142 16.833651431939025 7.4659847026167085 152 135 128 
102.377966714385 6.284944575516912 21.880136575118826 101 92 111 
112.43340254447494 11.194341875323445 -1.6421661558150333 192 191 199 
113.30208179072255 16.35078485689035 10.007335306025482 241 240 240 
112.46121915197249 18.52361434040577 9.981064072602152 95 93 96 
108.16323534427774 19.762279523155854 12.515265810806355 80 73 77 
115.8897914787849 17.77261178007241 7.149063941260422 131 108 100 
116.07884780330629 18.124860758806822 6.089015507178345 132 115 105 
120.60127093561162 20.622476644631654 0.6873276239898871 180 180 192 
114.06530603542755 17.295299925352595 1.7809566801809922 116 112 111 
115.92044056583104 19.092404737807023 4.886688584594694 133 113 102 
117.33083358225971 14.297751307768714 4.730648408509026 192 181 177 
115.08373061121829 18.603430920649714 2.8530864048602496 158 137 125 
115.78309751995894 19.42206573182441 5.580964597435994 147 127 116 
114.20727917161048 17.24962082586748 1.8339907242787916 168 162 161 
120.47477622641419 21.656414848610012 3.0284681326407537 180 179 184 
119.89971857747648 22.147425499931785 3.414583699747169 60 62 63 
114.48975484150776 17.134294080982933 2.0564344689384484 123 112 101 
114.24242350348733 11.58655891004619 0.36460518509254314 210 211 205 
115.25781689915074 19.9161311695321 7.10534956611221 119 96 82 
116.3256067518482 16.180045192494504 7.160403647052078 130 111 106 
115.82608150557286 18.319889192655555 6.564499078813554 128 106 93 
114.62533106286918 19.53643695596306 7.855270041099331 117 94 80 
116.89716587858412 15.26585053454983 4.3800998165984595 166 152 143 
113.99955066809638 16.86736624586396 1.7890797327367807 152 141 140 
115.46121609415378 19.16920073032465 6.930508284383308 121 99 86 
115.47915931272638 19.513187287237315 6.723960731719174 128 105 91 
116.42387971192596 17.25604484138791 5.124484386636325 139 121 109 
115.99993812748802 18.79930530944293 5.705848815121541 145 119 108 
113.66955729821278 16.40612267865528 9.54668920092982 152 132 125 
114.87374680383705 18.579893186754987 7.982747414229564 120 102 90 
116.84542293199104 16.076058634990524 5.264195805181487 197 183 174 
120.65545757265242 22.296222517753947 1.0773372995069792 75 76 80 
116.58831296503485 15.982134795943352 6.657834662109579 135 118 110 
114.25691816014958 17.266564387719914 1.8361336833074375 179 166 164 
114.31041927177812 16.466673161567698 1.7231176374020123 80 74 73 
116.6330795690424 16.32770082611932 6.261723136394892 137 119 107 
116.08580462896022 16.86005875157086 7.2289086971118905 154 136 124 
119.53465663031437 21.487085210152614 3.532469601704449 224 218 216 
119.52980393580785 21.328584533150824 3.5143081202659516 232 226 222 
116.37775146752266 17.08397457673325 4.337690871317548 133 115 111 
115.87999619115674 21.962710752856943 21.443236699976367 189 189 199 
116.16487603846176 18.151556014482537 6.080807751473955 129 109 102 
116.55449993820896 16.939974280179804 5.5866846528780485 178 161 156 
121.01000776849743 22.00316768874216 2.4971666269017447 138 137 142 
115.57818239621675 19.652112068009195 6.586753745068776 121 101 90 
114.32878656006494 11.77460513440321 0.2779716573979556 112 111 117 
115.70903049254463 19.691310271625333 5.608905715139329 164 144 133 
113.46388843560584 16.234827413432654 0.38011465394779975 74 74 74 
116.32921009492972 16.861897855520137 6.7181276979568025 136 119 109 
111.28128030856328 10.639133643914455 -3.640137498502291 87 88 92 
115.69305003681025 18.656428730477533 6.926596949579746 136 113 103 
106.12981786709416 17.151944341393648 14.900887281055276 233 232 233 
106.1412795311858 17.154890584280018 14.89574266230224 233 232 233 
107.9490089875879 11.485811254412868 15.12399927258518 226 219 224 
106.38679036609818 16.64466077471758 15.01279520213376 122 108 116 
110.35189294009162 10.859775593877412 13.233641638916907 156 156 159 
116.24904863445484 13.130215289742488 2.578145027174699 204 193 189 
106.2008485636346 17.82678581750691 14.912616750616948 112 97 102 
113.82488826263902 11.498668796115629 -0.40393470557664557 204 199 198 
115.510441870508 17.47867392288618 7.680355437680717 133 113 102 
116.86774886887397 15.251945941788623 4.386979543880216 166 152 143 
116.1326183901249 16.836511584807827 7.280999864741858 124 104 97 
105.94498515844874 17.22508725223266 15.099213795321617 231 223 226 
115.0097641989606 12.026844329418621 1.2150955598155093 105 103 104 
116.1491781207144 16.925732003846203 7.039099457664335 122 104 92 
106.94563342765328 14.864102763065151 15.126337635963722 126 110 120 
86.59666765916229 8.157542391271685 33.432762082250065 59 59 73 
107.74643715043842 11.520945243200934 15.29535433735839 194 186 194 
114.45268670696896 11.556684177869954 0.4335308389724588 91 92 92 
119.58947916309945 19.309895099705326 -0.24331306649364137 173 173 173 
117.03083519692511 14.358295920834536 6.891778912833104 168 154 145 
119.3073230844229 21.876526790342638 3.6328671279434275 79 69 69 
116.81907380757606 13.744430289863384 7.480363605348259 137 122 119 
120.79019732381389 22.45200828894958 2.6161102882973637 65 65 75 
115.18912113034344 20.559129066072288 6.413862540036163 117 92 80 
110.21532034462284 20.173913506928493 10.820942060640434 110 99 94 
115.87101285154168 18.21328110882694 6.531887694904228 127 105 92 
113.24989733419974 16.38184683294372 9.881156834484798 232 224 220 
116.12862882713887 17.31810125558633 6.921813348389634 153 133 120 
119.89411981045146 22.465203246338916 2.3113729370927416 46 46 58 
119.89411981045146 22.465203246338916 2.3113729370927416 46 46 58 
120.21100287854792 22.10886003405715 3.3247726257754096 56 56 56 
99.6264142465177 12.642952865631889 21.33648951679079 209 206 207 
115.3329677626479 20.788952833343842 6.004241867896738 149 127 116 
115.88652375193921 18.689962511637873 4.099605980590013 136 116 108 
116.87756385526946 15.819558332805222 4.645024081320571 191 176 171 
117.41964625973615 14.776565541361459 5.305262691177532 166 153 147 
117.02187304814959 15.350828695758546 5.991530641056329 151 133 129 
115.66981315882846 19.84381368672551 5.234690704362208 126 102 100 
110.8261432448945 9.091411055249143 -4.8320446561191375 140 132 147 
115.48760920518791 17.056098056520295 2.7708807299223253 167 154 146 
114.48984144910753 11.698738978700911 0.5415047422011412 207 206 207 
116.66067529473692 15.635034262003366 6.852870874024163 164 145 134 
113.61125037246977 20.12139200981329 8.54611382633351 144 126 114 
112.78880843370129 20.761437812071815 9.065819618310897 98 83 78 
106.8294704983641 13.888128785360767 15.803407521114679 98 82 94 
106.81525575277723 13.873057764106655 15.813803928840215 98 82 94 
107.13249660231818 14.859176155100698 14.803923801120533 67 61 63 
114.31936877669203 12.402845495279273 0.4841082212588219 109 110 113 
106.56645007463392 14.986135317499205 15.191948821274039 129 116 123 
115.45500258444625 16.629391319320366 7.9087016224064115 123 103 94 
111.10786578273071 11.307048388054838 12.378104973145668 98 98 100 
111.50556806036352 11.46451767301243 12.103842705016547 99 99 101 
113.59302642824247 20.899493211089343 8.286391988725057 98 83 78 
114.28739503903759 20.602326319210782 7.823674033389082 103 82 71 
113.29458230002278 16.19336916194304 9.893338475882189 238 226 225 
115.51361453980782 20.226325566494594 4.668903221386671 130 110 99 
108.3457230502498 10.698778795191458 14.795049211763626 116 113 122 
114.5433055602208 11.612797893147357 0.43912940446467985 86 88 87 
105.82628465802284 19.051909149277385 16.234358598198753 161 152 160 
105.99214403605626 19.242733609295836 16.223722516075412 160 154 158 
106.52188558225943 17.36413137570087 16.337753346523556 202 196 202 
116.17834918910307 16.409665465660964 7.12729765387526 168 150 138 
111.44723743462347 17.995989648630548 10.440092089218282 113 112 117 
117.52399615224395 13.947427793491011 6.2134722963141655 157 143 134 
117.49022394930782 14.155957175806048 5.0163302775105905 191 176 171 
94.01921740733664 1.6936682729171872 29.591015959719556 209 208 213 
116.70083040540823 15.17733135746633 7.355032718191609 131 117 108 
117.42098604720205 13.991890375381418 6.283256867818579 179 165 156 
116.60905532805509 15.856916498672954 6.407700846991091 145 130 117 
117.42218754789606 13.688568512141993 4.375012187893731 199 188 184 
117.50914798364533 13.803194533543305 6.270403175721825 186 171 166 
116.82549031546188 15.595968810317688 6.522339576739398 150 131 120 
116.92097420749916 14.36430246372677 7.162652444968458 164 150 141 
114.76749328465395 14.565131854608477 1.5338633400612451 179 166 158 
115.1390834773083 18.639681984020076 7.643228450934657 120 100 89 
116.29715932794592 16.39935094749611 7.043344637828767 130 112 100 
116.30800423466272 16.401428079710847 7.0384621164746335 130 112 100 
114.41044990750909 16.531563468287146 1.6817194255243066 215 217 215 
120.31834569604632 22.2859571688391 3.113582419516206 110 130 124 
123.18043384481794 24.098538916839992 6.867432472374858 214 213 211 
119.60096151568403 21.654089619544536 3.4994727016212863 35 25 31 
116.63082663635659 16.735829955549043 4.770754839956027 163 145 133 
115.79899324680929 16.855112440480454 7.57743034790262 128 111 104 
115.08347545395067 20.659813215698122 6.881735243477294 110 90 80 
120.72901461227706 22.591906306737442 1.8103654277167038 62 64 81 
115.03579371372938 21.356258015625563 6.183485565951884 139 119 113 
105.52656669492484 18.57028754421435 15.057825729604474 113 97 100 
106.89428300991268 15.183613251534197 16.62700612865622 67 60 69 
116.9254137715771 14.845715054624247 6.9551651906292875 142 128 119 
117.26576047969758 14.207220210025481 6.588528547659578 174 159 156 
116.48527960115734 14.724575235315989 2.975072960520123 210 199 195 
114.80047279473509 19.585226154832412 7.55849630489972 124 101 87 
115.19538120126832 19.559577502188507 7.195093025267056 119 96 82 
114.58460962337544 21.091103841744637 7.177185872079633 127 107 96 
116.74235626748465 16.238799994597073 4.625334842284346 188 174 165 
115.31234857108157 20.59144419629974 5.958286517549169 129 107 94 
116.7732957100844 15.763293856247724 6.402850843465657 176 159 147 
116.05772376633567 17.287621140974505 6.943816512682773 154 134 127 
110.32038706282526 14.825721857775907 12.234013518369593 118 101 98 
115.24809410397259 19.870447593437596 6.972914303073821 159 136 122 
108.60086343859756 10.691980176208371 14.627084223242846 89 87 98 
116.32394015747268 17.38553642039585 6.005635159151865 143 125 113 
111.34290180296178 13.919709470347339 11.580957184948886 145 130 125 
115.98884048096214 18.602991683859976 5.172936532481415 180 161 147 
115.14793616014428 21.341080930316657 5.691823365133047 114 93 82 
114.70773293114426 21.2322816107553 7.2560387158750785 146 124 112 
115.45624944337193 17.96364711712367 7.482124537574691 140 123 111 
116.51302500187754 16.992780640330015 5.251471414102198 182 164 152 
100.59238694337218 9.611980654535211 21.58661815107743 205 196 208 
107.31448768774513 11.833590771919958 15.95966735024109 95 83 95 
106.19647119076485 16.788824849839667 15.692283364218156 91 75 85 
106.20773195740855 17.201034476994597 16.64059450038151 219 219 221 
106.20774018299804 17.20103661583798 16.64060773482437 219 219 221 
105.97317799921115 17.117640714812282 15.26863816781949 92 78 84 
115.310176825397 20.626694467152 4.704372598907838 125 105 93 
113.491686127954 16.552794324539143 0.3851104535194452 61 62 58 
115.31711276611134 20.19920922487335 4.898061813090308 131 111 100 
115.79253848237715 16.62010466871862 2.8794432874700107 194 181 172 
116.22120933918913 14.689172313937904 8.012303092178186 131 116 109 
115.28705295480934 18.767568764458368 2.7776151163684233 162 147 134 
109.77513957928247 10.28844647989893 13.918787781445616 85 85 96 
113.29279390640836 20.39716134241351 8.706094866681909 107 90 83 
117.54559694874806 13.615336258402179 4.858192023229336 208 195 189 
115.65705253692705 20.358275834203305 4.373867728462372 124 102 88 
115.40254511877893 19.491539909399954 6.741163119287165 129 106 92 
117.21942291850549 14.790749420775503 5.650129817430525 192 179 171 
116.96527402911804 12.98787267325455 2.8603465483437134 231 221 220 
123.44939743177801 24.350625525044848 6.590651258297626 194 193 191 
123.18008773543627 24.068727651820623 6.3970104112203074 207 206 204 
115.3164642103022 21.147149928029854 5.471575004803626 104 84 77 
106.99339282604042 14.506355375471994 15.130847804366525 233 222 226 
94.27351070992164 1.780594560665504 29.277999313758144 125 124 129 
115.9215852673321 17.36930271038694 3.407295461986095 165 148 138 
113.24315834447529 16.386966886783533 9.885294159240928 221 213 208 
106.50932495363075 17.065663739903457 16.481107310794656 85 81 84 
118.5557219574569 19.100209556189412 0.8027157518345405 123 123 123 
116.96101344009791 14.225140376020914 3.5084454160224396 202 191 187 
92.11751483695323 9.234954622897142 29.069751596052143 185 189 203 
91.5727731506928 9.17060015455456 29.421486000187357 85 85 97 
116.30811720335427 17.46405078224873 6.03900850702648 177 158 144 
94.68383315041004 1.8904519772551707 28.84869809641566 136 133 141 
98.7909056648916 16.9020278287477 21.651479551211736 74 61 71 
114.5183377343428 21.084137072139118 7.287591947663003 118 94 82 
115.2091466309991 21.51207623361403 5.231042030097413 105 94 95 
107.37257468858074 12.373952978179215 15.394640432029789 120 104 111 
115.00031752433362 12.042982464828851 1.069705830163656 101 101 103 
117.55516952766955 13.634542882669342 5.49126128040146 198 185 179 
113.18203203926852 16.14469668357011 9.93196209163257 245 234 230 
107.99941952596309 11.815024752076676 15.235426140160016 116 106 116 
117.059975887576 13.481820426194762 7.4941087291547035 174 156 152 
120.95504930902429 22.086888904905116 2.47153445606007 67 65 75 
106.40760212666808 17.172444136098513 16.42307600721894 222 218 222 
115.69535155324195 19.815831685272364 4.682929441456665 127 104 90 
115.3323581671352 17.86837743212488 7.566511577781824 135 111 99 
105.92825544801224 19.218974118864402 16.255514613479548 158 153 157 
109.7463704966521 10.731184001857986 13.6761545786824 122 121 129 
114.3014094276348 13.382672010263082 10.065691162537163 232 228 234 
115.26154056129332 21.488327552990384 4.755460358811334 111 97 98 
116.63489791967014 13.087234284562227 8.074371593935794 165 150 145 
116.08398405533529 14.17277778792859 8.266260407595325 131 114 106 
115.92840359051073 16.83236295206649 7.382948532042903 140 122 110 
106.14552072287327 16.91318377661981 14.819140102387564 71 71 71 
92.87920542447506 4.6808257264694895 29.694682688138087 222 221 229 
95.18268868961322 1.8689993737753188 28.54622408440514 215 212 221 
106.70130893264943 15.136190817123481 15.173942823711087 139 123 131 
103.95678121569489 9.080310071337724 20.04123065368833 87 81 97 
109.3428380201989 11.484537283602702 13.76166617738562 114 113 119 
94.18667776221369 4.88817849819771 28.417879825097486 206 205 210 
100.58070159386267 9.497460651767216 21.52501781956748 208 199 209 
99.5544747470238 12.75365362028366 21.479464577965146 213 204 214 
106.08202232140333 16.763200592583495 15.74658074677798 90 73 81 
109.32299894659948 9.524115441345954 15.021444168867063 74 74 88 
101.82148977074158 6.986524650923493 21.720386158732822 203 200 207 
112.69036622360564 20.730523713944145 8.97050474709205 121 106 99 
113.08189163500352 16.800158489620415 9.805201607823179 135 117 113 
106.79381244394993 16.970979204942882 14.347746080801926 114 111 113 
116.6533792647264 17.002792801043007 5.29738381448891 155 137 125 
105.98107886756594 15.557781737738317 15.735466707065783 91 74 84 
107.01595206571221 14.928831555392293 16.67242028249254 227 223 225 
106.65988363854241 15.467132329575369 16.591802155127624 90 84 92 
115.43904149767917 16.470395987073296 8.25921413507453 123 103 94 
113.86743336293075 20.368918602247266 8.313190699639861 104 82 73 
108.21554176825661 10.314324527966946 15.016065416470624 114 108 118 
116.43240942035499 14.72390139039555 7.787248364790685 141 128 122 
115.8529419847457 19.550043804633297 5.286714751583858 133 113 102 
115.58173445850029 19.307527770957343 6.475850805175881 133 110 96 
108.44319215730026 10.673591470969042 14.835965938108217 88 84 95 
91.06789185994917 8.060358550056582 30.43996389794536 179 189 204 
83.94572506256202 12.769432138724623 34.07857805123754 70 66 70 
84.30366186301056 13.30070680819028 33.414061815271864 83 81 82 
89.69145338107664 15.26291348302976 29.734715489374977 101 100 98 
91.38325814690702 15.317693761150837 27.60352630981278 88 79 81 
91.64595301799118 13.379470008018298 27.585559437480242 221 217 221 
99.5761798122378 13.166298920347618 21.41529021231183 110 104 111 
91.12692942458489 15.52759152293524 28.57044197193585 95 94 92 
109.44835789078546 9.359482174628159 28.954092561323208 162 162 172 
106.9176405701746 14.541152701258596 15.041859475334064 234 229 226 
106.9806343437458 13.765822445009022 15.282529627341034 118 100 101 
102.20972571397313 5.120645981422873 22.923107401206224 210 208 221 
108.38117912204076 9.911838537137438 15.1337281725624 86 84 95 
108.3033799556622 9.92843343856034 15.058856391232581 110 108 119 
107.20928788559928 14.91482250139067 16.468074981349147 212 199 205 
104.69561230738394 18.417836564800602 15.875176268048904 83 66 74 
109.14181347767996 9.975555949853778 14.747788189060387 92 88 102 
112.9591771427923 11.390705639745791 10.845576669858943 172 173 177 
111.99032043287494 11.6190463530651 11.613801191217334 76 75 80 
109.05671789695933 8.923485584338366 15.442543368574974 219 219 226 
112.6726550806617 11.953783332081521 10.845995748819988 139 138 143 
114.76901610143395 21.531712580775192 19.552530469307698 222 223 230 
105.92987870973121 15.943585578938276 15.277727954253038 120 109 111 
109.27496078478883 10.627085625981127 14.024191337792246 117 117 125 
112.4170131104918 16.592010541262376 10.213435770422691 116 115 111 
112.74052007984443 16.703763013597996 10.119300514956691 116 115 111 
110.16067149054818 20.237169847383782 10.701214301524644 78 68 68 
120.50371483946819 22.38873783473496 2.9664357301888344 150 152 164 
107.43358798926182 15.945129933742017 27.67883089062977 140 123 116 
107.74592325002723 14.050605012894522 28.033056216556673 109 92 87 
107.71793898717851 14.166026356581696 27.968783607217674 133 115 111 
115.32095697374936 18.308001813069872 2.4956884514562887 153 138 125 
113.17836249462252 11.586576998344135 10.634315743833355 170 171 175 
114.68352092336072 21.45079393400355 19.552335236897918 211 211 219 
114.68352092336072 21.45079393400355 19.552335236897918 211 211 219 
113.36634137761457 21.608248824881393 20.04692688706497 152 152 162 
112.86165763630503 11.597627767508714 11.01263402313414 162 163 166 
107.53737559627513 15.145115764331294 27.945547405321975 112 97 93 
113.39562054304021 21.745274472323466 20.952804508654424 161 161 171 
113.5771508701549 21.731802508494575 20.399282264442903 34 33 49 
115.6687616287302 21.404837869390303 19.716903620403926 72 72 77 
116.14719625984081 21.817323204782134 20.27032476544281 77 77 87 
115.3985630395567 21.710147412987652 19.668104714843324 222 222 232 
115.99930063739485 22.042426342147294 20.407716263225907 144 144 154 
116.3737726586333 21.367058008100273 20.832997534338574 236 236 240 
116.07466498019657 21.489663055887068 20.852399923744613 217 217 221 
116.12757610755882 17.799101157598443 6.1024131913318485 139 119 108 
115.54742335268847 21.803102747185232 19.615905860199106 221 221 229 
115.42821766635087 21.783195527931777 19.717010900892305 221 221 229 
114.6861240776019 21.178834821032527 19.366212722101906 209 209 216 
114.56453578854813 21.54158836513742 19.60615336050293 217 217 224 
114.5106207600649 21.533452390555286 19.644927173779664 217 217 224 
115.2226451828051 18.31753166201071 7.684049348333389 126 105 102 
113.10067273496057 17.07405738701066 9.914495084928362 101 91 94 
101.93933539451618 7.422856617163541 21.504951759922818 70 69 83 
110.34401542533591 10.765832099180532 13.111755094760909 96 96 98 
84.70090261040791 13.183024394649095 33.033127840999455 149 147 148 
105.46270163107191 18.60401948977007 15.036268076734572 119 106 101 
90.5584389497962 2.3813203092884043 32.16722751095696 173 171 177 
84.52152033479557 12.83690093364253 33.175754236312414 190 188 188 
85.00231815985133 12.645435628569995 32.93165287931883 164 163 161 
106.95799858698152 14.983190355075765 16.57176237440332 208 204 207 
91.67322385362004 13.379477381801035 27.57492771958026 221 218 221 
110.11853851997115 10.735181502346308 13.336492173921883 156 155 163 
92.55012638179339 10.79177058244641 27.641834953375778 210 205 210 
93.65795709890355 7.7325419401201785 27.676780156457383 217 212 218 
92.70497475109894 11.65028874718957 27.36859547463044 88 86 89 
94.26208934261007 3.9232234355372775 28.869496228830457 97 95 100 
99.44189905815134 14.005749288762377 21.74026339805198 83 70 81 
100.13018309121409 9.960358933082013 22.22868440719948 90 76 93 
101.96706028747775 6.262876774316829 22.115440584313887 105 98 117 
111.89973721644988 20.75199679781541 9.48854228263528 76 71 75 
98.66429554948084 15.198738817431773 21.340816703064263 215 213 218 
98.98752726865649 15.291117369479789 21.19160860324176 215 213 218 
106.92698634800267 16.96603994360018 27.51935330424041 144 129 122 
99.1508775940383 14.761311690152809 21.328832469590992 102 97 103 
99.18653257386264 13.615068551363764 21.52373194216311 99 93 100 
109.15551884750951 9.210829974646678 28.23519816904532 143 132 140 
109.12961571648731 10.243820784109825 28.390192577974716 100 87 95 
112.89377737601872 11.352412457845189 10.86757538154771 170 170 171 
108.07046131806064 14.568436103183261 28.698472158315056 199 201 198 
111.3860330311407 11.098897504697982 12.163377819654016 152 151 159 
107.2729746197503 17.11101117251527 28.245269583573133 229 219 223 
111.81280992119764 11.090699377714476 11.622099444831775 161 161 165 
108.1431306381785 14.13832807442168 28.326455289851722 229 215 215 
109.55918608430851 9.733190788482577 28.192640879145827 97 87 95 
110.72278206131682 11.567162941157632 12.670329105943054 135 134 140 
109.73200929868113 9.822651764588029 14.02475747361278 110 112 125 
112.4692073463588 10.500051830942972 11.520058047830261 130 130 142 
108.97765736166338 11.101033457591285 28.83645212678657 138 139 148 
109.77849714612746 11.554308833439347 28.733740122994647 92 90 101 
106.93757171410311 16.410568027718334 28.419286025919817 163 149 148 
108.91760166969887 11.598586254866602 28.407680092141447 83 72 78 
117.1579698815744 15.399362453870738 5.450434014932782 191 177 168 
107.5229288822682 15.264222950954512 27.785340686932827 154 136 131 
112.3241527515311 11.863384026563331 11.260072373117893 129 128 133 
108.81693015180059 8.979065730904892 15.635767945362105 209 207 218 
115.61066712756278 21.70423655344679 19.593004559218713 223 223 232 
108.84621359045681 11.684471424229383 27.92259409931377 106 90 91 
107.81798862336028 13.630263699391785 27.706963347693772 120 108 98 
108.43761603106563 15.023907843712566 28.29178886652933 166 167 162 
115.36890974152459 19.37705584577619 7.061753712860408 115 95 84 
110.21582666669306 11.584082071874496 12.931248434214453 150 150 152 
84.56244598020555 8.818830629020884 35.24304616785099 127 115 118 
115.10594477853296 18.842939871579212 7.50248327758564 119 96 82 
86.72950046686984 14.423963374663025 31.883423680524288 110 109 105 
105.70458036163681 17.626443517091666 15.330173229183913 86 70 71 
94.66127976884695 3.7729344168714123 28.72931081558845 85 81 88 
85.96099384121824 9.184008500021147 33.118397735800045 137 135 138 
86.31678480165795 1.653712891742952 35.51238060251846 149 143 145 
87.20567788938612 3.520094750498756 34.37959143302095 74 69 78 
85.55107277492297 2.2943588358537124 36.092004989731265 145 140 143 
95.09896492205073 1.7321583879057485 28.87068154131852 120 120 123 
94.03300887356444 6.921358041376213 27.457061215040596 83 81 92 
85.5407344434376 9.607006625811213 33.25540658478306 156 154 157 
85.97593852754855 9.498571586089401 33.05952356566431 128 127 129 
92.81586196431604 10.42106986358866 27.707905513880064 94 83 91 
99.308210583431 14.079471348525596 22.599200014594587 132 123 134 
109.2885799748038 11.571453836494516 13.742133463017652 131 130 135 
93.56786646785662 7.703296179167905 27.72457436187736 218 213 219 
108.68237400904155 11.788641916321808 27.84027848143876 144 130 128 
94.50226642575623 6.831960047248316 27.109324944701427 126 124 135 
94.31357543813925 6.747246171993711 27.21795002798605 126 124 135 
107.09020779398128 15.055309414186045 27.562252489008813 149 136 135 
102.62590695123154 9.550285161450144 19.679869356858788 134 131 136 
94.85505363309672 1.8084638763880339 29.167542367911025 235 235 237 
94.51986242265538 6.9624130712273296 26.918722138517225 73 71 83 
110.49319386427389 10.881524135533128 12.8631586316274 141 140 148 
109.17667205960129 9.02345394693862 29.531245804433354 78 80 93 
102.41846056709282 8.202035159271283 20.330491588454947 70 69 85 
107.34671218138027 16.920676936680216 28.179460399943963 72 62 67 
115.82418219105014 22.316038670400243 21.61023879341124 205 205 215 
102.76691691408774 4.24206741671588 21.94164703530251 103 99 116 
116.063369788087 22.187309830469683 20.502803586709746 53 53 63 
116.13541899689048 21.84031482717728 20.776137074126865 65 65 75 
116.05122127307828 22.4155053438445 21.728858905757292 31 31 41 
110.79881713700836 10.492764424008609 12.838041260170058 106 105 113 
110.17026311302283 14.354447958086316 28.74923657529247 136 116 109 
115.95488609876054 21.782266834676715 21.567344711078633 199 199 207 
109.57266161558536 10.933884827850918 13.66529740694935 99 98 106 
115.95715209911185 22.26738870570022 21.232933259060786 220 220 229 
115.94754010322019 21.809259058051406 21.84386375178235 43 43 52 
110.3711565200254 12.726119172472101 28.528033889053233 133 112 109 
116.00173265584777 21.99327460143668 21.363984452396735 175 175 185 
116.20691800067618 18.10715185212007 4.6637468778663305 137 117 110 
110.86981626488979 18.01589926201843 28.995737181852874 73 72 77 
115.8493998199724 22.06552123824149 21.750148916645827 206 206 216 
115.99990000664647 22.400158384139708 21.245056136246532 202 202 212 
115.8721497639168 21.93092014957226 21.758223948369945 188 188 198 
116.15029181534625 22.01747142491856 20.996662007511404 125 125 135 
116.15029181534625 22.01747142491856 20.996662007511404 125 125 135 
115.97247239949054 21.334817668069082 21.60764958593836 70 68 79 
115.91853273777319 21.795388887572493 22.05641944364399 111 112 118 
115.80547917007215 21.769213530122034 22.149635992542898 111 112 118 
115.9620053678681 20.86469401865766 22.592260504212533 76 77 82 
70.9671461059676 5.774484017764009 47.56982154147812 66 73 71 
90.73757703074355 2.465272816217472 32.062003075867324 175 173 178 
85.86890171483948 8.865158684409929 33.26922252769188 104 102 107 
84.5230725618907 12.237755659433706 33.279610664566846 183 182 180 
93.55659619978037 8.184355817514444 27.868452871912822 100 95 101 
92.76485073470676 11.380658967429806 27.182947779708968 113 110 112 
94.83022634086663 3.87401560259117 28.63702406946959 93 91 96 
84.76960709279021 13.052625612539167 33.216296719453055 73 71 72 
109.94826341673384 10.270770199165332 13.55210264502 103 103 114 
88.43022614411989 13.62351914277304 30.441263241314005 189 187 188 
93.92209165531209 7.072616426605173 27.640846684037683 92 90 101 
108.10099547946018 16.43528894431695 28.39196564628267 104 103 108 
92.13042554264662 13.14686073004033 27.64199258585478 91 89 92 
91.77113505612115 13.053385550286272 27.832059821126734 91 89 92 
108.65814414145979 14.018666392938554 28.513872887707194 135 112 110 
109.30062098338215 9.561076505770036 28.909088977950432 86 83 92 
110.44670947841263 12.806411402379418 28.969078546204443 116 95 90 
109.50737915547994 9.35202415432862 29.101085860552217 85 87 100 
98.05543493188559 4.691933835618642 25.62256975669412 177 171 174 
106.88592010826724 15.859418280080321 27.37276388425289 115 105 104 
107.1162450432651 16.510493258697213 27.75447592616854 153 136 128 
111.4689380908451 14.107064081893967 11.526380839892056 119 102 95 
110.53862051193148 11.352555209085955 28.725261547942395 94 97 112 
95.04049216151705 6.957021676222677 26.561324516779464 147 145 151 
90.07991136057686 5.576425277785246 31.074953001496226 111 110 118 
88.26527425379301 10.357509884046292 31.19513244953339 153 152 148 
102.1950587885941 8.885440095399506 20.29275425175082 95 95 108 
99.97480875629566 11.003502386472473 21.80490048052293 88 76 87 
111.14609897372272 11.132038528929696 29.322807648131686 113 115 127 
107.28633474229277 14.903813911533415 28.820105220583926 103 97 98 
110.01770127727214 10.973684870494786 13.063969633299223 72 71 79 
100.38431497946924 10.63081354036915 22.744847699919262 153 145 151 
112.2633321871115 12.870770317015191 29.284431378640193 168 152 139 
111.7163894429253 12.507639156374104 29.09514370621524 104 89 89 
110.61007541468172 14.711077768643953 28.673998939606193 145 128 119 
115.97218968875578 22.22345788213883 20.718189451289845 100 100 112 
110.67464481022138 11.890887455695882 28.92409048410103 95 94 99 
110.61185998670858 11.408898724877 28.670277815389625 94 97 112 
105.53502436846126 6.920027410482176 18.966016400098056 124 118 122 
103.31522963312486 8.957284709882472 19.207767056381996 88 86 96 
109.66813747546462 8.777698988745462 28.005787672644956 167 162 163 
116.03690087136596 21.790703905661907 20.793040230054885 75 75 85 
116.36081191611774 17.58273621344024 4.93519931379106 152 135 125 
115.98809601644706 22.343284934762508 21.162948256090885 210 210 219 
115.4418785212217 19.692614526947093 6.6837628726559615 157 137 126 
112.03799876276312 11.775757156257553 29.4761900403457 87 90 104 
112.03799876276312 11.775757156257553 29.4761900403457 87 90 104 
112.82337131709829 18.013829108008064 29.53784055347421 88 92 95 
114.73450553253612 22.27888034868718 26.133613766178797 44 45 50 
111.83321214466811 18.23171306842626 29.200224934121607 106 107 111 
110.17328192317892 17.046633415211936 11.753110301376509 114 113 118 
114.86879908779952 21.597390868101446 25.94431602866443 214 214 222 
114.78109148100508 22.087574367475405 25.710311413737216 228 229 235 
112.60656823315632 12.252846769704789 29.693073251343662 177 178 182 
113.21763239531249 16.69218904865818 29.875197917088798 182 184 182 
108.26201895157973 14.420822774412532 28.26221813384589 71 68 67 
113.39352806234122 16.24617695240864 29.85897394711627 186 187 191 
112.9180232941241 13.096892237620425 29.432016100113785 166 155 149 
112.63675475205419 13.000777902500237 29.396679013489944 175 163 155 
112.88538164263015 18.309056528792773 29.43950192920245 147 150 154 
113.92339787596671 13.42580197352626 29.61927009487657 171 156 153 
111.41468940175422 12.567462033003038 29.357608200490716 176 157 153 
114.82167862030681 21.973243316424245 25.90329372122565 68 68 76 
114.19350263182424 13.005470303810501 29.875465118611416 111 110 112 
114.9300287669133 21.84254739596193 25.727961449932707 176 177 183 
114.83268944247239 21.82222831753287 25.8192908105422 176 177 183 
112.98139687915965 13.312222364595595 29.20431516152317 144 128 118 
115.73691198336644 21.41784117741401 19.99846226488826 207 207 215 
116.66833506856702 12.969611284055246 8.095546296136405 142 129 123 
114.27116195227956 15.750583117287679 29.49064602416705 144 125 114 
112.82270095968718 16.83849074826025 9.935674091145742 71 69 69 
114.28731973289382 21.31078090609212 24.75960118200088 88 87 94 
94.90775391859823 5.686064437993003 27.64344218168617 77 76 84 
92.67353081684448 11.138327299171578 27.771927564281768 91 89 94 
71.95938538849325 4.756664251608534 48.27048399499709 97 98 85 
71.02121109011199 4.061901562883185 47.643155253575515 111 120 103 
111.39389006228926 14.921461105889193 28.98368744378233 136 123 120 
95.68157657799145 1.4912573020085 28.419644668627754 141 139 149 
87.06077587909091 3.081622239134627 34.69575014046829 227 219 228 
88.44463130148895 5.083300501549703 32.390315758533234 107 105 116 
85.45094091258753 7.720917417146303 34.837250366130405 121 120 126 
94.71524449625792 6.724332779494201 26.885541601594966 100 98 109 
91.75761782090389 12.711985019894584 27.73366168572835 93 91 94 
95.41229601188267 2.179287679080784 28.31150202486195 125 123 134 
114.21245748392523 15.052878405163762 10.293285376563759 130 113 106 
109.43706427204569 8.730829746858157 28.68629974717865 79 81 94 
109.21405059559052 15.09213211498678 28.481748669335076 126 125 130 
110.5440735546187 17.84851558545396 29.364210775870802 78 77 82 
109.62740573886742 8.403433587200066 28.367073407577607 223 217 217 
109.49257957565538 8.149782031904001 28.312023577816063 155 149 149 
114.26398019830164 20.290368506462624 27.24337992622185 155 138 130 
113.02475364972409 19.95000307325803 26.40013535485069 41 41 44 
113.33303265628496 17.01517802464989 29.29275562956704 72 77 81 
115.04225328027395 19.191198943044995 29.077341321034567 176 175 173 
114.67625133286685 19.424424382269073 28.724188424450276 237 231 228 
114.7332214334524 18.70312373272112 29.080554835598022 234 234 232 
114.33127171401588 18.99523349079874 28.893355938576406 120 118 121 
114.95719498484374 22.03367032599742 28.03600556584024 241 233 228 
114.89340044758804 17.962697911052857 29.14906095675086 227 227 228 
112.94114521501267 18.06574458260308 29.409186987959615 104 103 108 
114.86051279831304 22.33046907808297 26.34405172564547 75 69 73 
115.37649113041098 19.546930411805164 28.823871595094076 173 168 167 
113.14441292030746 10.574620601057912 29.73298700293614 185 192 199 
