-157.8492240242864 14.778102362769992 112.81504499313183 255 255 255
-157.5562045033522 14.803580888285463 112.45717578637596 255 255 255
-157.12495753932524 16.699307760039808 114.08394411388859 255 255 255
-158.7446066354949 15.868009363619631 112.73911992941483 255 255 255
-163.06438892924922 15.079130886435127 114.89554662897142 255 255 255
-159.0524326344165 17.033219000459887 115.38533756527457 255 255 255
-141.60435680674536 15.566172544241324 125.72290990404963 255 255 255
-135.17874475006363 8.219088734652544 140.07236628539326 255 255 255
-149.70025667184623 19.323017689762796 125.99871301512141 255 255 255
-141.69733200306177 17.121173001147167 151.47858581318425 255 255 255
-142.64242923190835 18.070895770444093 137.22069701937622 255 255 255
-154.08776915548188 15.28165062582308 134.53663436523382 255 255 255
-154.706583884983 15.547023731352699 134.64873749962072 255 255 255
-153.2566291547561 16.006933816905995 129.9402292304562 255 255 255
-142.26096589901337 19.2047603037109 124.39920712294658 255 255 255
-227.8149197919056 26.626866617150846 148.66900881392652 255 255 255
-175.59375377755873 25.980334438771727 165.32923066599122 255 255 255
-151.9796194731882 18.371463780070357 157.41616031477767 255 255 255
-155.86119282638532 14.795854462691691 128.47475834249187 255 255 255
-153.40692172418863 21.151456133698648 129.50191123439808 255 255 255
-158.41681684608108 14.584391483910625 136.405764344342 255 255 255
-156.67121999732223 17.262249732796782 118.68066663317286 255 255 255
-151.5397519736985 20.84312653434296 127.31509490633783 255 255 255
-178.88011438588222 16.539888679229005 114.24294628104326 255 255 255
-258.2586954669575 17.936311619182842 149.40427026595836 255 255 255
-225.49536101162653 27.662113991752424 152.24093600846948 255 255 255
-257.70707301815173 22.531997651671006 123.00916056381465 255 255 255
-225.04965840404628 27.69073563785872 164.18796373531197 255 255 255
-146.96597612778675 18.407697681184914 150.02111044302714 255 255 255
-145.6890611067634 18.655189362420987 151.4359414145091 255 255 255
-146.73741137314482 18.27472416544258 151.07957224112891 255 255 255
-156.21167013828608 15.566794780714588 115.1949673451726 255 255 255
-160.154609105095 16.089784929431815 118.0169819156084 255 255 255
-159.44377592881148 16.13911249786974 115.06347790131065 255 255 255
-156.73828865702438 15.164466647182984 113.51345152339034 255 255 255
-193.06263402602207 15.964360738775014 123.5291734383212 255 255 255
-156.29039957281702 14.811713465308937 113.64355066746324 255 255 255
-240.55969496509343 22.950701416127814 127.30194654302976 255 255 255
-223.82252003245912 27.871316942394394 158.55557586416901 255 255 255
-156.21738107370936 16.015653129398956 114.68854371338534 255 255 255
-157.29959967400174 16.485702054541616 114.35285059123105 255 255 255
-158.12853429452642 15.319186221965202 112.38889891707676 255 255 255
-157.5443927726036 16.408940713919833 114.77866047111918 255 255 255
-158.9084034383563 17.411578760599618 120.39903625363355 255 255 255
-157.07631142735204 18.85822404118166 114.06004219858364 255 255 255
-161.38195451710715 24.64291228574688 161.246921841749 255 255 255
-152.48234264404473 15.867118103205318 127.78315336339894 255 255 255
-158.05843060314908 14.491759290523701 142.0450048220525 255 255 255
-158.7892271714075 16.802325028424683 122.00496795453662 255 255 255
-160.17970975777496 14.59181224558318 137.01817568232642 255 255 255
-147.72324594812744 19.443903329617918 115.96691742097532 255 255 255
-189.2681322465293 16.318685008091258 116.11417426415966 255 255 255
-256.41802232094085 17.722259594815206 152.23541550849316 255 255 255
-246.95373008285554 24.190794246347895 153.73770820296585 255 255 255
-160.55413799024512 15.616068991398365 144.3366335786362 255 255 255
-236.6488050220829 11.04486280912758 137.31999492079316 255 255 255
-192.8412139453118 22.491556192604676 151.44082232829263 255 255 255
-223.1323179738869 25.718900012931467 166.91433578916823 255 255 255
-154.74237903488276 15.046350507903828 125.38443601987365 255 255 255
-142.0531608323824 19.229078924588276 124.54335791621708 255 255 255
-148.33137494826752 18.93119797401162 132.93719483954123 255 255 255
-142.9220298647895 19.975592978458046 126.27882771234562 255 255 255
-149.05113929334595 21.105437757695945 132.40414453997892 255 255 255
-205.8059148542381 17.137438846589625 128.37518335796844 255 255 255
-191.9408393607954 19.66420187096557 114.89717883128583 255 255 255
-136.01834954786642 11.161528922845307 139.8286055194489 255 255 255
-138.04139110967577 18.065577900207334 147.1415675080453 255 255 255
-158.1219862512651 16.771584315451598 116.18221920330885 255 255 255
-156.57822672769538 14.656893930744596 113.1509323088586 255 255 255
-156.96136738083908 18.644096231245364 113.28747591004122 255 255 255
-155.53481603398592 20.438499042390582 130.60960910289413 255 255 255
-135.28735636326053 8.773224114464297 141.39326173063668 255 255 255
-142.17813067939016 17.141538598094517 139.43116220585568 255 255 255
-134.6454193801199 11.485647920649575 151.3313126524796 255 255 255
-258.75169184953336 24.922673770117612 129.9523593672792 255 255 255
-134.82534073039608 10.812723464403888 153.87705501238463 255 255 255
-140.243616339266 11.776095635169092 150.61473485595053 255 255 255
-199.07997286961003 9.830934875697293 125.09428850046773 255 255 255
-242.5737681650541 25.902380968620264 152.45975933669146 255 255 255
-232.01756113642548 11.215642278988955 132.9313547859328 255 255 255
-247.54179621231793 23.619543890961506 125.56031837132139 255 255 255
-157.1534722961522 14.647031006530442 113.53562768051833 255 255 255
-153.48342783033263 14.26957705422519 127.73334129839277 255 255 255
-156.02475819090833 19.285579711569323 121.9299796545684 255 255 255
-143.4790891106239 19.71137793638071 121.9045511388026 255 255 255
-135.39850529586653 10.187215267790645 152.25617854368699 255 255 255
-138.02431361833604 12.683978108220646 134.95916592319767 255 255 255
-136.89316298155927 11.595723159872444 154.5905432842872 255 255 255
-144.75455524812344 15.351009082414425 138.58054490159117 255 255 255
-142.84778524175192 20.43367358842829 135.85181736957986 255 255 255
-158.60260428817838 14.819219365974506 148.68898768985935 255 255 255
-157.7748403654676 16.148199600567068 115.4424006662503 255 255 255
-156.51334771512035 14.645737929312501 136.1977936831406 255 255 255
-156.97907603121246 17.479403039298283 118.36508241502953 255 255 255
-154.17012002007263 13.865777168491586 134.40273811759332 255 255 255
-153.58783008531412 21.529520039399426 133.63958593329534 255 255 255
-167.52316937669696 11.395846974131493 138.9106859551491 255 255 255
-149.47821460397654 16.68656814005824 115.15324121439451 255 255 255
-162.58157187567517 14.817532815068628 136.7113399993837 255 255 255
-178.52494473583621 15.25607074535452 125.6640634293861 255 255 255
-158.29532080366988 23.78799438847313 155.0202048739455 255 255 255
-163.809828774543 24.30218566975828 155.75645142472283 255 255 255
-135.5733444252873 18.228754291841046 141.47721064855966 255 255 255
-142.47561507313236 20.12993918133014 129.91629535641943 255 255 255
-142.9777397008212 20.609573612763818 135.46029601647473 255 255 255
-156.34333918471026 18.637793876405507 115.95917170527932 255 255 255
-155.44686098272115 14.287031137680426 130.40526684189177 255 255 255
-155.43456103545543 23.724596026062585 154.37675883107332 255 255 255
-134.71207283651367 20.945163766669143 145.88800443341998 255 255 255
-157.59479190086546 16.993292085377874 114.66366342795251 255 255 255
-158.6993487990176 16.748556082706465 116.90767498663888 255 255 255
-247.96032255559072 23.504551447792718 126.68148341831602 255 255 255
-153.82778796791195 19.74340048859581 123.71152089296228 255 255 255
-161.29831398790523 16.465031054339285 121.61159248939501 255 255 255
-150.44338072534757 19.33450080129073 113.35020609693552 255 255 255
-159.09000873346196 16.430693441982996 119.00755722832666 255 255 255
-161.2433199590323 16.46005646714427 116.07018292803434 255 255 255
-143.28909056483275 20.74755662583369 138.63229265447237 255 255 255
-152.60860424778613 15.565078646411912 129.91523816556415 255 255 255
-153.53723462559577 15.214081068138725 129.97880671084323 255 255 255
-151.25874782507776 19.447390776035217 114.25902986381477 255 255 255
-154.04254649985893 21.29976872285587 141.6602298528821 255 255 255
-159.94072935766633 23.723917216176957 160.81664051869012 255 255 255
-150.55209605900404 23.193720201297854 156.93916496074104 255 255 255
-134.74391760559843 20.918116491947824 145.71719117504296 255 255 255
-134.7969857366325 18.532392896646282 150.05416473124367 255 255 255
-136.42665344819994 18.537947735624627 146.96261295350754 255 255 255
-148.51375346528488 20.79222248294644 144.8738799944607 255 255 255
-175.17849064571453 26.159909072305613 168.44879625572153 255 255 255
-146.89579407207975 18.357420424233077 150.33363995866765 255 255 255
-159.5356412523479 24.708150560840924 168.92972178762201 255 255 255
-175.87484570145438 25.94030819900068 164.89610337408405 255 255 255
-144.9839164406252 16.037907833242812 139.94861378264218 255 255 255
-139.84341134094325 18.66986825554791 151.54961630161043 255 255 255
-146.0414567235661 15.966478732812844 144.73289306784142 255 255 255
-148.82921330903386 23.277849008188433 158.2448886300865 255 255 255
-147.81098361462472 21.1335304093899 132.4954599617947 255 255 255
-145.8172564261434 15.825535743666368 144.07727408112214 255 255 255
-169.25600464616696 25.79362049697655 168.6799482565086 255 255 255
-169.21963117160993 25.76775552533394 168.60166325244205 255 255 255
-146.3334640188479 16.150029344771937 144.69174919167247 255 255 255
-151.9771588982805 19.87950248525707 139.6122071324559 255 255 255
-144.78977812519508 15.71304625607015 143.990624625993 255 255 255
-251.01675491746886 26.341754574010274 155.77015176024213 255 255 255
-248.22241732697722 25.799084413639388 138.90229522433563 255 255 255
-242.83482423029466 25.736297106815503 152.2630987615381 255 255 255
-233.52590693885176 28.39735840457678 164.82236208585462 255 255 255
-150.25657716156067 19.52954654863341 153.69663680304748 255 255 255
-134.7561805113337 18.701079747480694 145.65373536757068 255 255 255
-144.74868394043654 15.19473526823987 138.98298286266106 255 255 255
-160.79182324929974 23.8076681688715 151.63897504066503 255 255 255
-145.30892053433672 16.98064719464771 144.1380439627876 255 255 255
-146.07639330310798 16.99841939631947 144.25628324565744 255 255 255
-143.00724028340193 20.69901428199766 136.0059883188919 255 255 255
-149.06302385289223 18.40919075192741 155.8095701580288 255 255 255
-151.7985833257506 19.719248246366426 138.83306926989272 255 255 255
-144.42973666262355 16.303392439493567 140.3947278705 255 255 255
-145.1558584459931 15.823756522268301 138.76187847002583 255 255 255
-162.70314144314685 20.785966826256114 168.52516424665816 255 255 255
-163.04944806293705 24.33296874821851 158.55569842679054 255 255 255
-240.8241545530912 26.6772172053864 139.13540802604965 255 255 255
-230.88509141758306 28.176312579372812 158.19922239324387 255 255 255
-218.92460949733632 27.876269517628813 162.2122513251685 255 255 255
-251.07956729377997 14.815961966842256 136.66734270632742 255 255 255
-146.6185568905587 16.704733037812414 126.17758526218633 255 255 255
-143.37871901972107 16.429110436512154 136.35037207704582 255 255 255
-144.9876572396413 16.06513150775965 139.72079176681413 255 255 255
-150.42305843284527 20.1006127105467 133.16799583216704 255 255 255
-242.87630532342342 26.8062252151069 138.8255793695139 255 255 255
-220.28664823097378 28.022055522915498 163.22352965769286 255 255 255
-249.72120875772166 27.714464612949975 150.35127590057186 255 255 255
-247.51919399620013 21.43673512840909 149.33865415352196 255 255 255
-233.0600306417079 28.22871616227222 163.64631622942815 255 255 255
-217.97896325544076 28.29914121767543 168.13567683242184 255 255 255
-250.14286832133718 26.259698799762944 167.3328189501034 255 255 255
-242.09001438255302 23.03316799496429 157.6544920996488 255 255 255
-149.61492909470152 22.19033640207256 143.32749223977433 255 255 255
-146.81410575527653 17.04504230939889 143.96714084650904 255 255 255
-160.54931928308275 23.733619459760884 150.9529999986243 255 255 255
-144.94225675298998 16.17362955880306 144.2990424613463 255 255 255
-144.10068190514727 18.613374381074145 143.5137638166147 255 255 255
-144.8534450603634 20.673847792695287 130.76975469168593 255 255 255
-155.0675747684609 15.334224492616418 136.0983168009533 255 255 255
-154.30623153127965 23.356093925088622 153.76496500899742 255 255 255
-154.0154311167713 14.736236232502538 133.4126813858624 255 255 255
-130.42269156059646 19.973928079891756 135.20578466922342 255 255 255
-148.78540044687918 21.78731708524629 140.50728614347284 255 255 255
-154.45498064063995 15.301459356027026 131.06340069862932 255 255 255
-150.41280486005343 23.20019081063548 154.4463333315511 255 255 255
-138.65769521099398 11.027614770122588 158.83142844049968 255 255 255
-146.9163077831102 21.170841335515547 134.46510984972886 255 255 255
-242.41036268222268 25.661204161518214 152.4039699571187 255 255 255
-207.6952127672692 27.7762635151341 166.6238055674245 255 255 255
-257.8339858890014 20.455891484460036 159.7185737102938 255 255 255
-145.5831859748717 20.981236507765885 133.84324842262942 255 255 255
-155.14099501789968 22.052070588529343 137.79190563193242 255 255 255
-260.93611813153325 10.14083141531395 167.64858704901155 255 255 255
-144.65487191086447 21.818166850597965 145.0355119617232 255 255 255
-133.3342468043526 18.05598974883332 140.2773177225653 255 255 255
-146.2522396172891 16.150323331219614 144.44287053266243 255 255 255
-132.8558634412788 18.03419259927138 140.89303349625055 255 255 255
-164.82153339734685 20.60563251651751 168.49577604936357 255 255 255
-249.93478037813134 26.309332962911164 156.28505243469817 255 255 255
-221.4455391537119 28.333197498014247 165.7766639654944 255 255 255
-149.78677294349706 22.425048126107345 144.33886198672963 255 255 255
-146.8209583896213 17.22777427609452 146.07324456181 255 255 255
-145.29524726925177 22.006114375995217 143.2552469680763 255 255 255
-162.75628334546565 24.891661589696195 167.18402669032253 255 255 255
-146.79235282391974 17.18909632256104 146.30035299374927 255 255 255
-160.16774496820818 22.27362746783899 149.29230664718676 255 255 255
-256.3332545530651 18.843102304266715 124.64827036932837 255 255 255
-219.93823047869157 27.80777120663259 162.45820487065862 255 255 255
-162.72334982143553 19.84111652513993 169.07578465840942 255 255 255
-153.03022547561307 23.57440804719578 156.08617604815208 255 255 255
-250.72199899483093 26.162294892191003 151.8201192330809 255 255 255
-256.47366777372446 19.62188618778468 160.1611173110536 255 255 255
-237.3490533890768 26.70179939660666 143.4709433020973 255 255 255
-189.15121539302766 20.73330696292946 166.3228739281102 255 255 255
-237.70254168414104 24.947678178042835 153.89966918185698 255 255 255
-158.07848044045704 24.87641359444738 166.08360749388933 255 255 255
-177.92402755783823 17.91098494629515 163.588562899066 255 255 255
-256.3966438132052 16.697309090932194 159.82321077740403 255 255 255
-251.5985362902991 23.91784732426933 137.73989078303927 255 255 255
-150.55991461279706 16.39086644523453 160.02998002075734 255 255 255
-149.65055647306292 19.493875807791994 155.91709116922772 255 255 255
-150.83729947231117 23.691571515929862 155.61794480570052 255 255 255
-169.38416899438448 20.927630630764934 167.32665070705806 255 255 255
-158.20676205062597 22.226535492269996 146.81536129104958 255 255 255
-146.86861543936274 22.404505203268457 148.13618845809896 255 255 255
-146.7320641426973 17.222373709106183 145.88808778057748 255 255 255
-144.62986831335206 18.205774742876574 154.69424186137877 255 255 255
-147.4141943087081 22.549002093644173 147.90365992120792 255 255 255
-171.9912409241433 25.832191226658853 166.14319403569493 255 255 255
-162.13506890574706 24.861389604189252 163.38096505722982 255 255 255
-161.25758805562128 21.085700178003655 167.36169511885439 255 255 255
-152.6630430074041 23.08017542228498 149.9967509914341 255 255 255
-164.89986324529346 23.893491133926943 161.46314575566598 255 255 255
-225.6051768702041 26.63778028551432 152.02004359345023 255 255 255
-237.6352856839427 27.45274927391552 148.34476888769683 255 255 255
-242.3842663965716 22.610998441195854 158.94229768328762 255 255 255
-163.51943619329887 20.966847041063573 168.7208301648085 255 255 255
-161.93677591919106 19.890294462388873 166.9852608979632 255 255 255
-151.03216379984113 17.96030579886135 158.66080891567753 255 255 255
-145.1249016623586 21.818318719177213 143.3038946366443 255 255 255
-256.60204183935775 18.70770461400559 151.03660456351122 255 255 255
-227.4908722587234 22.17488351566744 143.82997347909583 255 255 255
-146.65622396041397 21.667863136717923 141.81454350298517 255 255 255
-148.6609657421277 22.260445550142517 142.34199817042185 255 255 255
-162.39665835091958 19.918128570754707 168.35693565405708 255 255 255
-164.17304870313797 25.46152872650303 167.02230262799407 255 255 255
-169.86380902301312 25.629561649774054 163.5744304261202 255 255 255
-149.83432197802222 16.203990112933667 164.70681531267175 255 255 255
-158.31349874368928 16.532603840231523 146.26064550399624 255 255 255
-144.54512895294943 21.440117683740482 145.00577804073555 255 255 255
-144.80306533629252 16.069658532745702 144.76508967685515 255 255 255
-145.17218614459858 17.435604712122093 144.73554146268137 255 255 255
-151.28947341161592 23.442590578544575 155.19905930196873 255 255 255
-245.80220197915605 23.387892394490663 129.72953504063074 255 255 255
-250.1684938503276 23.37433443509645 131.48743167349372 255 255 255
-160.92351358608846 22.407626461572697 150.1184964377145 255 255 255
-242.2861778014019 21.10890165590871 167.32234345010784 255 255 255
-144.1098473340396 21.03318666184092 141.47647956700234 255 255 255
-176.57374476954124 25.977496389422754 164.49948893850245 255 255 255
-237.98982245897795 27.466519991433117 148.27574059475788 255 255 255
-238.1140727463669 24.108944592202732 140.4844607494817 255 255 255
-177.26332413839492 18.005104395630973 163.27085454287916 255 255 255
-145.09495472799654 20.585996546441372 129.97720060428912 255 255 255
-145.11375766353356 20.711003302737087 131.08561634648584 255 255 255
-146.6516470197372 16.882470380554985 147.01584388994803 255 255 255
-160.87267590398278 24.67767244559985 162.02351014148763 255 255 255
-177.82806160334022 17.921869820081234 163.57055394699506 255 255 255
-151.1751787623367 21.262001114208555 131.9675051549081 255 255 255
-154.90884616874098 23.745558906744332 155.99037759083515 255 255 255
-159.10007937772775 23.86232638562001 154.79039196664735 255 255 255
-154.71522916916336 23.810405861882128 155.4069873806362 255 255 255
-154.94781911205843 23.78683492938356 156.0915759585319 255 255 255
-176.41496889887767 18.250624959166608 163.53473742109063 255 255 255
-164.92905241273752 25.566989503718712 168.38524698558285 255 255 255
-145.44559643806303 16.09311489212276 143.9969789445172 255 255 255
-135.03777268704093 18.551380113293256 149.69678916077942 255 255 255
-147.8323329432651 21.05908705306918 132.26872547250207 255 255 255
-143.42525249740163 20.885829706710712 135.35750815221007 255 255 255
-146.82183610950761 17.063915532613027 144.01316140525267 255 255 255
-144.3632868235695 15.977552791234523 144.8781008794805 255 255 255
-241.2275183125058 23.253970870458268 153.29527610659196 255 255 255
-251.68397102630803 25.48343768586541 155.16492391176178 255 255 255
-253.58697096849227 19.746482824868416 150.4970089962618 255 255 255
-185.40961299325448 19.773693029123265 165.6357193844918 255 255 255
-143.02724376576498 15.130318707588334 131.43244069727575 255 255 255
-150.87669818527252 21.451306649048053 135.94214360862483 255 255 255
-144.1845346615928 18.610403301870345 155.28005865064011 255 255 255
-170.79983510463586 25.71254892859935 165.60728812468113 255 255 255
-145.70936655551495 24.02912295642355 165.95839529042883 255 255 255
-143.23175806538546 15.01588918435302 131.30638797899593 255 255 255
-225.31478637297778 27.67958235751434 163.52212258446042 255 255 255
-252.59188769353946 25.453934933233942 154.9301213315116 255 255 255
-220.79423654792396 28.24574106073507 165.82747698309765 255 255 255
-253.74284458318527 18.352710548220077 147.35380738389466 255 255 255
-222.44714475289013 25.8207194573436 167.00294777919433 255 255 255
-147.8640925556189 21.014167051806133 132.0867911512387 255 255 255
-148.92474617095542 23.775468714081157 162.3122334052552 255 255 255
-145.33969089763536 21.176072612258668 134.84080718635633 255 255 255
-150.0272184232635 19.16078457552664 136.03265622950943 255 255 255
-152.94280799027524 20.85660986130442 137.7725823512756 255 255 255
-151.49829006954275 21.965138436953136 138.94541244822682 255 255 255
-177.89725888274893 17.882237229106956 163.59660258603424 255 255 255
-141.18790719279025 18.046477573018997 161.55900640261382 255 255 255
-146.60219261575992 16.84482114877874 157.7650064728372 255 255 255
-159.95253592574835 22.95574159004758 151.38805527701695 255 255 255
-162.63304130986643 19.57716563324072 161.01963149931544 255 255 255
-156.5389708171478 15.950923623257141 141.70259451017924 255 255 255
-240.28535805929772 26.612984637859707 139.2506278998614 255 255 255
-228.1182037638307 28.107490825349274 165.08557444646746 255 255 255
-259.0325732891167 17.835863237636836 141.26233449410142 255 255 255
-152.6362158007788 16.650041569851755 127.22199212228126 255 255 255
-138.9853866499089 19.736746770757406 129.98030450441294 255 255 255
-142.75425820162008 20.914395900139148 160.85716510773673 255 255 255
-141.18577079909733 17.928912789639604 136.234560393536 255 255 255
-157.09493413588507 23.260555471560824 151.5062220588862 255 255 255
-162.61802990043748 21.85245188929481 167.25346224646816 255 255 255
-219.66714674467383 27.75423779015976 161.3624669481325 255 255 255
-259.26174946607136 10.704153053377048 159.317027738766 255 255 255
-152.95224921531383 22.305104206040127 142.46530601421998 255 255 255
-143.4372362476153 20.73364259012639 156.79877507184403 255 255 255
-253.24653105783702 26.69371211215824 136.55889717599223 255 255 255
-146.89539842320102 16.98877997612271 157.0842022670736 255 255 255
-157.5744118703392 21.302811497934528 150.68058168729843 255 255 255
-143.0488942608705 15.306658833826305 133.2513280016791 255 255 255
-165.45784837978994 22.868412560819966 163.0366378271836 255 255 255
-142.503040321161 17.25109940502263 132.59245187386168 255 255 255
-144.70738035189967 20.762240421739953 130.76620119650613 255 255 255
-145.04639716608506 20.740549301379918 131.29969867760872 255 255 255
-144.92357330793413 15.762494154718567 143.54605448251192 255 255 255
-165.35242690533647 24.623734924433922 157.66943060980327 255 255 255
-157.61622957986532 23.56808182105118 152.96213248585454 255 255 255
-134.19244214440232 18.105416618039673 140.45562814348182 255 255 255
-145.73396670424097 20.443769865090204 152.64599545568643 255 255 255
-145.46184228751258 16.091012185265733 138.70788681488975 255 255 255
-145.4563982914033 21.65743031493058 163.40894713935273 255 255 255
-143.97825353071062 20.835841257700675 141.98083803908293 255 255 255
-179.12115766030666 18.644834547639036 164.6687499677659 255 255 255
-156.5398693477497 14.963961222968061 137.27006443700708 255 255 255
-146.31793263417126 17.125278506857097 142.2330583970718 255 255 255
-135.653982114722 14.367625827242055 157.2298028940672 255 255 255
-141.97743660102734 20.108209928137484 130.5573996166648 255 255 255
-142.3520078304021 14.459404105118228 131.55100426572074 255 255 255
-156.72225124699816 15.96169956732745 142.04736619403198 255 255 255
-142.42657026659384 16.239271950862936 127.43890894176593 255 255 255
-143.5980229824511 17.082668133026594 144.91833848889667 255 255 255
-154.13629671849915 23.768586214678205 155.7052762010728 255 255 255
-144.8214587426973 15.443461658435648 144.55429074348203 255 255 255
-147.97459070237358 20.89612027491225 131.48254619559782 255 255 255
-156.6280429225967 15.947791511646837 141.8441657649622 255 255 255
-143.0954209853117 21.04272488650322 140.59482151479892 255 255 255
-149.68745980157047 19.937939632087527 131.49061307388573 255 255 255
-150.75040749561842 21.528953612907483 135.83538751560522 255 255 255
-244.88564308993216 23.710493432034955 153.0068804173593 255 255 255
-147.42657783191572 22.559122992964184 148.0450431853835 255 255 255
-159.77498081274484 22.24166150522561 148.82910291074603 255 255 255
-144.09733385022633 17.67619310025187 154.31265830997972 255 255 255
-149.07787282276075 19.7979418095515 156.08073965914303 255 255 255
-161.56616160935914 24.225932005097484 157.9265446779546 255 255 255
-242.87232266605025 23.029448083494948 157.43024918238876 255 255 255
-227.10838837762296 28.565773737832394 166.17042767762882 255 255 255
-245.8759720880663 23.706880975645717 134.74063013978156 255 255 255
-219.4260002615975 27.75973273149803 161.6043612570831 255 255 255
-192.1311757983336 26.853317480776784 167.50146538965197 255 255 255
-186.8099516204187 20.256936237959714 165.6779842197559 255 255 255
-236.71202422159797 24.095205536006837 145.6840569080708 255 255 255
-247.00062472455534 24.44803868100408 134.93298440930627 255 255 255
-150.56796932310735 16.468723445198563 160.00475043430882 255 255 255
-152.17069742191987 20.04815326500458 156.69782195248982 255 255 255
-171.08381378506436 18.06722685864348 160.35063198320844 255 255 255
-160.57395038030296 22.74783728106408 151.10131884714744 255 255 255
-170.86486957087158 18.071152691287477 160.20168078873547 255 255 255
-151.54171858641462 23.678374461649597 156.77135019955517 255 255 255
-158.4404791347572 23.951045564922765 154.0121952774611 255 255 255
-251.12836613206142 25.423758762966138 134.56762674094568 255 255 255
-247.07280424449596 21.514926545586995 124.23311313125964 255 255 255
-248.00482386417497 21.57237548536826 122.58961221763457 255 255 255
-248.95042271129782 24.807570971065676 123.58907980688029 255 255 255
-152.5384279027472 23.49646380669939 155.6539589857358 255 255 255
-156.3687223819311 23.552870258173193 153.13390149630575 255 255 255
-233.64672075076507 26.18973778428832 143.52887826448872 255 255 255
-248.17099331320262 26.28230860541975 133.03166120808564 255 255 255
-250.72404467872323 26.979436203771307 138.07280045800422 255 255 255
-233.7608788657204 26.44738130277974 133.2951520097202 255 255 255
-241.61605430411535 24.607603770799322 117.32698278567011 255 255 255
-217.86441967239682 27.842844286488813 168.30970446897553 255 255 255
-219.15826159783478 27.552391847172508 157.55921324855376 255 255 255
-249.41610841311768 26.13225928200326 167.34251782784582 255 255 255
-166.35194059739308 25.60259750090968 168.62117124555863 255 255 255
-247.8076895906317 27.314180925142928 142.7110775109195 255 255 255
-173.50134150116065 25.696469412457606 163.0969784761427 255 255 255
-150.24781689752785 23.516554448981747 158.59239903451254 255 255 255
-155.25820443066425 23.606993457902064 153.85447531759607 255 255 255
-161.67094321597256 19.92476550550864 166.59162538860488 255 255 255
-166.74999695332053 20.780259965352677 169.04344641647603 255 255 255
-150.1287068642959 23.888949250081264 160.75701899882904 255 255 255
-157.98638078767954 23.798685349373706 153.1485763177207 255 255 255
-247.50370581714094 27.776901398290576 149.98174947853715 255 255 255
-145.70446918597804 24.04537392239876 166.01885192522548 255 255 255
-162.20358163618334 24.87179901028654 163.43640085483943 255 255 255
-258.57230535036996 18.045470757854666 152.04031111301802 255 255 255
-258.43147726783354 13.321979484822439 165.1861777943729 255 255 255
-259.08760965209837 12.861294408756706 163.57459078824886 255 255 255
-188.20235171738057 20.748887171788216 166.2461875781751 255 255 255
-242.65608078434263 27.71255720804881 151.09470830583865 255 255 255
-257.14098051749653 18.320587108087842 152.81540655892655 255 255 255
-180.1853234741671 26.110117222635598 168.04512271034355 255 255 255
-253.94164853731024 26.32110876749504 133.4438524127913 255 255 255
-255.87483330922328 16.599694960184344 160.34875759142565 255 255 255
-155.0243609523675 23.189601439802413 151.98403633106938 255 255 255
-171.9520353383242 25.799405312928904 166.12095836020782 255 255 255
-171.54916953183 18.011775608109932 160.779308556659 255 255 255
-218.7259577843213 27.727897896203785 159.91915966239773 255 255 255
-257.0959063439809 18.829303257550407 147.51493170234386 255 255 255
-220.86089983334264 27.921963919895035 167.69436154200744 255 255 255
-239.10034558474788 25.33232751084934 119.14278281644735 255 255 255
-239.71300800585692 19.936158057302386 119.25748464429046 255 255 255
-171.11115678255933 18.118741520834952 160.44757540216722 255 255 255
-142.73148983768067 17.969764241290346 156.68091379836193 255 255 255
-146.13597254949102 17.703027645601196 145.5236179771398 255 255 255
-260.20240995273065 12.685554472952223 163.4737778170075 255 255 255
-157.46360059232097 21.7889716102865 145.94213217851262 255 255 255
-148.65816747466215 22.228635214583228 142.21905790531224 255 255 255
-148.69627165256557 22.107257077616136 141.76884833449265 255 255 255
-217.07839975303924 28.03026084050433 164.91091079120008 255 255 255
-240.90232856791738 25.862417194253165 141.7299666970842 255 255 255
-258.96303692610854 18.58982164529051 149.77299954858944 255 255 255
-241.27630438068616 26.773544489662278 140.25967891258887 255 255 255
-250.85431547847978 25.997091252936514 140.49355778741364 255 255 255
-251.35164721907057 25.615939999313404 138.13129959988098 255 255 255
-202.43596226610038 27.641368466139163 168.2711515712607 255 255 255
-258.4713009020676 15.914332756837808 159.82089402760224 255 255 255
-158.86122749241588 22.35083845006458 147.64567051173802 255 255 255
-150.74317065269096 20.36317183448674 138.8183713126843 255 255 255
-163.4294116252027 25.07035028857526 168.4343797734883 255 255 255
-239.80665270662647 26.946286928900747 139.25096622162195 255 255 255
-217.50905652964823 27.75564996010404 162.43013063818344 255 255 255
-249.49763604856096 26.94970421511742 151.84010555907344 255 255 255
-240.43040502326474 26.57539071756556 141.58703700386502 255 255 255
-240.73051917394966 26.53202612768657 138.53835754433547 255 255 255
-248.0141062429955 27.293549834896535 162.75494491055412 255 255 255
-151.46296039478653 23.698708111334675 156.78954201051505 255 255 255
-149.4472222117148 20.81019082649425 153.2962045256091 255 255 255
-145.31753452711263 16.460833250208417 144.8752830393399 255 255 255
-258.34218087070474 16.06636379564055 156.8750735501511 255 255 255
-152.06624819632412 20.129568387986023 156.8179505822456 255 255 255
-156.745555766562 19.874970700389223 167.49924186029253 255 255 255
-231.28020269289334 27.21706894113638 143.9854945886154 255 255 255
-228.5945341780797 27.103617182998597 142.46728575399817 255 255 255
-151.61403388487395 22.818642383406015 148.09935637926804 255 255 255
-143.91933760896194 21.076793963643166 141.94392652188708 255 255 255
-245.39760918269496 26.334189986111017 131.0113344055432 255 255 255
-151.5320957506926 23.78532056419767 157.3148548023455 255 255 255
-153.95834114772458 23.74925041342538 155.6244136311988 255 255 255
-158.03110515419763 23.673167051326317 152.0497771475096 255 255 255
-144.7319523826329 17.624868517225114 152.78062671054664 255 255 255
-149.6241834722614 23.038827943405455 153.15667211613524 255 255 255
-161.66298356258758 22.923598914389313 152.28005148382766 255 255 255
-162.16902712284505 24.644148555910025 160.59810203731467 255 255 255
-160.8987214801403 20.194299729008264 168.5208945435178 255 255 255
-233.64352048639645 28.12404980717533 160.32202780334572 255 255 255
-252.80043735511433 26.276452816429543 167.345733834829 255 255 255
-232.99266636077323 27.974810170889285 159.26469836798023 255 255 255
-153.06064311482527 23.714194405775537 156.19002290651378 255 255 255
-155.6746659024957 23.399088273317822 153.06714719229169 255 255 255
-161.02781583339987 23.87640751978364 152.04515173304597 255 255 255
-245.39275136518145 21.403740117425208 135.43811077047204 255 255 255
-256.1051835292325 21.055332797831543 128.41771868215005 255 255 255
-229.53023563398034 28.1200154014008 157.54996585781132 255 255 255
-159.05462335816847 23.52551540041616 151.3285645364399 255 255 255
-144.80382912188395 15.2759836143722 138.73255095956858 255 255 255
-148.17259895435546 21.011128673134387 131.95238465388718 255 255 255
-174.2785460914696 26.005289197075637 167.0463995223638 255 255 255
-176.58693334469393 18.21584301673183 163.65379056322956 255 255 255
-162.08820369368763 24.422458621414798 158.6642546978771 255 255 255
-220.7589407601963 27.63150537730955 157.86167173144165 255 255 255
-226.46940382610615 28.064093730636927 162.56002355875637 255 255 255
-242.8909387563453 22.983800808205444 157.42639243019403 255 255 255
-246.27079928110092 23.9365640086453 146.25548537556827 255 255 255
-244.36329097898732 22.972808312231713 154.20547834381787 255 255 255
-133.73184639750497 18.241314480240774 153.988976990208 255 255 255
-159.70026577858738 25.019580211261875 169.09269116873517 255 255 255
-191.61493198195407 26.15286860659984 165.73997511124668 255 255 255
-143.99154531664345 22.504095445126197 153.99406296038097 255 255 255
-259.77735137341585 7.698743005834714 161.0809599386708 255 255 255
-257.5802411774796 18.317921639079863 151.60554832887328 255 255 255
-157.5708075134167 22.882404419379256 147.34731677905145 255 255 255
-137.7517763861719 17.827170637180117 141.04387895024476 255 255 255
-147.9095469449439 20.95241657924967 131.8062188012522 255 255 255
-174.96381406409245 25.87080731078343 164.95326503078275 255 255 255
-145.01138360341594 20.61116875690361 130.55090835228884 255 255 255
-142.64336925487464 20.16474694655007 128.27620838697226 255 255 255
-145.5055038061754 17.63510153880059 154.18973683564153 255 255 255
-256.7952540656606 8.578626870163056 163.27136940508245 255 255 255
-245.08685984443997 22.35798080577993 158.11418788854678 255 255 255
-144.65666616976972 18.23184813517772 154.5751952245123 255 255 255
-246.84140519970884 26.37617431803806 131.32627148573636 255 255 255
-250.1970493422967 24.716863147670118 122.14129338808121 255 255 255
-258.2377183072531 18.190808895768022 151.49931507287653 255 255 255
-254.75647994612262 23.683629837666146 134.72242721514522 255 255 255
-140.2714381348543 20.10385158821307 133.01269792678693 255 255 255
-157.03662135219804 15.761580163653537 164.6364034812062 255 255 255
-171.61142819785232 25.616325893115267 168.195389189081 255 255 255
-151.94295132380375 20.804204168994076 127.42294011551556 255 255 255
-149.13801483148987 20.984029467896622 131.62275504323486 255 255 255
-178.48929414951294 25.202462469456517 167.34446114087254 255 255 255
-219.54707029661245 27.634464022233082 158.92746691974708 255 255 255
-149.0837460923844 18.56407153876979 155.0448342327871 255 255 255
-246.86053208988028 24.29846062057416 121.85709791963151 255 255 255
-220.87040535611123 28.252805788268855 165.82414947460086 255 255 255
-140.88104375515542 20.376577624730007 132.65245076585418 255 255 255
-236.70180312953522 28.513339531361375 163.1068305569455 255 255 255
-257.22709358861954 14.679342617005776 125.59091516506051 255 255 255
-238.63227558936256 19.595440414509056 135.57914920126225 255 255 255
-252.91506706815403 20.638969451465414 163.14315314143164 255 255 255
-237.51284706215029 27.712331454503726 156.11539106894858 255 255 255
-229.1608276288518 27.126425599909126 142.7686025737495 255 255 255
-178.93492787520086 18.663986054691872 164.51305967336958 255 255 255
-225.72166360222752 27.746368781898155 161.1095324368969 255 255 255
-231.44240400177105 28.197317054649865 158.05108742702774 255 255 255
-173.14630979150178 25.726203048386402 164.96162508569716 255 255 255
-157.39038604867403 15.972204125649226 114.49966560785595 255 255 255
-158.35216185438327 14.506307616197994 112.43726655308578 255 255 255
-131.88093304530443 17.983717955335514 142.15765868840853 255 255 255
-141.40736124427994 20.280564384010795 131.9761549201926 255 255 255
-144.4512544912435 21.282138010827875 141.4872923510843 255 255 255
-144.8837044382163 15.577803226868884 144.05761521567143 255 255 255
-145.7159050349403 15.679157507612773 144.68319814425263 255 255 255
-144.29550363634604 15.652079882403545 144.5393742804469 255 255 255
-146.6599450566233 18.00838556089032 136.06180637477547 255 255 255
-257.68697001634405 20.421797425314896 159.69270007505122 255 255 255
-256.77011804680745 17.964356872506738 151.50000339495438 255 255 255
-252.79983705657637 26.31968367591724 134.1521912923647 255 255 255
-251.44993000662095 26.28168236763123 155.7139937828779 255 255 255
-257.70976892223393 15.596679762413032 156.79806006530475 255 255 255
-155.6302567222667 20.44734963935784 163.43492619158474 255 255 255
-144.1003409600006 15.590093398383425 129.75969868071306 255 255 255
-146.5489773366203 22.62673229894536 154.0113866868377 255 255 255
-137.7041340764143 9.941417197408057 157.43429912482955 255 255 255
-149.6352805651293 16.885597056075376 159.54021426295907 255 255 255
-157.46554664439458 23.577117330918895 152.34307356595036 255 255 255
-195.6081608454944 27.163002361539718 167.31254341768434 255 255 255
-142.38609716928926 15.571718393983524 134.02477302997758 255 255 255
-141.37436133856124 15.084743352141837 136.09182730727625 255 255 255
-154.36630577257938 23.417979425954126 154.9947816801659 255 255 255
-156.81261021315484 23.293823034796738 150.17430360503977 255 255 255
-143.6131567891831 18.56630599926887 153.64800481721548 255 255 255
-163.21679357139607 22.129956727591125 169.09189432792726 255 255 255
-237.1634372571938 27.98492176587825 156.5467019342472 255 255 255
-253.54693812086998 26.79607824250983 130.87191340327635 255 255 255
-159.34559330308667 25.185325698386972 168.70418446000616 255 255 255
-176.6549056399163 18.23302124892084 163.73217247844795 255 255 255
-143.1169443618704 20.699274362958267 139.11716139592397 255 255 255
-146.16792065762345 15.996416437036151 145.18693070098118 255 255 255
-145.0692585231443 20.598800955631283 130.15275689710717 255 255 255
-149.0814252455523 21.078788873302248 132.17906518224333 255 255 255
-157.59746462835471 23.5801590881833 152.95454390342954 255 255 255
-231.28147079135766 26.50691962150432 134.12408406165562 255 255 255
-237.40495600140957 26.708715614938058 135.4298641116229 255 255 255
-142.4708358450179 20.4572389635281 132.61693187424137 255 255 255
-155.03258258061965 21.17501880906938 137.18402526723582 255 255 255
-142.22392240500488 19.687940937981548 124.50453121132759 255 255 255
-145.41023239947287 16.22693002564259 137.22402387672946 255 255 255
-155.47228216511968 14.074511165245266 127.51448490233275 255 255 255
-153.05109886252575 20.4750851604293 122.93012650944496 255 255 255
-151.41413097800495 21.587256483718065 133.91855067869201 255 255 255
-240.85415721557985 23.982668732435737 126.23493310404834 255 255 255
-160.63533026462738 24.66553235695786 162.03983543137974 255 255 255
-156.00209363683211 23.895131438962846 157.26737457332888 255 255 255
-142.37403655004033 20.02511254107868 129.83804660068083 255 255 255
-230.2316405734172 28.161537745322835 164.13934894296847 255 255 255
-226.41578198396337 28.36237562980859 166.60511276567016 255 255 255
-147.49785866375026 21.329937836140125 136.1370024242077 255 255 255
-154.30042141734555 14.81255055552114 129.2389498453283 255 255 255
-143.26287170349332 17.097303512598607 134.2952468901307 255 255 255
-154.70857195213586 21.798265601000534 136.26220467539022 255 255 255
-149.06105790765594 20.21544577224621 133.9804748602052 255 255 255
-158.5420595651625 14.549162363203354 137.27271738452788 255 255 255
-254.04540334711498 13.397103893631648 139.49942896047222 255 255 255
-171.85623663466887 19.774030361916342 127.23786480692627 255 255 255
-149.97536091929908 19.990161317774565 121.32831722803408 255 255 255
-165.24341832844297 15.86900495509802 143.38486530534078 255 255 255
-211.46854769009386 10.848770967167344 126.86210873942429 255 255 255
-159.07705510335978 17.152259482581705 115.25073422132763 255 255 255
-153.08116958147951 19.581936533711442 113.43943920424022 255 255 255
-158.0528647254167 15.241947483589158 113.95290937787185 255 255 255
-160.97424025355951 15.331324683005601 112.75196455250642 255 255 255
-149.77417436740564 20.80099048616964 128.87565997914248 255 255 255
-155.45523522491573 15.629095567255725 135.72375684217886 255 255 255
-144.6113775045826 15.593775139738375 145.5214253838102 255 255 255
-156.77307482142382 14.608498533124704 130.0453228445948 255 255 255
-157.11212669953323 16.81676825474496 114.28814952772035 255 255 255
-219.2413356959352 11.253982470487884 140.12803821437296 255 255 255
-197.56558552802812 20.163902270832242 119.99378832741922 255 255 255
-178.15580182457245 13.528447218233584 114.25479378685625 255 255 255
-145.20495729088987 17.09603186879665 147.9847383866779 255 255 255
-144.50161536569135 21.856521507250118 137.88252123170884 255 255 255
-152.74009574288408 23.51342682696786 155.99057948851342 255 255 255
-144.75434578941895 20.501504735388096 135.5912024562137 255 255 255
-178.7368500139953 15.96458285906468 120.03596616823147 255 255 255
-259.2219825487309 25.503076415624992 132.06782515116618 255 255 255
-230.40569456877964 27.91746257150527 159.34781212549944 255 255 255
-251.74710257949636 24.37490959008712 132.84834666184372 255 255 255
-229.8954675623393 27.501394818547197 159.46940086219735 255 255 255
-157.9367712740103 16.20809270465121 114.97453117829063 255 255 255
-157.97995755732143 15.799844553337554 115.3286912990604 255 255 255
-164.7572284986257 15.21613003743171 136.1795896918254 255 255 255
-154.81148838243328 18.644819429162325 118.91578689566063 255 255 255
-151.18340982108722 19.461699511132643 113.06434033660923 255 255 255
-155.81220627232057 19.255906184456475 118.75447635256515 255 255 255
-150.7170615713812 19.3120024152232 112.77395715337823 255 255 255
-155.26718035472157 22.35240104962642 140.09106094483033 255 255 255
-146.721238703153 19.852914839768324 120.35634400632067 255 255 255
-152.4158678546304 16.690989472502757 123.26812559996894 255 255 255
-155.73471502871854 16.097789869000398 134.7783090581104 255 255 255
-156.12029993677996 15.383321808437943 114.3318620466538 255 255 255
-256.48697989817913 13.897291270851404 161.39190076897142 255 255 255
-160.15914189342507 28.94485414213984 164.20299130541127 255 255 255
-148.6695242370231 23.918960949480443 149.47451821059363 255 255 255
-136.5358220479402 8.334865925565868 140.96547309331226 255 255 255
-135.51788985227216 6.239275718478762 145.0429153727063 255 255 255
-161.1098221279414 15.426633844170158 146.25491700358936 255 255 255
-142.56671605840575 19.478394223032357 124.14269762999038 255 255 255
-165.37296857452853 11.464120214551961 163.63911274811764 255 255 255
-144.66393581447042 15.403693328557974 139.17023608886927 255 255 255
-146.61526433658193 20.018445066259876 122.66749271246482 255 255 255
-154.510274032577 23.54732025222125 155.042155193556 255 255 255
-135.5949987868472 6.868702780141236 141.34685133209027 255 255 255
-136.5773092997394 18.21930151456976 141.09571083191867 255 255 255
-136.63712129027527 21.289015529947065 144.88803578043107 255 255 255
-137.5295223701841 9.590132453569092 156.09144535019493 255 255 255
-143.45718500914808 15.43588591504955 141.542320949121 255 255 255
-156.92012948723652 16.71113641865736 113.73702704462235 255 255 255
-158.53819576242955 17.04712873595286 115.57063143803536 255 255 255
-154.5465451951433 18.940650234694658 120.28395469843518 255 255 255
-152.9958768297783 19.520284595030173 113.19957861203241 255 255 255
-157.25527728054945 16.913109150141224 113.7263921392011 255 255 255
-155.4833429743337 15.651417707590772 114.11406979392302 255 255 255
-157.06704494120044 16.90702441130495 118.38832939724823 255 255 255
-155.82011880846173 15.256791499815925 114.20275853011627 255 255 255
-159.07508273111662 15.06403656536291 114.70593613110076 255 255 255
-157.14154706134354 16.97116332614468 114.13360524724641 255 255 255
-142.91038477052012 19.236437274748862 120.83704430889223 255 255 255
-161.0738345771519 15.593731594987393 141.50149603915 255 255 255
-153.82078734878877 15.010583977385817 128.07696187821676 255 255 255
-143.39531380268488 19.379453425225112 119.94763552365559 255 255 255
-160.36760234638692 15.45739203995484 114.15470930247103 255 255 255
-160.0095089061554 14.45342932533186 112.8205215145009 255 255 255
-138.62239546479395 11.929846972355971 155.60380970519907 255 255 255
-135.94964012365003 11.684643692392545 152.7325742150054 255 255 255
-157.03102001884923 16.875823641853323 115.07233203512321 255 255 255
-168.34779967623965 14.588505738170342 117.01677352646081 255 255 255
-157.01512505495958 16.73328751555511 113.82917025378481 255 255 255
-151.17896545828796 19.34527147855429 112.6579385043459 255 255 255
-156.98320572320472 15.764369765766176 115.55676137505101 255 255 255
-147.76945544367538 19.405110881208106 115.76387418217112 255 255 255
-147.79859422520104 19.408683411112087 115.6774347876975 255 255 255
-160.4053772017721 15.670468498174092 114.61186992642669 255 255 255
-157.5812997027483 15.271889004182832 112.24129544014947 255 255 255
-154.30952603989448 14.350045310219011 125.6647349299256 255 255 255
-160.0852273471644 15.554204705200638 113.52892921169394 255 255 255
-231.86540235365658 28.071959298487467 159.38582067747674 255 255 255
-251.76814882735493 17.67576232333764 125.12980949236845 255 255 255
-259.16581412852423 18.390444454970723 146.66217102740876 255 255 255
-256.5562828350155 26.542703846559423 130.61058618828602 255 255 255
-196.2183279802337 23.815251728033676 163.89537108075675 255 255 255
-227.39258281454022 19.678521415762283 122.13662581189216 255 255 255
-190.6139555191178 15.87850672456468 122.38174983972827 255 255 255
-157.78767309447977 15.358637968320087 114.08316481311134 255 255 255
-162.23531510892138 15.570553843982747 112.48334536663408 255 255 255
-166.5188607255821 15.112095468029423 148.88284037053563 255 255 255
-150.36750455316422 19.375293068721135 113.5555144322844 255 255 255
-246.9117566917491 20.748055033978083 127.9628210388152 255 255 255
-162.5396562306728 14.483472322233139 113.14236111986993 255 255 255
-185.4811045980766 18.318890313729234 120.09205572610756 255 255 255
-160.34719690795663 16.36258052730805 118.97970341784776 255 255 255
-154.34823781809402 19.512763161418818 120.52809713762375 255 255 255
-159.47506467746464 15.442345794704963 114.75141068852429 255 255 255
-159.2504158137984 15.270689848526288 114.66028021356534 255 255 255
-152.30011800065463 19.59539563331436 114.3682411476409 255 255 255
-157.61064893406308 15.144354359286764 112.66321186626972 255 255 255
-152.33191378433003 19.64352406926126 114.58069912636606 255 255 255
-153.53169399720232 19.513088694297377 113.4184700221398 255 255 255
-243.16665255168428 11.899450155693593 137.00262014871427 255 255 255
-196.3207192145274 12.671654310840237 127.05727637176362 255 255 255
-158.50856616271292 13.740898672996783 131.22567641207118 255 255 255
-157.90000032392678 15.155507131003992 112.99503454514453 255 255 255
-191.37613701752178 12.321760748318402 120.74002160240526 255 255 255
-156.35996623994413 14.706552837398464 113.82563565994379 255 255 255
-154.84634681531054 16.42978039190303 113.18580801700418 255 255 255
-144.26584360078976 20.96283158169139 133.30839812647932 255 255 255
