-111.31892395019531 14.86985969543457 152.74563598632812 255 255 255
-146.55372619628906 8.124780654907227 131.8114776611328 255 255 255
-114.6718521118164 15.37660026550293 156.9848175048828 255 255 255
-141.77178955078125 6.721101760864258 135.94268798828125 255 255 255
-125.52952575683594 17.506254196166992 143.91156005859375 255 255 255
-171.56521606445312 4.013956546783447 116.87167358398438 255 255 255
-148.25929260253906 7.170304775238037 131.04734802246094 255 255 255
-110.9801254272461 16.642608642578125 152.0670928955078 255 255 255
-113.29917907714844 13.716694831848145 155.335693359375 255 255 255
-113.68836212158203 15.461613655090332 156.43215942382812 255 255 255
-127.27608489990234 17.083070755004883 135.0154571533203 255 255 255
-129.5432891845703 17.815954208374023 143.05860900878906 255 255 255
-121.22399139404297 15.268533706665039 160.21456909179688 255 255 255
-134.89892578125 16.798847198486328 135.4015655517578 255 255 255
-116.50899505615234 15.6410493850708 161.2505645751953 255 255 255
-127.58110046386719 16.74660873413086 135.679931640625 255 255 255
-114.48469543457031 15.928009033203125 157.164794921875 255 255 255
-115.33939361572266 15.10340404510498 156.57774353027344 255 255 255
-111.51870727539062 18.02805519104004 151.77670288085938 255 255 255
-146.47879028320312 16.78721809387207 124.28169250488281 255 255 255
-158.65867614746094 9.774426460266113 123.40707397460938 255 255 255
-160.00344848632812 11.722444534301758 107.46427154541016 255 255 255
-108.35520935058594 16.74030303955078 145.15524291992188 255 255 255
-108.20921325683594 16.768583297729492 145.27256774902344 255 255 255
-117.7153549194336 17.137130737304688 148.211181640625 255 255 255
-114.52562713623047 15.489838600158691 157.19631958007812 255 255 255
-111.57466888427734 15.039505004882812 152.171142578125 255 255 255
-161.95375061035156 6.233132839202881 120.42217254638672 255 255 255
-145.62411499023438 7.583123683929443 132.56983947753906 255 255 255
-112.44176483154297 10.90572738647461 147.46836853027344 255 255 255
-148.3179473876953 16.711200714111328 121.51748657226562 255 255 255
-155.1892547607422 15.189074516296387 110.95214080810547 255 255 255
-165.07102966308594 6.995477199554443 116.26888275146484 255 255 255
-160.04898071289062 9.889893531799316 123.00963592529297 255 255 255
-126.688720703125 17.783166885375977 141.962890625 255 255 255
-125.26271057128906 17.912229537963867 142.44541931152344 255 255 255
-115.78569793701172 18.89838218688965 159.39605712890625 255 255 255
-111.37696075439453 12.825154304504395 149.2026824951172 255 255 255
-112.77348327636719 8.940540313720703 149.27854919433594 255 255 255
-113.15625 11.90235424041748 148.1829833984375 255 255 255
-126.94532012939453 19.38571548461914 144.41641235351562 255 255 255
-145.42617797851562 2.1599316596984863 96.443359375 255 255 255
-148.9657745361328 14.09485149383545 102.98128509521484 255 255 255
-113.19711303710938 15.044018745422363 151.51577758789062 255 255 255
-116.23693084716797 14.423255920410156 160.19284057617188 255 255 255
-143.4853057861328 8.657264709472656 133.33499145507812 255 255 255
-111.32972717285156 16.088150024414062 152.80331420898438 255 255 255
-112.57916259765625 15.709903717041016 154.7975311279297 255 255 255
-136.8126983642578 8.337369918823242 137.93609619140625 255 255 255
-159.36109924316406 13.248102188110352 120.03324890136719 255 255 255
-111.76513671875 13.316370964050293 152.37132263183594 255 255 255
-112.47057342529297 16.61688804626465 154.5621795654297 255 255 255
-158.49085998535156 10.23316478729248 123.67100524902344 255 255 255
-116.86126708984375 17.099483489990234 148.81687927246094 255 255 255
-134.4907684326172 14.807490348815918 138.28286743164062 255 255 255
-111.79475402832031 13.34536361694336 143.12844848632812 255 255 255
-109.39364624023438 11.49173355102539 149.7730255126953 255 255 255
-114.04560852050781 16.790077209472656 141.44552612304688 255 255 255
-112.18305969238281 12.419548034667969 149.07275390625 255 255 255
-112.04759216308594 16.0715389251709 153.7002410888672 255 255 255
-134.8135986328125 10.483670234680176 95.03616333007812 255 255 255
-140.9733123779297 15.216225624084473 104.1492919921875 255 255 255
-134.91958618164062 12.88885498046875 95.07670593261719 255 255 255
-113.98628234863281 9.166670799255371 147.29827880859375 255 255 255
-113.1797103881836 12.147018432617188 147.9173126220703 255 255 255
-109.55603790283203 10.2401762008667 150.07017517089844 255 255 255
-148.86001586914062 9.485809326171875 93.9569091796875 255 255 255
-111.50392150878906 16.05171012878418 152.70420837402344 255 255 255
-114.16299438476562 16.700193405151367 141.3537139892578 255 255 255
-108.7024154663086 14.849709510803223 145.31414794921875 255 255 255
-112.07763671875 17.05571937561035 154.76815795898438 255 255 255
-114.97391510009766 15.607707977294922 158.512939453125 255 255 255
-113.64137268066406 13.718888282775879 155.5890655517578 255 255 255
-113.21235656738281 18.162996292114258 149.80357360839844 255 255 255
-160.47720336914062 5.715660572052002 118.9617691040039 255 255 255
-114.66949462890625 8.638154983520508 148.48573303222656 255 255 255
-113.74945068359375 18.613086700439453 156.98350524902344 255 255 255
-110.67842102050781 18.202604293823242 152.57858276367188 255 255 255
-113.49019622802734 12.234999656677246 147.76840209960938 255 255 255
-115.420654296875 18.89112663269043 159.51832580566406 255 255 255
-114.7376480102539 13.83902359008789 157.15634155273438 255 255 255
-113.78475189208984 15.36868667602539 155.94024658203125 255 255 255
-112.31633758544922 12.099632263183594 148.29344177246094 255 255 255
-135.6156463623047 8.916810035705566 138.5251922607422 255 255 255
-131.15814208984375 16.00702476501465 131.4086151123047 255 255 255
-157.3553924560547 11.391273498535156 136.7132568359375 255 255 255
-161.3863525390625 -1.1036021709442139 116.60272216796875 255 255 255
-146.8013458251953 -0.6666269898414612 111.01268005371094 255 255 255
-145.71409606933594 4.14968204498291 92.86620330810547 255 255 255
-131.35842895507812 14.000171661376953 131.14186096191406 255 255 255
-149.08010864257812 -3.0108370780944824 105.64396667480469 255 255 255
-151.85003662109375 6.311755657196045 129.29566955566406 255 255 255
-111.6043472290039 13.575477600097656 152.46527099609375 255 255 255
-109.44629669189453 9.957197189331055 149.95777893066406 255 255 255
-114.48713684082031 9.65060806274414 148.7008819580078 255 255 255
-112.10700225830078 17.548860549926758 151.34962463378906 255 255 255
-112.14551544189453 15.012782096862793 153.6893310546875 255 255 255
-112.3235855102539 10.075345039367676 148.97105407714844 255 255 255
-113.9202880859375 18.418766021728516 151.13519287109375 255 255 255
-116.27716827392578 16.401622772216797 160.5778350830078 255 255 255
-111.42475891113281 15.588807106018066 152.7410430908203 255 255 255
-150.46759033203125 1.4939736127853394 128.7756805419922 255 255 255
-112.46330261230469 17.86394500732422 147.18011474609375 255 255 255
-113.08251953125 10.451258659362793 148.65724182128906 255 255 255
-114.78645324707031 10.050984382629395 147.36239624023438 255 255 255
-136.35731506347656 7.693727493286133 138.3931427001953 255 255 255
-163.52444458007812 6.2454423904418945 118.71475219726562 255 255 255
-122.32778930664062 15.513559341430664 133.91482543945312 255 255 255
-114.39710998535156 14.711273193359375 151.28387451171875 255 255 255
-130.85476684570312 15.848958969116211 141.05264282226562 255 255 255
-158.2966766357422 -2.7650604248046875 109.82443237304688 255 255 255
-115.92047882080078 16.326173782348633 160.27655029296875 255 255 255
-117.16230010986328 16.620473861694336 142.25157165527344 255 255 255
-117.85504913330078 17.9000186920166 147.97032165527344 255 255 255
-125.22632598876953 18.275981903076172 143.02186584472656 255 255 255
-116.6063461303711 17.307836532592773 140.8212127685547 255 255 255
-141.87803649902344 16.405677795410156 121.09632873535156 255 255 255
-157.5323944091797 5.06937313079834 115.6147232055664 255 255 255
-109.68891143798828 13.007967948913574 147.08297729492188 255 255 255
-119.41485595703125 16.43372344970703 137.5688018798828 255 255 255
-111.92982482910156 15.547174453735352 153.3509063720703 255 255 255
-132.3216552734375 14.752358436584473 140.5514373779297 255 255 255
-129.20806884765625 17.489416122436523 139.85235595703125 255 255 255
-125.94680786132812 15.37851619720459 143.15252685546875 255 255 255
-118.21605682373047 15.833821296691895 148.3264923095703 255 255 255
-130.71255493164062 16.75206184387207 138.83323669433594 255 255 255
-150.09149169921875 0.5288188457489014 102.9119873046875 255 255 255
-146.81179809570312 1.1020376682281494 108.15461730957031 255 255 255
-148.6415252685547 9.037252426147461 111.62480163574219 255 255 255
-149.74378967285156 3.245246171951294 103.7313232421875 255 255 255
-168.8027801513672 3.8768112659454346 117.29696655273438 255 255 255
-150.27525329589844 2.9095914363861084 102.88613891601562 255 255 255
-145.54241943359375 7.633869647979736 113.89236450195312 255 255 255
-152.46400451660156 16.910079956054688 121.30449676513672 255 255 255
-155.24917602539062 11.825098991394043 109.00949096679688 255 255 255
-148.6321258544922 2.8382346630096436 92.9897689819336 255 255 255
-153.38473510742188 8.267481803894043 97.52806091308594 255 255 255
-126.6544418334961 17.73514747619629 141.721923828125 255 255 255
-112.72343444824219 9.68961238861084 149.25094604492188 255 255 255
-117.04783630371094 19.14641761779785 161.74447631835938 255 255 255
-142.7579345703125 8.611985206604004 97.78426361083984 255 255 255
-110.2969741821289 15.306160926818848 150.16232299804688 255 255 255
-115.40167999267578 13.761529922485352 155.1724395751953 255 255 255
-144.10665893554688 14.099238395690918 90.54747772216797 255 255 255
-111.96454620361328 15.076509475708008 150.40960693359375 255 255 255
-148.0032196044922 3.920407295227051 111.21968078613281 255 255 255
-138.6131134033203 16.928367614746094 134.6334686279297 255 255 255
-108.29935455322266 15.035202980041504 149.28977966308594 255 255 255
-108.717529296875 17.499677658081055 145.90748596191406 255 255 255
-113.70932006835938 12.223921775817871 147.32696533203125 255 255 255
-111.1311264038086 18.39717674255371 152.52955627441406 255 255 255
-110.13825988769531 17.61788558959961 145.665283203125 255 255 255
-138.988525390625 5.193471431732178 96.16386413574219 255 255 255
-112.40531158447266 10.356971740722656 149.0074920654297 255 255 255
-118.56533813476562 14.706263542175293 163.4455108642578 255 255 255
-127.1061782836914 17.817909240722656 141.99456787109375 255 255 255
-113.37171173095703 18.046979904174805 149.50625610351562 255 255 255
-115.79002380371094 15.79844856262207 149.55789184570312 255 255 255
-116.42398071289062 17.848587036132812 145.5691680908203 255 255 255
-112.4933853149414 18.343788146972656 150.28404235839844 255 255 255
-111.36093139648438 17.938024520874023 151.83433532714844 255 255 255
-113.72190856933594 15.232452392578125 155.2584991455078 255 255 255
-147.4049835205078 11.057535171508789 92.97261047363281 255 255 255
-142.68751525878906 9.888038635253906 94.8601303100586 255 255 255
-111.76893615722656 15.96216106414795 153.27252197265625 255 255 255
-115.37602996826172 16.3580322265625 158.75343322753906 255 255 255
-145.06007385253906 14.25444221496582 94.02528381347656 255 255 255
-137.49530029296875 16.790613174438477 129.46200561523438 255 255 255
-157.00201416015625 15.650542259216309 119.21927642822266 255 255 255
-163.73484802246094 6.63292932510376 116.34786224365234 255 255 255
-113.19213104248047 15.801987648010254 155.72189331054688 255 255 255
-147.29026794433594 1.7078896760940552 107.54729461669922 255 255 255
-126.88388061523438 15.296642303466797 142.5490264892578 255 255 255
-126.8811264038086 15.319477081298828 142.55865478515625 255 255 255
-159.64268493652344 7.6016106605529785 122.70207977294922 255 255 255
-118.12687683105469 16.726900100708008 163.074462890625 255 255 255
-156.79693603515625 12.820856094360352 124.05940246582031 255 255 255
-135.6641082763672 19.96306037902832 142.78338623046875 255 255 255
-122.7659912109375 17.367971420288086 137.3066864013672 255 255 255
-111.88818359375 13.227069854736328 148.70150756835938 255 255 255
-112.15525817871094 15.11471939086914 153.4512481689453 255 255 255
-146.76329040527344 15.297789573669434 105.33272552490234 255 255 255
-140.50018310546875 14.573456764221191 96.7348403930664 255 255 255
-135.14840698242188 12.962440490722656 95.35657501220703 255 255 255
-134.9328155517578 12.926355361938477 95.01197814941406 255 255 255
-147.2597198486328 8.640572547912598 93.76956176757812 255 255 255
-147.46949768066406 8.678398132324219 93.25762939453125 255 255 255
-129.50462341308594 16.64989471435547 140.10986328125 255 255 255
-150.31524658203125 1.759758710861206 111.0502700805664 255 255 255
-146.04440307617188 4.11045503616333 109.63236236572266 255 255 255
-138.87579345703125 0.4752170443534851 116.06468200683594 255 255 255
-168.7178192138672 1.271036982536316 121.60513305664062 255 255 255
-136.73260498046875 1.7462137937545776 116.11568450927734 255 255 255
-147.27146911621094 -1.0101968050003052 116.54694366455078 255 255 255
-120.4249267578125 17.352163314819336 139.15008544921875 255 255 255
-143.49676513671875 7.411218643188477 97.89917755126953 255 255 255
-147.4429168701172 8.034509658813477 105.43016815185547 255 255 255
-122.07849884033203 17.360788345336914 137.55160522460938 255 255 255
-119.47451782226562 16.28626823425293 134.993408203125 255 255 255
-128.36549377441406 17.706478118896484 143.032470703125 255 255 255
-121.61508178710938 17.292165756225586 138.45567321777344 255 255 255
-147.1677703857422 0.8704041242599487 118.060302734375 255 255 255
-120.55332946777344 17.093639373779297 137.87814331054688 255 255 255
-120.73881530761719 17.41105079650879 136.7584686279297 255 255 255
-128.07943725585938 15.935770988464355 141.80514526367188 255 255 255
-116.22071838378906 17.3547306060791 142.41610717773438 255 255 255
-138.2449188232422 4.142561912536621 126.66395568847656 255 255 255
-121.36199951171875 14.519918441772461 133.9673614501953 255 255 255
-117.92469787597656 17.908710479736328 147.9664306640625 255 255 255
-128.0537567138672 17.468751907348633 140.80348205566406 255 255 255
-119.33953094482422 16.402572631835938 137.71519470214844 255 255 255
-118.2803955078125 15.688682556152344 148.07850646972656 255 255 255
-122.5059585571289 17.008405685424805 145.18582153320312 255 255 255
-119.0638427734375 15.949628829956055 134.2312774658203 255 255 255
-146.75257873535156 15.295806884765625 105.37855529785156 255 255 255
-145.00204467773438 7.561413288116455 93.95098114013672 255 255 255
-146.7355499267578 10.745818138122559 97.08561706542969 255 255 255
-161.32447814941406 12.19300365447998 121.34883880615234 255 255 255
-156.43307495117188 3.594142198562622 115.53158569335938 255 255 255
-133.33950805664062 17.00063133239746 137.05929565429688 255 255 255
-143.72145080566406 7.0113654136657715 113.56175231933594 255 255 255
-148.4442138671875 3.715209484100342 110.39451599121094 255 255 255
-133.56504821777344 6.644182205200195 115.15864562988281 255 255 255
-139.81053161621094 -1.2451112270355225 113.21903991699219 255 255 255
-138.61166381835938 15.55971908569336 135.7945098876953 255 255 255
-135.0492706298828 17.103593826293945 136.37515258789062 255 255 255
-146.7529296875 1.154532790184021 113.85102081298828 255 255 255
-126.9570083618164 17.43956184387207 141.6209716796875 255 255 255
-147.55824279785156 2.405496835708618 108.79524230957031 255 255 255
-143.15126037597656 7.258321285247803 114.21238708496094 255 255 255
-137.82254028320312 15.819479942321777 136.97947692871094 255 255 255
-146.65228271484375 4.128974437713623 110.77049255371094 255 255 255
-138.78709411621094 17.63894271850586 133.50157165527344 255 255 255
-147.24557495117188 9.492573738098145 93.50261688232422 255 255 255
-119.49391174316406 17.051273345947266 146.94500732421875 255 255 255
-164.7478790283203 4.769901275634766 116.7328109741211 255 255 255
-159.4869384765625 12.23490047454834 111.08150482177734 255 255 255
-121.2441635131836 17.958648681640625 145.56866455078125 255 255 255
-122.30973815917969 15.404670715332031 133.9827880859375 255 255 255
-120.90731811523438 15.708565711975098 146.16880798339844 255 255 255
-136.55966186523438 6.109545707702637 138.0748291015625 255 255 255
-118.92720794677734 18.0157527923584 147.27789306640625 255 255 255
-145.40585327148438 8.255843162536621 92.91606903076172 255 255 255
-149.96470642089844 16.68265151977539 120.84222412109375 255 255 255
-153.67681884765625 16.668720245361328 120.72736358642578 255 255 255
-165.18885803222656 10.024791717529297 113.51178741455078 255 255 255
-126.57636260986328 17.786359786987305 142.34910583496094 255 255 255
-127.68008422851562 17.782703399658203 140.81434631347656 255 255 255
-137.79330444335938 2.162071466445923 115.74036407470703 255 255 255
-146.70761108398438 15.070392608642578 102.45814514160156 255 255 255
-147.16754150390625 10.085898399353027 93.9624252319336 255 255 255
-147.28953552246094 9.86618423461914 93.31426239013672 255 255 255
-146.92787170410156 9.08871841430664 93.0634765625 255 255 255
-130.50926208496094 14.270258903503418 127.11222839355469 255 255 255
-161.1153106689453 7.846957683563232 116.0055923461914 255 255 255
-157.49070739746094 13.192395210266113 123.28197479248047 255 255 255
-158.27503967285156 9.764800071716309 123.23560333251953 255 255 255
-158.87600708007812 7.596221446990967 122.66569519042969 255 255 255
-132.1893768310547 13.879828453063965 130.4080047607422 255 255 255
-141.5336456298828 16.46225357055664 121.98649597167969 255 255 255
-152.935302734375 9.480807304382324 98.97415161132812 255 255 255
-155.9203338623047 15.002474784851074 108.6173324584961 255 255 255
-119.73500061035156 15.628948211669922 147.05026245117188 255 255 255
-112.22584533691406 10.91181468963623 146.8663330078125 255 255 255
-112.62389373779297 12.170820236206055 149.11680603027344 255 255 255
-114.72789764404297 18.071321487426758 145.63699340820312 255 255 255
-142.13128662109375 15.761871337890625 122.39451599121094 255 255 255
-112.66053771972656 13.550366401672363 153.94174194335938 255 255 255
-111.27337646484375 11.121261596679688 147.40989685058594 255 255 255
-155.6638641357422 13.917973518371582 125.63199615478516 255 255 255
-113.23406219482422 9.815580368041992 149.09556579589844 255 255 255
-151.44789123535156 13.560165405273438 96.14192962646484 255 255 255
-136.55081176757812 16.801124572753906 135.9486846923828 255 255 255
-165.05821228027344 13.46694564819336 117.51803588867188 255 255 255
-159.02206420898438 10.43228530883789 124.68119049072266 255 255 255
-146.63742065429688 8.781099319458008 114.37984466552734 255 255 255
-158.89605712890625 9.55346965789795 123.03890228271484 255 255 255
-165.3606719970703 8.345008850097656 116.89527130126953 255 255 255
-117.81278228759766 16.93832015991211 163.3017578125 255 255 255
-113.77845764160156 16.259443283081055 151.23866271972656 255 255 255
-130.25306701660156 8.854254722595215 140.9850311279297 255 255 255
-160.61851501464844 12.16804027557373 110.0757827758789 255 255 255
-154.9947509765625 -0.7983907461166382 113.67296600341797 255 255 255
-118.2442626953125 17.26019287109375 147.8308868408203 255 255 255
-111.64450073242188 15.546798706054688 152.9412078857422 255 255 255
-116.64359283447266 18.05710220336914 148.48873901367188 255 255 255
-112.93916320800781 15.788846969604492 151.42910766601562 255 255 255
-133.22938537597656 15.100072860717773 128.14695739746094 255 255 255
-116.31755065917969 17.973838806152344 149.10728454589844 255 255 255
-154.36024475097656 14.578963279724121 100.46488952636719 255 255 255
-145.00160217285156 15.765046119689941 108.78888702392578 255 255 255
-140.29811096191406 14.56229019165039 95.55158233642578 255 255 255
-167.8445587158203 15.45040225982666 112.31944274902344 255 255 255
-144.87347412109375 16.997549057006836 128.27146911621094 255 255 255
-163.27085876464844 3.458859443664551 117.97041320800781 255 255 255
-160.4702911376953 11.081348419189453 124.01280975341797 255 255 255
-136.4825897216797 17.337934494018555 135.20162963867188 255 255 255
-119.5190658569336 6.520676612854004 146.0321807861328 255 255 255
-121.65103912353516 18.140953063964844 145.7801971435547 255 255 255
-165.52716064453125 -2.4086947441101074 126.99597930908203 255 255 255
-146.91773986816406 11.115205764770508 92.92915344238281 255 255 255
-142.08245849609375 14.875177383422852 101.5510025024414 255 255 255
-136.36614990234375 14.306927680969238 97.8312759399414 255 255 255
-108.28487396240234 16.78498649597168 145.1112518310547 255 255 255
-109.55582427978516 17.279157638549805 150.63409423828125 255 255 255
-109.50540924072266 12.016303062438965 144.3467254638672 255 255 255
-113.96024322509766 16.929346084594727 156.85443115234375 255 255 255
-110.76131439208984 17.286867141723633 149.470458984375 255 255 255
-111.71613311767578 15.797162055969238 153.6456298828125 255 255 255
-116.89094543457031 14.900016784667969 156.27586364746094 255 255 255
-141.51351928710938 14.717870712280273 133.80804443359375 255 255 255
-148.41212463378906 11.551440238952637 95.37046813964844 255 255 255
-134.93968200683594 11.841694831848145 95.1053237915039 255 255 255
-134.7963409423828 9.474985122680664 95.48458099365234 255 255 255
-146.9041748046875 11.084235191345215 92.83714294433594 255 255 255
-136.88368225097656 11.386091232299805 96.0296630859375 255 255 255
-144.69674682617188 14.969324111938477 120.96035766601562 255 255 255
-112.06986999511719 10.100106239318848 149.6630859375 255 255 255
-146.76036071777344 13.84986686706543 92.5715560913086 255 255 255
-133.04144287109375 2.4673168659210205 137.09043884277344 255 255 255
-116.62056732177734 17.13493537902832 148.90057373046875 255 255 255
-120.7584228515625 18.407703399658203 143.4197540283203 255 255 255
-115.51533508300781 17.910598754882812 149.3884735107422 255 255 255
-114.07691192626953 17.596893310546875 150.4727020263672 255 255 255
-147.1226806640625 16.929224014282227 121.98661804199219 255 255 255
-160.6728973388672 11.190265655517578 124.0328140258789 255 255 255
-147.66049194335938 11.351780891418457 97.5832290649414 255 255 255
-149.3675994873047 7.529841899871826 102.42884826660156 255 255 255
-147.7401580810547 14.962779998779297 103.46890258789062 255 255 255
-156.09889221191406 15.14910888671875 109.95228576660156 255 255 255
-151.20840454101562 8.427945137023926 96.5767822265625 255 255 255
-149.67691040039062 16.716876983642578 121.35272216796875 255 255 255
-118.83432006835938 17.286136627197266 140.25204467773438 255 255 255
-109.70726776123047 17.952417373657227 146.45018005371094 255 255 255
-112.58761596679688 10.715045928955078 148.9878692626953 255 255 255
-155.361083984375 15.13896656036377 110.94755554199219 255 255 255
-156.26747131347656 15.135916709899902 109.91777038574219 255 255 255
-156.94325256347656 14.214802742004395 124.41307067871094 255 255 255
-112.6609115600586 9.552672386169434 148.74386596679688 255 255 255
-138.2888641357422 7.275152206420898 95.5524673461914 255 255 255
-111.53294372558594 18.078853607177734 151.9466094970703 255 255 255
-147.4915771484375 13.906827926635742 93.33106231689453 255 255 255
-167.0314483642578 14.57629108428955 112.88981628417969 255 255 255
-147.8450164794922 4.433605194091797 98.68435668945312 255 255 255
-152.79296875 12.438032150268555 111.86790466308594 255 255 255
-114.22267150878906 15.84835433959961 150.49981689453125 255 255 255
-114.0667953491211 17.215702056884766 150.5674285888672 255 255 255
-112.58423614501953 16.61458396911621 154.54220581054688 255 255 255
-121.5688247680664 16.43165397644043 137.7378387451172 255 255 255
-116.08258056640625 15.911084175109863 149.1377716064453 255 255 255
-117.12498474121094 17.356935501098633 161.7003936767578 255 255 255
-111.96808624267578 15.840697288513184 153.65927124023438 255 255 255
-123.10401153564453 18.42037582397461 141.23870849609375 255 255 255
-136.85067749023438 14.858067512512207 136.61959838867188 255 255 255
-137.4353790283203 13.410420417785645 98.35971069335938 255 255 255
-117.4236831665039 17.954858779907227 147.84225463867188 255 255 255
-122.95269012451172 10.405399322509766 139.05482482910156 255 255 255
-114.31784057617188 15.774023056030273 150.49661254882812 255 255 255
-147.60568237304688 10.07652759552002 99.82621002197266 255 255 255
-145.46807861328125 15.080693244934082 100.54588317871094 255 255 255
-112.50216674804688 11.440841674804688 148.35150146484375 255 255 255
-107.26703643798828 15.904616355895996 145.68157958984375 255 255 255
-112.60733032226562 9.04052448272705 149.3152618408203 255 255 255
-113.0909652709961 18.41299819946289 154.69126892089844 255 255 255
-113.20723724365234 10.452881813049316 148.63377380371094 255 255 255
-113.0670394897461 17.033660888671875 154.39614868164062 255 255 255
-121.17548370361328 16.80217170715332 136.98504638671875 255 255 255
-145.7298126220703 16.867382049560547 125.34803771972656 255 255 255
-148.622314453125 8.595178604125977 94.30442810058594 255 255 255
-160.97146606445312 11.790786743164062 110.09162902832031 255 255 255
-126.02283477783203 16.84083366394043 135.75393676757812 255 255 255
-135.1342010498047 7.033016681671143 111.73430633544922 255 255 255
-134.69203186035156 5.690651893615723 113.50009155273438 255 255 255
-138.24655151367188 0.810429036617279 118.52920532226562 255 255 255
-158.99375915527344 3.4648306369781494 117.85423278808594 255 255 255
-114.39986419677734 14.075669288635254 157.09967041015625 255 255 255
-114.7010726928711 10.384254455566406 147.29824829101562 255 255 255
-111.62823486328125 13.719801902770996 152.57009887695312 255 255 255
-111.02122497558594 13.819231033325195 152.71023559570312 255 255 255
-110.9864501953125 18.127952575683594 151.92318725585938 255 255 255
-117.9511947631836 7.672399520874023 145.1510467529297 255 255 255
-120.74101257324219 14.546506881713867 144.43539428710938 255 255 255
-111.70323944091797 13.305816650390625 148.14093017578125 255 255 255
-142.64186096191406 7.9809370040893555 91.90300750732422 255 255 255
-123.38636779785156 18.137718200683594 144.2128448486328 255 255 255
-118.91349792480469 17.98006248474121 146.87892150878906 255 255 255
-121.45562744140625 17.057310104370117 145.9842071533203 255 255 255
-141.1614990234375 14.785711288452148 99.93840789794922 255 255 255
-154.9674530029297 4.373047828674316 116.35893249511719 255 255 255
-120.51280212402344 18.019880294799805 145.45423889160156 255 255 255
-114.21246337890625 17.502262115478516 150.47398376464844 255 255 255
-112.83659362792969 15.796993255615234 151.45008850097656 255 255 255
-161.12411499023438 12.782861709594727 121.58028411865234 255 255 255
-111.90052795410156 16.053752899169922 153.2182159423828 255 255 255
-126.86798858642578 17.777570724487305 141.63780212402344 255 255 255
-132.32904052734375 15.143115043640137 128.9362030029297 255 255 255
-113.06166076660156 16.47101593017578 151.47308349609375 255 255 255
-116.74391174316406 15.755929946899414 149.23379516601562 255 255 255
-109.57083892822266 15.80024242401123 144.97323608398438 255 255 255
-111.98419189453125 15.905714988708496 153.34242248535156 255 255 255
-111.92134094238281 16.037351608276367 153.21018981933594 255 255 255
-116.31863403320312 17.710622787475586 144.8175811767578 255 255 255
-111.5089340209961 15.306769371032715 152.1856689453125 255 255 255
-114.81845092773438 10.973426818847656 146.6655731201172 255 255 255
-112.07596588134766 18.122861862182617 151.727294921875 255 255 255
-116.82272338867188 17.05673599243164 148.8218994140625 255 255 255
-114.37964630126953 17.64575958251953 150.40687561035156 255 255 255
-143.640380859375 17.110584259033203 130.6376190185547 255 255 255
-112.6587142944336 10.781754493713379 149.25506591796875 255 255 255
-115.54553985595703 15.334334373474121 157.14297485351562 255 255 255
-113.74405670166016 9.865341186523438 149.0482177734375 255 255 255
-154.89613342285156 8.229402542114258 124.74591827392578 255 255 255
-114.49717712402344 16.911495208740234 141.0086669921875 255 255 255
-164.52503967285156 10.321577072143555 115.62969207763672 255 255 255
-114.12638854980469 16.86811637878418 141.40377807617188 255 255 255
-115.45063781738281 16.606510162353516 139.95445251464844 255 255 255
-112.92037200927734 10.291677474975586 146.22244262695312 255 255 255
-113.68851470947266 16.875642776489258 141.91171264648438 255 255 255
-113.67610168457031 11.357413291931152 148.63970947265625 255 255 255
-146.550537109375 7.333146095275879 132.02481079101562 255 255 255
-119.43290710449219 16.42604637145996 137.61578369140625 255 255 255
-112.00628662109375 17.965381622314453 147.4954833984375 255 255 255
-146.96522521972656 8.675140380859375 92.76477813720703 255 255 255
-145.87266540527344 14.200812339782715 91.52925109863281 255 255 255
-152.69114685058594 14.628570556640625 103.20016479492188 255 255 255
-145.5193634033203 15.11874008178711 101.27411651611328 255 255 255
-153.1051483154297 15.014237403869629 110.9981918334961 255 255 255
-112.7255630493164 17.607276916503906 144.47146606445312 255 255 255
-108.97513580322266 16.746000289916992 145.5197296142578 255 255 255
-133.71876525878906 14.963189125061035 127.61154174804688 255 255 255
-116.15425872802734 17.95566749572754 147.00759887695312 255 255 255
-117.72463989257812 17.640676498413086 143.9435577392578 255 255 255
-113.57404327392578 15.755054473876953 155.88792419433594 255 255 255
-112.59244537353516 12.60760498046875 147.73130798339844 255 255 255
-111.60070037841797 16.582555770874023 151.95809936523438 255 255 255
-113.32769775390625 9.286639213562012 148.04173278808594 255 255 255
-166.6605224609375 7.077130317687988 116.29891967773438 255 255 255
-146.8439178466797 5.8148698806762695 131.7454376220703 255 255 255
-118.48611450195312 17.704042434692383 143.42501831054688 255 255 255
-121.22758483886719 16.4758358001709 138.02407836914062 255 255 255
-114.8172836303711 17.17102813720703 150.93368530273438 255 255 255
-117.9850845336914 17.238903045654297 148.79205322265625 255 255 255
-139.67929077148438 5.153876304626465 136.81907653808594 255 255 255
-125.5644760131836 18.18605613708496 143.7151336669922 255 255 255
-157.9773406982422 -0.24631354212760925 116.6552505493164 255 255 255
-117.98883819580078 17.274429321289062 139.89476013183594 255 255 255
-119.25946044921875 17.94748306274414 142.63710021972656 255 255 255
-114.27069854736328 15.766590118408203 150.50082397460938 255 255 255
-120.25434112548828 17.059898376464844 138.5032958984375 255 255 255
-146.71453857421875 11.115906715393066 93.49431610107422 255 255 255
-164.26695251464844 5.9111127853393555 112.21615600585938 255 255 255
-156.60641479492188 12.763408660888672 113.626953125 255 255 255
-150.50694274902344 16.769289016723633 122.37138366699219 255 255 255
-145.91273498535156 16.860137939453125 121.96931457519531 255 255 255
-145.63992309570312 16.270362854003906 117.52457427978516 255 255 255
-164.9427032470703 7.976938247680664 116.83467102050781 255 255 255
-109.84601593017578 14.179518699645996 148.71661376953125 255 255 255
-112.31188201904297 13.290111541748047 152.24893188476562 255 255 255
-162.20089721679688 13.72183609008789 119.28349304199219 255 255 255
-139.07862854003906 6.199707984924316 94.98175048828125 255 255 255
-155.0409393310547 1.4031085968017578 116.47042083740234 255 255 255
-114.72573852539062 14.851134300231934 151.00747680664062 255 255 255
-113.81117248535156 16.92673683166504 156.8749542236328 255 255 255
-146.20855712890625 12.551584243774414 90.03795623779297 255 255 255
-148.45787048339844 8.536961555480957 94.18270874023438 255 255 255
-147.11817932128906 11.005701065063477 94.45927429199219 255 255 255
-115.19731140136719 16.29710578918457 158.73631286621094 255 255 255
-146.66957092285156 14.285747528076172 108.07990264892578 255 255 255
-145.7548370361328 12.974785804748535 110.45550537109375 255 255 255
-146.93795776367188 16.89580535888672 123.2962417602539 255 255 255
-167.22410583496094 13.361282348632812 114.54710388183594 255 255 255
-162.4432830810547 6.390595436096191 116.1207504272461 255 255 255
-112.2584457397461 12.245585441589355 148.7123565673828 255 255 255
-113.9598617553711 10.883245468139648 147.94459533691406 255 255 255
-109.70272827148438 13.967086791992188 145.27810668945312 255 255 255
-108.98933410644531 9.663284301757812 142.66018676757812 255 255 255
-114.16664123535156 9.778792381286621 148.85606384277344 255 255 255
-108.90756225585938 15.661730766296387 144.75132751464844 255 255 255
-120.6892318725586 11.495744705200195 145.48995971679688 255 255 255
-140.95957946777344 17.57819175720215 132.6864776611328 255 255 255
-121.37548065185547 17.454524993896484 146.03707885742188 255 255 255
-119.27523803710938 16.443384170532227 147.5631103515625 255 255 255
-113.10564422607422 11.441686630249023 148.90293884277344 255 255 255
-113.77544403076172 10.643933296203613 147.62110900878906 255 255 255
-112.28934478759766 11.259995460510254 148.1379852294922 255 255 255
-146.5081024169922 8.122758865356445 101.36605072021484 255 255 255
-159.51585388183594 9.638265609741211 108.5490951538086 255 255 255
-146.75967407226562 6.070852279663086 107.4404067993164 255 255 255
-147.49600219726562 13.63711929321289 93.59046173095703 255 255 255
-154.34812927246094 14.258140563964844 99.03202819824219 255 255 255
-147.06480407714844 16.864469528198242 122.40721130371094 255 255 255
-153.57884216308594 13.994943618774414 110.49456787109375 255 255 255
-146.3660125732422 7.064268112182617 99.28157043457031 255 255 255
-151.09140014648438 16.751367568969727 122.07524871826172 255 255 255
-151.97207641601562 12.64177131652832 112.89360046386719 255 255 255
-114.40892028808594 16.310976028442383 150.56857299804688 255 255 255
-147.73876953125 8.035073280334473 93.31061553955078 255 255 255
-148.7861328125 7.121225357055664 97.4803695678711 255 255 255
-128.16822814941406 17.629270553588867 142.9087371826172 255 255 255
-118.94353485107422 17.464603424072266 146.9651336669922 255 255 255
-134.7591094970703 8.003174781799316 95.5959701538086 255 255 255
-148.29681396484375 9.075883865356445 94.20861053466797 255 255 255
-145.87364196777344 15.304295539855957 99.2498550415039 255 255 255
-146.7411651611328 15.084464073181152 102.38088989257812 255 255 255
-111.84974670410156 13.294549942016602 148.46786499023438 255 255 255
-112.03976440429688 17.558698654174805 151.340087890625 255 255 255
-147.45069885253906 12.045858383178711 92.9460220336914 255 255 255
-111.89913177490234 13.83191204071045 154.03887939453125 255 255 255
-118.02594757080078 17.459556579589844 148.0496826171875 255 255 255
-112.1643295288086 13.3054838180542 152.30810546875 255 255 255
-115.66090393066406 16.108661651611328 149.50135803222656 255 255 255
-114.154296875 15.81663990020752 150.50975036621094 255 255 255
-120.99301147460938 17.682470321655273 145.92430114746094 255 255 255
-149.87933349609375 1.4805675745010376 117.44254302978516 255 255 255
-128.81039428710938 17.816951751708984 140.8412628173828 255 255 255
-114.85604858398438 17.149444580078125 149.6219482421875 255 255 255
-159.000244140625 8.075376510620117 120.49457550048828 255 255 255
-159.43495178222656 7.570013999938965 118.04180908203125 255 255 255
-148.0928955078125 -2.0264434814453125 114.52560424804688 255 255 255
-152.154296875 5.318380832672119 114.44461059570312 255 255 255
-124.68103790283203 17.593564987182617 139.43557739257812 255 255 255
-147.74815368652344 9.707826614379883 111.940673828125 255 255 255
-147.8803253173828 -1.1589856147766113 112.55428314208984 255 255 255
-110.14142608642578 14.083797454833984 149.40716552734375 255 255 255
-114.82688903808594 13.753926277160645 148.0579071044922 255 255 255
-154.7943572998047 14.699945449829102 124.53309631347656 255 255 255
-147.73751831054688 4.38997745513916 97.15328216552734 255 255 255
-168.28640747070312 9.943824768066406 113.23463439941406 255 255 255
-146.87020874023438 13.766888618469238 92.98220825195312 255 255 255
-147.79994201660156 14.84988021850586 101.65702056884766 255 255 255
-115.21076202392578 18.046035766601562 149.3524627685547 255 255 255
-146.46624755859375 8.633508682250977 133.47364807128906 255 255 255
-118.13973236083984 11.739758491516113 146.30123901367188 255 255 255
-142.6067657470703 7.2547454833984375 100.14045715332031 255 255 255
-168.0164031982422 11.759709358215332 122.43341827392578 255 255 255
-127.80715942382812 17.456899642944336 140.91099548339844 255 255 255
-115.44572448730469 15.61421012878418 158.44610595703125 255 255 255
-121.21793365478516 16.46613121032715 138.0668487548828 255 255 255
-108.0477066040039 17.784799575805664 147.98829650878906 255 255 255
-114.098876953125 12.277107238769531 146.86488342285156 255 255 255
-112.35135650634766 9.163511276245117 149.54222106933594 255 255 255
-112.89415740966797 10.105306625366211 148.6541748046875 255 255 255
-111.52542114257812 15.309349060058594 152.18838500976562 255 255 255
-116.7745590209961 15.957695007324219 134.26394653320312 255 255 255
-111.14521026611328 17.508298873901367 152.03887939453125 255 255 255
-111.25922393798828 17.089527130126953 152.4875030517578 255 255 255
-112.64225769042969 18.113155364990234 149.18292236328125 255 255 255
-111.29888916015625 16.528905868530273 152.47682189941406 255 255 255
-162.23788452148438 15.35205364227295 112.32953643798828 255 255 255
-118.31319427490234 16.711475372314453 163.21246337890625 255 255 255
-111.42549896240234 13.46837043762207 152.52488708496094 255 255 255
-162.36325073242188 0.7203125953674316 117.45240020751953 255 255 255
-149.1267547607422 12.382843971252441 103.14816284179688 255 255 255
-145.51405334472656 15.082831382751465 100.53069305419922 255 255 255
-148.57147216796875 7.483313083648682 98.42749786376953 255 255 255
-135.46946716308594 17.180517196655273 132.19659423828125 255 255 255
-133.41845703125 17.373035430908203 136.98843383789062 255 255 255
-149.18203735351562 13.999683380126953 102.61450958251953 255 255 255
-159.72779846191406 12.13940715789795 110.99066925048828 255 255 255
-162.45469665527344 2.5320816040039062 115.13243865966797 255 255 255
-138.709716796875 1.5172139406204224 114.33125305175781 255 255 255
-151.99012756347656 -0.9044871926307678 110.89396667480469 255 255 255
-125.1458511352539 15.224749565124512 148.5003204345703 255 255 255
-111.90554809570312 12.538788795471191 148.92904663085938 255 255 255
-131.2659454345703 13.771342277526855 130.6971893310547 255 255 255
-135.85821533203125 6.253940105438232 138.73504638671875 255 255 255
-146.94317626953125 9.893719673156738 95.49058532714844 255 255 255
-113.05516052246094 15.582433700561523 153.01841735839844 255 255 255
-108.44339752197266 15.715097427368164 145.2533416748047 255 255 255
-115.27631378173828 18.076383590698242 147.535888671875 255 255 255
-114.16119384765625 17.225059509277344 150.54762268066406 255 255 255
-115.04325866699219 18.050506591796875 147.67027282714844 255 255 255
-119.14094543457031 11.688729286193848 140.89645385742188 255 255 255
-145.2112274169922 13.187443733215332 137.30613708496094 255 255 255
-148.2288818359375 5.475306034088135 130.97889709472656 255 255 255
-157.8109893798828 2.1665027141571045 114.83267974853516 255 255 255
-136.87225341796875 6.015376091003418 138.15957641601562 255 255 255
-113.5015640258789 15.802579879760742 155.73130798339844 255 255 255
-113.6595458984375 16.67678451538086 154.36106872558594 255 255 255
-112.37705993652344 15.060270309448242 153.98468017578125 255 255 255
-108.97416687011719 19.0443058013916 149.26756286621094 75 204 254
-107.98658752441406 18.769641876220703 147.09530639648438 74 205 254
-107.3566665649414 18.57648277282715 145.82431030273438 75 205 254
-110.32762908935547 19.36826515197754 151.6839599609375 74 205 254
-107.63452911376953 18.6671199798584 145.8697509765625 74 205 254
-109.4718246459961 19.09528160095215 149.55661010742188 74 204 254
-109.3369140625 19.17934226989746 150.74037170410156 75 205 254
-110.09495544433594 19.306570053100586 151.50460815429688 75 205 254
-108.68912506103516 18.940414428710938 148.84999084472656 75 205 254
-108.55181121826172 18.867631912231445 147.77748107910156 74 204 254
-108.42898559570312 18.90652084350586 148.91001892089844 75 205 254
-110.13245391845703 19.231422424316406 150.88027954101562 74 204 254
-109.60417175292969 19.182893753051758 150.61842346191406 75 205 254
-110.46895599365234 19.453121185302734 151.62059020996094 74 205 254
-109.17655181884766 19.090721130371094 149.73565673828125 75 204 254
-109.36556243896484 19.13123321533203 150.18658447265625 75 205 254
-108.3163070678711 18.822620391845703 147.37979125976562 75 204 254
-107.50971984863281 18.614500045776367 145.72686767578125 75 205 254
-109.02555084228516 18.96668243408203 148.7091064453125 74 204 254
-109.20104217529297 19.14049530029297 150.42796325683594 74 205 254
-108.49726104736328 18.87982749938965 148.41441345214844 75 204 254
-110.3581314086914 19.282684326171875 151.31155395507812 74 205 254
-109.70611572265625 19.130308151245117 150.019287109375 74 204 254
-109.81969451904297 19.229373931884766 151.06959533691406 75 205 254
-108.102783203125 18.798887252807617 147.4020538330078 75 205 254
-109.9275131225586 19.175683975219727 150.46951293945312 74 204 254
-109.23275756835938 19.049039840698242 149.12171936035156 74 204 254
-108.00840759277344 18.773181915283203 146.55841064453125 74 205 254
-108.36678314208984 18.866498947143555 147.95176696777344 74 204 254
-108.09839630126953 18.763118743896484 146.9254913330078 74 204 254
-108.78690338134766 18.88714599609375 148.23573303222656 74 205 254
-110.778564453125 19.06159210205078 150.37005615234375 75 205 254
-109.34281158447266 18.62907600402832 146.6907501220703 74 205 254
-109.75691986083984 18.572771072387695 146.02725219726562 75 205 254
-109.93344116210938 18.62140655517578 146.41807556152344 74 204 254
-112.02764892578125 19.124399185180664 150.2700958251953 75 205 254
-111.55302429199219 19.12553596496582 150.02635192871094 74 204 254
-110.78119659423828 19.039140701293945 150.7967987060547 74 205 254
-110.47783660888672 18.96457862854004 149.8046417236328 75 205 254
-111.09129333496094 18.998416900634766 149.447509765625 75 205 254
-108.81006622314453 18.485727310180664 145.5896453857422 75 205 254
-110.50357055664062 18.980209350585938 149.8053436279297 75 205 254
-110.32222747802734 18.827768325805664 147.86968994140625 75 204 254
-110.80252838134766 18.898130416870117 148.7705078125 74 205 254
-110.47281646728516 18.85219383239746 148.6536865234375 75 205 254
-111.12030029296875 18.92068862915039 148.64649963378906 75 205 254
-110.388671875 18.899202346801758 148.99142456054688 75 204 254
-110.13983154296875 18.871919631958008 149.12962341308594 75 205 254
-109.9302978515625 18.708345413208008 146.948974609375 75 205 254
-110.12181091308594 18.865650177001953 149.1959686279297 75 205 254
-110.42298126220703 18.76256561279297 147.2767791748047 74 204 254
-110.1843032836914 18.696550369262695 146.86209106445312 74 204 254
-110.79923248291016 18.922313690185547 148.81568908691406 75 204 254
-110.88938903808594 18.906105041503906 148.12269592285156 74 205 254
-111.2967529296875 19.1057071685791 150.56686401367188 75 205 254
-111.37548065185547 19.09991455078125 150.19447326660156 74 205 254
-109.90349578857422 18.770841598510742 147.71278381347656 75 205 254
-110.61984252929688 18.974193572998047 149.41259765625 75 204 254
-110.01526641845703 18.816755294799805 148.04415893554688 75 204 254
-109.39093780517578 18.54808807373047 146.1464080810547 75 205 254
-111.12749481201172 19.04019546508789 149.79978942871094 75 204 254
-110.95527648925781 19.031715393066406 149.94688415527344 75 205 254
-110.1058120727539 18.759000778198242 147.4679412841797 75 204 254
-109.10215759277344 18.551143646240234 146.27415466308594 74 204 254
-110.5258560180664 18.968162536621094 150.97940063476562 75 205 254
-111.81764221191406 19.152807235717773 149.8527374267578 75 205 254
-108.88931274414062 18.476015090942383 144.95455932617188 74 205 254
-111.0791244506836 19.064069747924805 150.32174682617188 74 204 254
-111.32439422607422 19.136831283569336 150.4731903076172 75 205 254
-111.60780334472656 19.10797119140625 149.45697021484375 75 205 254
-110.76529693603516 19.032854080200195 150.57003784179688 74 204 254
-110.33168029785156 18.874963760375977 149.0477294921875 75 204 254
-110.65980529785156 18.851825714111328 147.72035217285156 74 204 254
-109.10027313232422 18.43598175048828 144.768798828125 75 205 254
-111.13121032714844 18.943492889404297 148.56927490234375 75 205 254
-110.54064178466797 18.95751953125 149.6851348876953 74 205 254
-109.43859100341797 18.516956329345703 145.49671936035156 74 205 254
-111.9544448852539 19.174367904663086 150.1717987060547 75 205 254
-111.36365509033203 19.02399253845215 149.01136779785156 74 204 254
-109.54710388183594 18.689455032348633 147.02020263671875 74 205 254
-109.62519073486328 18.632612228393555 146.5887451171875 75 205 254
-111.88529968261719 19.14554786682129 150.09405517578125 75 205 254
-109.12945556640625 18.487314224243164 145.7150421142578 75 204 254
-110.8111801147461 19.02883529663086 149.88131713867188 75 204 254
-108.93170928955078 18.461166381835938 145.29400634765625 75 204 254
-111.23832702636719 19.05557632446289 149.63058471679688 75 204 254
-110.18246459960938 18.852039337158203 148.54241943359375 75 204 254
-110.57071685791016 18.88754653930664 148.3173828125 75 204 254
-108.90962219238281 18.49350357055664 145.89227294921875 74 204 254
-111.01748657226562 19.000940322875977 149.21043395996094 75 204 254
-111.62486267089844 19.15713882446289 150.3124237060547 74 205 254
-111.0136489868164 19.090576171875 150.2006072998047 74 205 254
-111.74384307861328 19.091598510742188 150.4441375732422 75 205 254
-109.24347686767578 18.462125778198242 145.0511474609375 75 205 254
-109.34281158447266 18.62907600402832 146.6907501220703 74 205 254
-112.90115356445312 19.15471649169922 149.1507568359375 75 204 254
-109.75691986083984 18.572771072387695 146.02725219726562 75 205 254
-111.21153259277344 18.720998764038086 146.15345764160156 75 205 254
-112.02764892578125 19.124399185180664 150.2700958251953 75 205 254
-111.55302429199219 19.12553596496582 150.02635192871094 74 204 254
-110.78119659423828 19.039140701293945 150.7967987060547 74 205 254
-110.83677673339844 18.543046951293945 144.67201232910156 74 204 254
-113.230224609375 19.17427635192871 148.9885711669922 74 204 254
-110.47783660888672 18.96457862854004 149.8046417236328 75 205 254
-111.09129333496094 18.998416900634766 149.447509765625 75 205 254
-112.50359344482422 19.001867294311523 147.68077087402344 74 204 254
-108.81006622314453 18.485727310180664 145.5896453857422 75 205 254
-111.68673706054688 18.857213973999023 147.0123291015625 75 205 254
-111.57835388183594 18.885398864746094 147.302978515625 75 205 254
-110.32222747802734 18.827768325805664 147.86968994140625 75 204 254
-110.80252838134766 18.898130416870117 148.7705078125 74 205 254
-110.47281646728516 18.85219383239746 148.6536865234375 75 205 254
-110.5178451538086 18.541990280151367 144.83502197265625 75 205 254
-111.12030029296875 18.92068862915039 148.64649963378906 75 205 254
-110.43798828125 18.413604736328125 143.8927001953125 75 205 254
-110.13983154296875 18.871919631958008 149.12962341308594 75 205 254
-110.97541809082031 18.663856506347656 145.71156311035156 75 204 254
-110.12181091308594 18.865650177001953 149.1959686279297 75 205 254
-110.1843032836914 18.696550369262695 146.86209106445312 74 204 254
