-77.49817657470703 1.3418089151382446 -3.864800214767456 75 204 254
-76.49337005615234 1.2694363594055176 -5.890621662139893 74 205 254
-84.82992553710938 3.6574270725250244 -4.158963203430176 75 205 254
-84.18167877197266 3.7205162048339844 -3.331181526184082 75 205 254
-80.37718963623047 2.2400166988372803 -5.006396293640137 74 205 254
-83.42806243896484 3.0818638801574707 -4.215351581573486 74 205 254
-77.19513702392578 1.1213657855987549 -8.163989067077637 75 205 254
-81.92493438720703 2.9565184116363525 -5.97694730758667 75 205 254
-79.48968505859375 1.548380970954895 -8.859644889831543 75 205 254
-78.4434585571289 1.3831157684326172 -5.051254749298096 74 204 254
-80.39364624023438 2.365057945251465 -8.082244873046875 75 204 254
-84.49090576171875 3.521779775619507 -4.181162357330322 75 205 254
-79.8620834350586 2.1744742393493652 -1.2200806140899658 75 205 254
-77.06372833251953 1.0604901313781738 -8.848669052124023 75 205 254
-79.18887329101562 1.9103230237960815 -8.846301078796387 75 204 254
-85.8658447265625 4.291757106781006 -5.333046913146973 74 205 254
-81.13020324707031 2.441511631011963 -6.273671627044678 75 205 254
-80.51579284667969 2.072291374206543 -4.838036060333252 75 204 254
-81.80829620361328 2.4951844215393066 -5.195748805999756 74 205 254
-79.39054870605469 1.9100136756896973 -6.211709022521973 75 205 254
-79.04327392578125 1.8379539251327515 -4.643324375152588 75 204 254
-81.60675048828125 2.7836289405822754 -7.328667640686035 75 204 254
-82.47732543945312 2.9451565742492676 -4.888035774230957 75 205 254
-80.26892852783203 1.959812879562378 -7.3475661277771 74 205 254
-80.12767028808594 1.9530819654464722 -5.099291801452637 74 204 254
-77.03899383544922 1.4787317514419556 -3.3865110874176025 74 205 254
-79.29771423339844 1.6944341659545898 -2.6869497299194336 75 205 254
-79.4898681640625 2.2415008544921875 -4.549819469451904 74 204 254
-82.07294464111328 2.570023775100708 -5.622951984405518 75 205 254
-84.54818725585938 4.048672199249268 -3.396941900253296 75 205 254
-76.40164184570312 1.2562296390533447 -5.516478061676025 75 204 254
-79.10832977294922 1.943557858467102 -7.72774600982666 75 204 254
-80.5157241821289 2.1137144565582275 -3.4283089637756348 75 205 254
-77.65306854248047 1.0967782735824585 -6.64892578125 75 204 254
-80.67460632324219 2.102924108505249 -7.088897705078125 75 205 254
-77.61261749267578 1.384150505065918 -9.508849143981934 75 205 254
-79.84405517578125 2.0959396362304688 -4.141438961029053 75 204 254
-80.11284637451172 2.658581256866455 -0.5685146450996399 74 204 254
-82.84713745117188 3.3259048461914062 -4.621251106262207 74 205 254
-78.8355712890625 1.443134069442749 -7.680604934692383 74 205 254
-81.42638397216797 2.6068742275238037 -4.983950138092041 74 205 254
-85.50839233398438 4.177947044372559 -5.507999420166016 75 204 254
-77.70219421386719 1.2486729621887207 -8.907236099243164 74 205 254
-79.28106689453125 1.904044508934021 -5.048108100891113 74 204 254
-78.03019714355469 1.246535062789917 -5.287822246551514 74 204 254
-84.7343978881836 3.8676931858062744 -5.997556209564209 75 204 254
-83.26045227050781 3.4554989337921143 -4.384645938873291 74 205 254
-80.2022705078125 1.980562448501587 -6.191392421722412 74 205 254
-79.55020904541016 2.3331944942474365 -1.697501540184021 74 204 254
-79.74702453613281 1.8132301568984985 -6.465306758880615 74 205 254
-77.09721374511719 1.375386357307434 0.7467532753944397 75 205 254
-80.11644744873047 2.2547364234924316 -2.485935926437378 74 205 254
-78.01722717285156 1.749608039855957 -4.860337257385254 75 204 254
-79.43192291259766 1.9647939205169678 -9.269269943237305 75 204 254
-77.14270782470703 1.3894599676132202 -8.208877563476562 74 205 254
-78.3390884399414 1.5850845575332642 -0.421517938375473 74 205 254
-82.89584350585938 3.106590747833252 -4.603424072265625 75 205 254
-79.98541259765625 2.4661355018615723 -2.4990389347076416 75 204 254
-77.83796691894531 1.3709782361984253 -10.294671058654785 74 204 254
-83.08235168457031 3.406209707260132 -4.083719253540039 75 205 254
-80.69453430175781 2.770472764968872 -0.9581112861633301 74 204 254
-77.9154281616211 1.43937349319458 -0.6713240742683411 74 205 254
-83.90409088134766 3.7159945964813232 -4.833548069000244 74 204 254
-78.9990463256836 2.135277271270752 -0.751226007938385 75 205 254
-78.47078704833984 1.7400760650634766 -7.2225871086120605 75 204 254
-77.8649673461914 1.6918830871582031 -5.548689842224121 74 205 254
-84.58948516845703 3.971174478530884 -4.895080089569092 75 205 254
-85.73171997070312 4.189013481140137 -5.7898759841918945 75 205 254
-81.66364288330078 2.4303836822509766 -5.888246059417725 75 205 254
-83.30159759521484 3.21189284324646 -5.300994396209717 74 205 254
-78.2692642211914 1.2430108785629272 -0.6692314743995667 75 204 254
-79.22895050048828 2.0050430297851562 -6.886216163635254 75 205 254
-78.4323501586914 1.9131245613098145 -4.643439292907715 75 204 254
-77.5819091796875 1.247610330581665 -7.897153854370117 75 205 254
-84.04252624511719 3.6681485176086426 -5.801405429840088 75 204 254
-82.85198974609375 3.2208549976348877 -6.561690807342529 74 204 254
-77.27826690673828 1.2184200286865234 -6.34560489654541 75 204 254
-77.56243133544922 1.3502299785614014 -5.007133960723877 75 204 254
-82.42945861816406 3.084052562713623 -6.814712047576904 75 204 254
-80.32794952392578 2.0133564472198486 -5.544051647186279 74 205 254
-84.1943130493164 3.2989823818206787 -5.438990116119385 75 205 254
-82.86246490478516 3.1686480045318604 -7.55249547958374 75 205 254
-79.21905517578125 1.8146435022354126 -6.881601333618164 74 205 254
-78.16075134277344 1.2917464971542358 -4.583174228668213 75 204 254
-85.22406005859375 4.128235340118408 -5.086490154266357 75 204 254
-79.24984741210938 1.6580398082733154 -1.584464430809021 75 205 254
-82.14766693115234 2.891761541366577 -3.308732748031616 74 205 254
-80.0882568359375 1.8421849012374878 -8.054750442504883 75 205 254
-77.98955535888672 1.49851655960083 -4.739372730255127 74 204 254
-81.77522277832031 2.427091121673584 -6.963956356048584 75 205 254
-81.14268493652344 2.7147650718688965 -1.673176884651184 75 204 254
-80.51173400878906 2.2410717010498047 -7.100324630737305 74 205 254
-83.90693664550781 3.579148530960083 -6.523156642913818 75 204 254
-84.75167846679688 3.558684825897217 -4.570285320281982 75 205 254
-79.15886688232422 2.0576369762420654 -5.889610290527344 75 204 254
-82.46217346191406 3.2225232124328613 -3.8768386840820312 75 205 254
-77.5179214477539 1.6216228008270264 -3.9970433712005615 75 204 254
-80.0418701171875 2.4802093505859375 -3.601015567779541 74 204 254
-80.65178680419922 2.4134891033172607 -8.522139549255371 75 204 254
-81.63969421386719 2.7475316524505615 -8.348077774047852 75 205 254
-80.12265014648438 1.9888644218444824 -2.1929914951324463 75 205 254
-76.8953628540039 1.0564042329788208 -7.301908493041992 74 205 254
-82.53938293457031 3.2028679847717285 -5.168932914733887 74 204 254
-77.35310363769531 1.1876929998397827 -7.448531627655029 75 205 254
-82.36990356445312 2.6237998008728027 -7.021537780761719 74 205 254
-81.19413757324219 2.800163745880127 -4.66239595413208 74 204 254
-76.87644958496094 1.3730086088180542 -6.757885932922363 74 204 254
-80.30107116699219 1.9066921472549438 -8.335646629333496 74 205 254
-78.9108657836914 1.8803011178970337 -6.831452369689941 74 205 254
-77.48222351074219 1.5739221572875977 0.029046831652522087 74 205 254
-77.6276626586914 0.9850288033485413 -8.416325569152832 74 204 254
-84.89842987060547 3.896772861480713 -6.306351184844971 75 205 254
-86.05718231201172 4.338334083557129 -5.576817035675049 75 205 254
-82.0193862915039 3.0127267837524414 -2.2276864051818848 75 204 254
-81.16255187988281 2.297741174697876 -4.989872455596924 74 204 254
-78.53677368164062 1.8698843717575073 -5.742565631866455 74 204 254
-78.27423858642578 1.8049039840698242 -5.301645278930664 74 205 254
-82.8010025024414 2.8814563751220703 -3.964256525039673 74 204 254
-79.85967254638672 1.9009958505630493 -1.7479918003082275 75 205 254
-78.117919921875 1.8018274307250977 -0.13324303925037384 75 205 254
-79.63748168945312 2.0088703632354736 -9.577108383178711 75 205 254
-76.43807220458984 1.2186343669891357 -6.582794189453125 74 205 254
-80.1409912109375 2.4609391689300537 -4.720617294311523 74 204 254
-78.41582489013672 1.549952507019043 -7.393409729003906 75 205 254
-79.00823974609375 2.1276278495788574 -3.708329200744629 75 204 254
-78.78014373779297 1.9224764108657837 -6.168463706970215 74 205 254
-78.9521484375 1.5829298496246338 -4.050288200378418 74 204 254
-81.18226623535156 2.548231601715088 -4.482361793518066 74 204 254
-79.5963363647461 2.192613124847412 -5.701663494110107 74 204 254
-81.99607849121094 2.8284785747528076 -4.038088321685791 75 205 254
-82.59994506835938 3.289003849029541 -3.2532308101654053 74 205 254
-80.77857971191406 2.1447031497955322 -5.285679817199707 74 204 254
-81.47938537597656 2.7263407707214355 -8.03360652923584 75 204 254
-78.37124633789062 1.6220558881759644 -9.341424942016602 75 204 254
-80.02007293701172 2.1476645469665527 -9.363542556762695 75 205 254
-77.78323364257812 1.7326987981796265 -2.5465452671051025 74 205 254
-78.73709869384766 1.4463685750961304 -6.553713321685791 74 204 254
-79.47614288330078 1.8790737390518188 -7.2870774269104 75 205 254
-82.34535217285156 3.2421305179595947 -2.782789468765259 74 204 254
-80.42802429199219 2.2926812171936035 -9.095368385314941 75 205 254
-81.87620544433594 2.8440768718719482 -7.76702880859375 75 204 254
-79.43054962158203 1.743704080581665 -4.927253723144531 74 204 254
-79.79388427734375 2.0676660537719727 -5.988461494445801 75 205 254
-78.0652847290039 1.600943684577942 -7.842841148376465 75 204 254
-85.11092376708984 3.982914447784424 -5.7150068283081055 75 204 254
-83.45060729980469 3.367321014404297 -3.6688039302825928 75 205 254
-78.23239135742188 1.5649821758270264 -5.162386894226074 74 204 254
-78.10767364501953 1.8472832441329956 -3.069711923599243 75 204 254
-80.67646026611328 2.0594818592071533 -8.130035400390625 74 205 254
-77.47771453857422 1.0489680767059326 -6.177058696746826 75 204 254
-78.31707000732422 1.321610927581787 -6.82027530670166 74 204 254
-77.597900390625 1.508419156074524 -7.923762798309326 74 205 254
-79.19941711425781 1.846294641494751 -9.880270957946777 75 205 254
-80.83841705322266 2.3632423877716064 -5.869504451751709 75 205 254
-76.52722930908203 1.2328425645828247 -7.0192742347717285 75 205 254
-76.89601135253906 1.0773636102676392 -6.290390491485596 75 205 254
-77.14069366455078 1.140434980392456 -7.044453144073486 74 204 254
-80.27696228027344 2.5330493450164795 -4.009761810302734 75 204 254
-80.44052124023438 2.0454626083374023 -6.677326202392578 74 205 254
-77.73619079589844 1.3113772869110107 0.35067513585090637 75 205 254
-80.16230010986328 2.3847193717956543 -6.708057880401611 75 205 254
-78.07721710205078 1.2579445838928223 -6.407843589782715 74 204 254
-81.7848129272461 3.0244336128234863 -3.676093816757202 74 205 254
-78.42771911621094 1.5136128664016724 -8.395278930664062 74 205 254
-77.71075439453125 1.3722732067108154 -9.874650955200195 74 204 254
-81.76911926269531 2.889559268951416 -6.643723011016846 75 204 254
-79.30291748046875 2.1314857006073 -5.2376885414123535 74 204 254
-78.58598327636719 1.3887118101119995 -7.256252765655518 74 205 254
-77.43731689453125 1.5504406690597534 -5.809090614318848 74 205 254
-79.64834594726562 2.3417272567749023 -3.869063377380371 74 204 254
-81.74607849121094 2.631800651550293 -2.466287851333618 75 205 254
-77.68070220947266 1.6672569513320923 -0.38188889622688293 74 205 254
-78.1148452758789 1.5592851638793945 -8.931402206420898 75 204 254
-79.70396423339844 1.840010643005371 -5.409787654876709 74 205 254
-80.56565856933594 2.599735975265503 -4.459303855895996 74 204 254
-77.76066589355469 1.4469153881072998 -9.183333396911621 75 204 254
-81.7723617553711 2.918764352798462 -5.590357780456543 75 204 254
-82.62239074707031 2.915464401245117 -3.0035691261291504 75 205 254
-80.24915313720703 2.267800807952881 -8.769287109375 75 204 254
-84.48799896240234 3.7531440258026123 -6.565705299377441 75 205 254
-76.61951446533203 1.2928999662399292 -6.327214241027832 74 204 254
-77.97730255126953 1.1511635780334473 -8.201945304870605 74 205 254
-81.56610107421875 3.0741095542907715 -1.5424062013626099 74 205 254
-79.89373779296875 2.4036598205566406 -4.271710395812988 74 204 254
-80.93264770507812 2.2401013374328613 -4.619946479797363 75 204 254
-78.49610900878906 1.6678837537765503 -3.6943769454956055 74 205 254
-81.24238586425781 2.6108241081237793 -8.584918975830078 75 205 254
-79.23361206054688 1.5448274612426758 -7.451536655426025 74 205 254
-84.22293090820312 3.7883710861206055 -5.127217769622803 75 205 254
-78.3043441772461 1.1991547346115112 -9.593775749206543 75 205 254
-81.30734252929688 2.356717586517334 -4.3709716796875 74 204 254
-78.82522583007812 1.5078729391098022 -1.8346302509307861 75 205 254
-80.69584655761719 2.552781581878662 -6.713061809539795 75 205 254
-78.00382232666016 1.6716417074203491 -7.658599376678467 74 205 254
-78.98979949951172 1.7590221166610718 -6.455410003662109 75 205 254
-77.52079010009766 0.9133771061897278 -9.130925178527832 75 205 254
-76.92536163330078 1.1188740730285645 -5.444695949554443 75 205 254
-80.78571319580078 2.5154671669006348 -7.825216770172119 75 204 254
-78.86078643798828 2.059332847595215 -4.365182876586914 75 204 254
-79.65682983398438 1.7412108182907104 -7.1805925369262695 75 205 254
-77.40872192382812 1.1650409698486328 -8.561750411987305 75 205 254
-82.33658599853516 3.092367172241211 -5.6989970207214355 75 205 254
-84.4189453125 3.944761037826538 -3.651214361190796 74 205 254
-85.37342834472656 3.795860767364502 -4.708876132965088 75 205 254
-79.07662200927734 2.09482479095459 -4.791482925415039 75 204 254
-77.8182373046875 1.3252497911453247 -8.33719539642334 75 205 254
-80.64592742919922 2.168745756149292 -3.295321464538574 74 205 254
-79.98531341552734 2.214536190032959 -8.345564842224121 75 204 254
-78.66729736328125 1.3380391597747803 -9.34986400604248 75 205 254
-81.28754425048828 2.8981776237487793 -2.823369026184082 75 204 254
-83.79557037353516 3.1754589080810547 -5.756442546844482 74 205 254
-83.5037612915039 3.423912286758423 -6.764726638793945 75 204 254
-77.03226470947266 1.455025553703308 -6.068319797515869 74 204 254
-77.21720886230469 1.5125336647033691 -5.375102519989014 74 204 254
-78.32210540771484 1.5693377256393433 -6.264228343963623 74 205 254
-78.1534423828125 1.2511186599731445 -7.486526012420654 74 204 254
-77.54229736328125 1.2617226839065552 -0.010507747530937195 75 204 254
-78.58677673339844 1.6944077014923096 -0.8590294122695923 75 205 254
-77.9542465209961 1.7978036403656006 -2.7484517097473145 74 205 254
-79.71994018554688 2.0526392459869385 -4.8233113288879395 75 204 254
-77.01097869873047 1.318769931793213 0.9700286984443665 74 204 254
-80.82167053222656 2.602388858795166 -5.910059928894043 74 205 254
-77.55887603759766 1.0247713327407837 -7.313958168029785 74 204 254
-83.7456283569336 3.8058314323425293 -2.614193916320801 75 205 254
-79.73783874511719 2.161242723464966 -7.912811279296875 75 204 254
-81.37016296386719 2.8681859970092773 -3.966520309448242 75 205 254
-77.28730773925781 1.5486236810684204 -3.574098825454712 75 204 254
-78.81450653076172 1.7708969116210938 -4.231940746307373 74 204 254
-81.41854095458984 2.365067958831787 -5.457598686218262 74 205 254
-80.636474609375 2.560842514038086 -5.605443000793457 75 205 254
-81.20057678222656 2.665397882461548 -7.580362319946289 75 204 254
-78.97591400146484 1.8388254642486572 -0.633901059627533 75 205 254
-82.13174438476562 3.048955202102661 -5.363158702850342 75 204 254
-78.93173217773438 1.8389469385147095 -8.414029121398926 75 204 254
-78.48685455322266 1.6256111860275269 -5.5876851081848145 74 204 254
-81.59536743164062 2.9263646602630615 -4.378447532653809 75 205 254
-81.66995239257812 2.62123703956604 -6.382289886474609 74 205 254
-76.46978759765625 1.1894150972366333 -7.714203834533691 74 205 254
-83.87811279296875 3.737278938293457 -3.5942680835723877 75 205 254
-81.06610870361328 2.2891218662261963 -3.9440340995788574 74 204 254
-81.05711364746094 2.5789830684661865 -8.28255844116211 75 204 254
-84.32300567626953 3.7310848236083984 -6.278134346008301 75 204 254
-77.67440032958984 1.328199863433838 -0.2538085877895355 74 204 254
-77.78543090820312 1.700584888458252 -4.426328182220459 75 204 254
-79.2162857055664 1.9279792308807373 -1.0306898355484009 75 205 254
-80.15422821044922 2.311938762664795 -7.654993057250977 75 204 254
-77.26335144042969 1.5011110305786133 -6.5137810707092285 74 204 254
-82.60446166992188 3.1566591262817383 -6.144677639007568 75 204 254
-79.99791717529297 1.8858110904693604 -6.890705108642578 75 205 254
-77.00035858154297 1.365015983581543 -7.856661319732666 75 205 254
-82.17931365966797 3.020822763442993 -6.395379543304443 75 204 254
-77.35093688964844 1.4499504566192627 -7.612226963043213 74 204 254
-83.6956787109375 3.153679847717285 -4.640039443969727 75 205 254
-79.93012237548828 2.1024506092071533 -5.272386074066162 74 205 254
-82.46788024902344 2.720010280609131 -5.372016906738281 75 205 254
-82.72569274902344 2.7495503425598145 -6.819234848022461 74 205 254
-77.78960418701172 1.013852596282959 -0.23097163438796997 74 205 254
-78.37863159179688 1.5505553483963013 -10.35702896118164 75 205 254
-81.49976348876953 2.9488155841827393 -3.2281103134155273 74 204 254
-82.3144760131836 3.0617761611938477 -2.620906114578247 75 204 254
-77.52920532226562 1.2782690525054932 -6.786885738372803 74 205 254
-79.47755432128906 1.9973466396331787 -4.394257545471191 75 204 254
-80.84002685546875 2.442308187484741 -8.846101760864258 75 205 254
-77.16863250732422 1.4410628080368042 -7.175981044769287 74 204 254
-77.98612976074219 1.6838375329971313 -6.6823835372924805 75 205 254
-83.51121520996094 3.084869861602783 -5.270728588104248 75 205 254
-78.34317779541016 1.7846720218658447 -6.431366920471191 74 204 254
-82.35388946533203 2.727137565612793 -4.267759323120117 74 204 254
-84.46066284179688 3.8068344593048096 -5.553900718688965 75 204 254
-83.28601837158203 3.3152263164520264 -7.326671123504639 75 205 254
-82.12525939941406 2.7906060218811035 -6.136789321899414 74 205 254
-83.61759185791016 3.694744825363159 -3.1274759769439697 75 205 254
-78.6559066772461 1.7337346076965332 -1.9840880632400513 75 205 254
-83.94673919677734 3.2272441387176514 -6.059605121612549 74 205 254
-84.03852081298828 3.891035795211792 -2.93326735496521 75 205 254
-85.08686828613281 3.7270572185516357 -4.396685600280762 75 205 254
-84.45929718017578 3.7748494148254395 -3.6252479553222656 74 205 254
-82.32099914550781 2.6383962631225586 -6.081233501434326 75 205 254
-76.87046813964844 1.1218925714492798 -4.692886829376221 74 205 254
-78.53944396972656 1.708573818206787 -8.67016315460205 75 204 254
-79.02912902832031 1.8153842687606812 -9.53439712524414 75 204 254
-76.39852905273438 1.272849202156067 -3.5422568321228027 74 205 254
-76.86924743652344 1.427630066871643 -3.8349788188934326 75 204 254
-81.24287414550781 2.272104263305664 -6.103154182434082 75 205 254
-78.64712524414062 1.687045931816101 -4.921511173248291 74 204 254
-76.92537689208984 1.0331205129623413 -8.407320976257324 74 205 254
-80.51068115234375 2.170976161956787 -1.9243886470794678 75 205 254
-82.63037872314453 2.817631721496582 -4.701818943023682 75 205 254
-77.3523178100586 1.3011267185211182 -4.576542854309082 75 204 254
-82.095458984375 3.1989986896514893 -2.3201611042022705 74 204 254
-79.65215301513672 2.135805130004883 -6.620821475982666 74 205 254
-81.99254608154297 3.0769338607788086 -4.114869594573975 75 205 254
-76.56971740722656 1.3189492225646973 -5.217686176300049 74 204 254
-83.08940887451172 3.2754271030426025 -6.988941669464111 75 204 254
-77.7402572631836 0.9580578804016113 -9.555475234985352 75 205 254
-78.74580383300781 1.8231232166290283 -6.99379825592041 75 205 254
-78.77114868164062 2.0484817028045654 -0.30612948536872864 75 205 254
-80.17526245117188 1.3428727388381958 -4.634812355041504 75 205 254
-82.20555114746094 2.210782766342163 -9.41748046875 75 205 254
-82.35985565185547 2.231818437576294 -7.538311958312988 75 205 254
-80.36109924316406 1.4320348501205444 -5.093784332275391 75 204 254
-78.70588684082031 0.7991310358047485 -4.807158470153809 75 205 254
-78.2101821899414 0.7865681052207947 -11.147499084472656 75 205 254
-80.9495620727539 1.6994386911392212 -6.481671333312988 74 204 254
-80.28282165527344 1.4603781700134277 -6.208320617675781 75 204 254
-77.8388900756836 0.6394899487495422 -8.619935989379883 75 205 254
-78.12364959716797 0.7366088032722473 -8.405675888061523 74 204 254
-77.63825988769531 0.5788909196853638 -10.454129219055176 75 204 254
-82.0115737915039 2.096123456954956 -6.483275890350342 74 205 254
-81.55318450927734 1.9193675518035889 -6.730222702026367 74 204 254
-78.92991638183594 0.7399880290031433 -2.7871079444885254 74 205 254
-79.74497985839844 1.2888106107711792 -8.619711875915527 75 205 254
-79.21063232421875 1.0770134925842285 -7.312604904174805 74 204 254
-79.52779388427734 1.1725590229034424 -10.46359920501709 75 205 254
-79.88999938964844 1.2112607955932617 -3.296940803527832 75 205 254
-80.76921081542969 1.592307209968567 -4.889586448669434 75 204 254
-80.64730834960938 1.618168830871582 -8.146683692932129 75 205 254
-77.55902099609375 0.5692701935768127 -11.517621994018555 75 204 254
-78.77537536621094 0.9497434496879578 -9.60971736907959 74 205 254
-81.78749084472656 2.0135436058044434 -6.045042514801025 74 204 254
-84.30132293701172 2.9959938526153564 -8.110650062561035 75 205 254
-81.10066223144531 1.7995414733886719 -8.060286521911621 74 204 254
-79.65930938720703 1.2550511360168457 -8.212678909301758 74 205 254
-80.56834411621094 1.5320841073989868 -5.675301551818848 75 205 254
-81.39815521240234 1.8567016124725342 -6.275485992431641 74 204 254
-82.15308380126953 2.1552295684814453 -6.961363315582275 75 205 254
-79.69540405273438 1.2296651601791382 -9.262483596801758 75 204 254
-79.24103546142578 1.1098426580429077 -8.451101303100586 74 205 254
-77.46697998046875 0.4465997815132141 -12.286003112792969 75 205 254
-78.86847686767578 0.9163422584533691 -11.289865493774414 75 205 254
-82.20696258544922 2.1867904663085938 -5.838930606842041 74 204 254
-82.63160705566406 2.3514506816864014 -6.746494770050049 74 205 254
-80.49422454833984 1.4954407215118408 -5.453736305236816 74 205 254
-77.83865356445312 0.6735570430755615 -11.809590339660645 75 205 254
-82.40628051757812 2.2580723762512207 -5.22493314743042 74 204 254
-78.75907897949219 0.9339653253555298 -8.668953895568848 75 205 254
-80.58507537841797 1.5087703466415405 -4.390472412109375 75 205 254
-78.52310180664062 0.8373537063598633 -11.95517635345459 74 205 254
-80.14411926269531 1.3947159051895142 -5.8136773109436035 74 204 254
-80.05634307861328 1.414121389389038 -8.022562026977539 74 204 254
-80.41967010498047 1.556892991065979 -9.03855037689209 74 205 254
-79.00225067138672 1.0091191530227661 -10.324258804321289 74 205 254
-77.9577407836914 0.686983048915863 -9.073354721069336 74 204 254
-82.13060760498047 2.1416733264923096 -4.900705814361572 74 205 254
-82.63070678710938 2.3507063388824463 -5.64194917678833 74 204 254
-79.47039031982422 1.1716396808624268 -10.100131034851074 75 205 254
-78.3156967163086 0.7951797246932983 -8.855835914611816 74 204 254
-82.5530776977539 2.276737928390503 -7.8508758544921875 75 204 254
-79.10671997070312 1.0566140413284302 -9.4620943069458 75 205 254
-78.54859161376953 0.8656706213951111 -11.604945182800293 74 205 254
-77.8816909790039 0.669809877872467 -11.358138084411621 75 205 254
-82.81265258789062 2.415530204772949 -7.011776447296143 74 205 254
-82.32762908935547 2.2127444744110107 -8.10860824584961 75 205 254
-77.92570495605469 0.690514326095581 -11.09015941619873 75 204 254
-77.92617797851562 0.6803079843521118 -10.164253234863281 75 205 254
-81.51933288574219 1.8967608213424683 -4.520346164703369 74 204 254
-77.78077697753906 0.6231616735458374 -9.722914695739746 75 205 254
-81.49917602539062 1.8945969343185425 -10.47323226928711 75 205 254
-80.25733184814453 1.489134669303894 -8.470206260681152 74 204 254
-79.0089340209961 1.0152513980865479 -7.997340679168701 74 205 254
-78.27845764160156 0.8010706901550293 -10.95798397064209 74 205 254
-78.5727767944336 0.8716590404510498 -9.319669723510742 74 205 254
-79.42378234863281 1.1625529527664185 -7.750881671905518 74 205 254
-81.8821029663086 2.086092472076416 -9.01518726348877 75 205 254
-78.27430725097656 0.7874689698219299 -9.961817741394043 75 205 254
-82.23616027832031 2.1101789474487305 -7.676692485809326 75 205 254
-79.84255981445312 1.3250741958618164 -7.541013717651367 74 204 254
-79.01683044433594 1.0317602157592773 -9.141151428222656 74 204 254
-77.76239013671875 0.6672130227088928 -12.32062816619873 75 205 254
-77.99759674072266 0.6944254040718079 -7.967569828033447 75 204 254
-80.91971588134766 1.734584093093872 -7.621349811553955 74 204 254
-79.98899841308594 1.2539969682693481 -4.162972450256348 75 205 254
-79.62989807128906 1.2314039468765259 -7.08997106552124 74 204 254
-78.11711883544922 0.7395964860916138 -9.52136516571045 74 204 254
-79.22926330566406 0.986258327960968 -11.722818374633789 75 205 254
-78.33767700195312 0.8265147805213928 -12.158114433288574 75 205 254
-81.30059814453125 1.8450558185577393 -7.364482402801514 75 205 254
-78.53594970703125 0.586349368095398 -2.8017632961273193 74 205 254
-81.1476058959961 1.782335877418518 -6.954277038574219 74 204 254
-78.92201232910156 0.8507456183433533 -4.149703502655029 74 205 254
-81.6513671875 1.996115803718567 -8.323396682739258 75 205 254
-78.79380798339844 0.920983076095581 -10.90471076965332 74 204 254
-81.3234634399414 1.8146213293075562 -4.29167366027832 74 205 254
-80.5086898803711 1.5598869323730469 -6.69705867767334 74 204 254
-78.25837707519531 0.6689539551734924 -4.613579273223877 74 205 254
-78.55606842041016 0.8566602468490601 -8.183392524719238 74 204 254
-78.3781967163086 0.8020928502082825 -7.745848178863525 75 204 254
-78.04105377197266 0.7199399471282959 -10.588403701782227 75 205 254
-78.51271057128906 0.8702574372291565 -10.474287986755371 75 204 254
-81.2261734008789 1.846135139465332 -8.323819160461426 74 205 254
-77.65576934814453 0.5991706252098083 -10.906240463256836 74 205 254
-79.23925018310547 1.0497865676879883 -11.175520896911621 74 205 254
-79.41552734375 1.1708396673202515 -8.87971019744873 74 204 254
-79.10444641113281 1.0258653163909912 -10.691821098327637 74 204 254
-80.71668243408203 1.6490823030471802 -7.157255172729492 74 205 254
-79.17198944091797 0.9010331034660339 -3.477701187133789 74 204 254
-78.88804626464844 0.8892766833305359 -5.255107879638672 75 205 254
-81.00558471679688 2.294039011001587 -9.289822578430176 74 205 254
-83.3322982788086 3.1133031845092773 -8.642769813537598 75 204 254
-84.56912994384766 3.541504144668579 -9.203828811645508 75 204 254
-85.53117370605469 4.082672119140625 -8.495100975036621 75 205 254
-85.92626953125 4.189355373382568 -9.005080223083496 75 205 254
-78.1087417602539 1.246443271636963 -10.89033031463623 75 204 254
-80.31074523925781 2.0027194023132324 -9.955049514770508 75 204 254
-83.84638977050781 3.236250638961792 -9.902364730834961 75 205 254
-79.61100769042969 1.7376394271850586 -10.792616844177246 75 204 254
-84.80453491210938 3.6799800395965576 -8.552556037902832 75 204 254
-81.14961242675781 2.4030957221984863 -10.306984901428223 75 205 254
-79.07152557373047 1.5195977687835693 -11.995162010192871 75 205 254
-82.92639923095703 3.002108573913574 -8.874100685119629 75 205 254
-77.92901611328125 1.1993155479431152 -11.762105941772461 75 204 254
-85.3468017578125 3.840646743774414 -9.143477439880371 75 205 254
-77.2626724243164 0.9883381128311157 -11.420893669128418 74 205 254
-77.67694091796875 1.0889381170272827 -11.109668731689453 74 204 254
-82.03363037109375 2.6095874309539795 -9.202254295349121 75 204 254
-83.42591857910156 3.0531396865844727 -10.117905616760254 75 205 254
-84.71100616455078 3.586482524871826 -9.529269218444824 75 205 254
-80.11261749267578 1.9255824089050293 -9.49460220336914 75 204 254
-80.79621887207031 2.1728172302246094 -11.184694290161133 74 205 254
-80.92982482910156 2.2376163005828857 -10.268649101257324 75 204 254
-78.99992370605469 1.541343331336975 -10.503104209899902 75 205 254
-78.33497619628906 1.2704458236694336 -12.297090530395508 74 205 254
-82.49688720703125 2.7673583030700684 -8.985410690307617 75 204 254
-81.90647888183594 2.5734450817108154 -8.756831169128418 75 204 254
-84.24966430664062 3.402566432952881 -9.729096412658691 75 205 254
-80.63554382324219 2.1164932250976562 -10.862786293029785 74 204 254
-85.21075439453125 3.9102251529693604 -8.444098472595215 74 205 254
-85.11322021484375 3.8096606731414795 -8.643686294555664 75 205 254
-79.31805419921875 1.6615514755249023 -9.97301959991455 74 204 254
-78.91765594482422 1.4739094972610474 -11.644583702087402 75 204 254
-80.55409240722656 2.0783004760742188 -9.309584617614746 75 204 254
-82.99580383300781 3.02191424369812 -8.43928050994873 75 204 254
-82.02070617675781 2.6075551509857178 -8.392598152160645 75 205 254
-77.20823669433594 0.9289602041244507 -12.403799057006836 74 204 254
-79.71900939941406 1.7919762134552002 -9.730191230773926 75 204 254
-85.28462982177734 3.8091721534729004 -9.317207336425781 74 205 254
-80.71699523925781 2.14859938621521 -9.80405330657959 74 204 254
-82.85343933105469 2.8473217487335205 -9.945655822753906 75 204 254
-82.58585357666016 2.7534453868865967 -10.473610877990723 75 205 254
-79.94225311279297 1.828728437423706 -11.60427474975586 75 205 254
-77.51927185058594 1.035852074623108 -11.977034568786621 75 205 254
-81.81871032714844 2.533491373062134 -10.772576332092285 74 205 254
-82.41230773925781 2.7020413875579834 -10.123873710632324 75 204 254
-83.68695831298828 3.2033803462982178 -9.554581642150879 75 204 254
-84.12958526611328 3.369466543197632 -9.36120891571045 74 204 254
-79.8009033203125 1.7910977602005005 -11.252050399780273 75 204 254
-82.99630737304688 2.8862268924713135 -10.298559188842773 75 205 254
-81.24369812011719 2.356813907623291 -11.051163673400879 75 205 254
-78.74322509765625 1.4168500900268555 -11.168228149414062 75 204 254
-80.48109436035156 2.064466714859009 -10.408273696899414 74 204 254
-80.4340591430664 2.015096664428711 -9.01269245147705 75 205 254
-78.63664245605469 1.3515188694000244 -12.164900779724121 75 205 254
-82.11259460449219 2.6089770793914795 -10.651114463806152 75 205 254
-77.68621826171875 1.0789073705673218 -10.7358980178833 75 205 254
-78.1162338256836 1.230506420135498 -12.391417503356934 75 205 254
-77.19534301757812 0.9860231280326843 -11.49190616607666 75 204 254
-79.8524398803711 1.831102967262268 -10.127171516418457 75 204 254
-76.99871063232422 0.8154493570327759 -12.92147445678711 74 205 254
-81.36447143554688 2.4024834632873535 -10.040176391601562 75 204 254
-84.94682312011719 3.79254150390625 -8.318520545959473 75 204 254
-85.09716033935547 3.731088161468506 -9.326577186584473 74 205 254
-83.77420043945312 3.2873222827911377 -8.427714347839355 75 204 254
-84.6097183227539 3.6390225887298584 -8.192647933959961 74 204 254
-81.60334777832031 2.4722237586975098 -9.393607139587402 75 204 254
-84.1919174194336 3.4485907554626465 -8.247601509094238 75 204 254
-79.41679382324219 1.6817055940628052 -10.329302787780762 75 204 254
-83.52604675292969 3.171804904937744 -9.107583999633789 75 204 254
-77.08931732177734 0.8964195847511292 -11.889488220214844 75 205 254
-80.2148208618164 1.9427226781845093 -11.068352699279785 74 204 254
-83.28569030761719 3.0247888565063477 -9.729015350341797 75 204 254
-81.92530822753906 2.5705018043518066 -8.41614818572998 74 205 254
-80.5448989868164 2.0801398754119873 -11.439157485961914 75 204 254
-81.61354064941406 2.4881129264831543 -10.88939380645752 75 205 254
-82.22089385986328 2.6530921459198 -9.655481338500977 75 204 254
-81.19254302978516 2.4048104286193848 -10.311417579650879 75 204 254
-77.3424072265625 1.0000512599945068 -11.91627025604248 75 205 254
-84.3855209350586 3.4919703006744385 -8.691954612731934 75 204 254
-81.19718933105469 2.366826057434082 -9.56107234954834 75 204 254
-77.39927673339844 1.0174113512039185 -11.67483901977539 74 204 254
-83.95741271972656 3.3269524574279785 -8.89414119720459 75 204 254
-79.50555419921875 1.6624759435653687 -11.804322242736816 75 205 254
-77.9867935180664 1.204950213432312 -12.05614185333252 74 204 254
-77.59500122070312 1.0730125904083252 -12.204432487487793 74 204 254
-85.705810546875 4.133944988250732 -8.710853576660156 75 205 254
-83.18215942382812 3.0652647018432617 -8.29373836517334 74 204 254
-77.08039855957031 0.9044091701507568 -11.596637725830078 75 205 254
-84.01192474365234 3.3926939964294434 -8.022161483764648 75 205 254
-77.70465087890625 1.1126569509506226 -12.575079917907715 75 205 254
-83.67993927001953 3.272084951400757 -8.17137622833252 75 205 254
-77.86126708984375 1.14323091506958 -10.616459846496582 75 205 254
-77.19345092773438 0.9395219683647156 -12.029685974121094 74 205 254
-81.433349609375 2.4373202323913574 -10.688916206359863 74 205 254
-85.17555236816406 3.8169443607330322 -8.774604797363281 75 205 254
-85.4182357788086 3.934384346008301 -8.833793640136719 75 204 254
-76.97953796386719 0.8120103478431702 -12.698893547058105 75 204 254
-77.28091430664062 0.9523394107818604 -12.756451606750488 75 205 254
-80.33140563964844 1.9782283306121826 -11.427204132080078 75 205 254
-80.54228210449219 1.3517643213272095 -6.558961391448975 75 205 254
-78.1336898803711 0.5795679092407227 -9.661348342895508 74 205 254
-79.0138168334961 0.6996845602989197 -5.708459854125977 75 205 254
-78.67111206054688 0.710770308971405 -7.95199728012085 75 204 254
-77.70390319824219 0.30141276121139526 -7.3913092613220215 75 205 254
-81.40808868408203 1.733350157737732 -7.549664497375488 74 204 254
-79.44117736816406 1.0552393198013306 -8.737896919250488 74 205 254
-80.53096008300781 1.3274866342544556 -6.240190029144287 75 204 254
-78.38716125488281 0.4344157874584198 -5.373888969421387 74 205 254
-79.26360321044922 0.8623374104499817 -6.640405178070068 75 204 254
-78.01463317871094 0.41675275564193726 -7.3231706619262695 74 205 254
-78.18350219726562 0.530653715133667 -8.094367980957031 75 204 254
-78.98442077636719 0.49170345067977905 -3.8519654273986816 75 205 254
-79.18611145019531 0.9329150319099426 -8.241192817687988 75 204 254
-79.32572937011719 0.7655578851699829 -5.0710835456848145 74 205 254
-80.96820068359375 1.5594630241394043 -7.258345127105713 75 205 254
-76.91552734375 0.2435525804758072 -11.875603675842285 75 204 254
-80.51238250732422 1.3887947797775269 -7.250519275665283 74 205 254
-81.19324493408203 1.6493874788284302 -5.746862411499023 75 204 254
-77.43781280517578 0.3575468957424164 -10.366438865661621 74 205 254
-78.95692443847656 0.8676148056983948 -9.403712272644043 74 204 254
-79.0771713256836 0.5616490840911865 -4.096762657165527 75 204 254
-79.27904510498047 0.8865125179290771 -6.886610984802246 75 205 254
-78.79107666015625 0.6900769472122192 -6.781597137451172 75 204 254
-79.1419677734375 0.7833741903305054 -6.163385391235352 75 205 254
-78.44972229003906 0.6716314554214478 -8.951640129089355 75 205 254
-77.45577239990234 0.39499321579933167 -11.112679481506348 74 205 254
-79.57018280029297 0.9456003308296204 -6.036632537841797 75 205 254
-79.45271301269531 0.8647810220718384 -5.578553676605225 75 205 254
-78.0973892211914 0.5498161315917969 -9.172187805175781 74 205 254
-77.93881225585938 0.3096991777420044 -6.342103481292725 75 205 254
-77.70578002929688 0.32297375798225403 -7.736263275146484 75 205 254
-78.67552947998047 0.41617676615715027 -4.264153480529785 74 204 254
-78.3658676147461 0.5336201190948486 -6.920683860778809 75 204 254
-78.87128448486328 0.598982572555542 -5.226301193237305 75 205 254
-78.05516815185547 0.4472827613353729 -7.6064348220825195 75 204 254
-77.77890014648438 0.3745909631252289 -8.258159637451172 74 204 254
-78.41180419921875 0.6985830664634705 -10.21877384185791 75 205 254
-78.48726654052734 0.6118805408477783 -7.455320358276367 75 204 254
-78.89456939697266 0.8315069675445557 -8.917643547058105 75 205 254
-79.07461547851562 0.8690614700317383 -7.792547225952148 75 204 254
-78.9480209350586 0.7864609360694885 -7.2917609214782715 75 204 254
-77.04492950439453 0.24476255476474762 -10.770374298095703 75 205 254
-77.950927734375 0.37338948249816895 -7.109044551849365 75 204 254
-78.37434387207031 0.554365873336792 -7.172213077545166 75 205 254
-79.58355712890625 1.1481586694717407 -9.26700496673584 74 205 254
-78.77217102050781 0.7670727372169495 -8.376404762268066 75 204 254
-77.90541076660156 0.445299357175827 -8.69223403930664 74 204 254
-78.67733764648438 0.6106284856796265 -6.31810998916626 75 205 254
-79.7349624633789 1.0579396486282349 -6.7390313148498535 75 205 254
-80.13658142089844 1.1721534729003906 -6.3217058181762695 75 204 254
-79.93543243408203 1.176067590713501 -7.425047874450684 74 204 254
-79.55681610107422 1.2091134786605835 -10.938305854797363 74 205 254
-78.87551879882812 0.7401066422462463 -7.026944637298584 75 205 254
-79.53123474121094 1.0217995643615723 -7.60594367980957 74 204 254
-76.33209991455078 0.037968315184116364 -13.088391304016113 75 205 254
-79.20274353027344 0.6704550981521606 -4.613982677459717 74 204 254
-77.4959487915039 0.31321197748184204 -8.873751640319824 75 205 254
-80.06591033935547 1.3214350938796997 -9.214469909667969 75 205 254
-79.93978118896484 1.0351405143737793 -5.416618347167969 75 205 254
-79.7224349975586 1.1249334812164307 -8.068690299987793 74 205 254
-76.79224395751953 0.16062955558300018 -11.147350311279297 75 205 254
-77.95401763916016 0.34332722425460815 -6.629693984985352 74 204 254
-81.23664855957031 1.6047451496124268 -5.725955963134766 75 204 254
-83.28569030761719 3.0247888565063477 -9.729015350341797 75 204 254
-78.67475891113281 0.3745771646499634 -3.9437592029571533 75 204 254
-77.94778442382812 0.5727559328079224 -10.354211807250977 75 205 254
-81.92530822753906 2.5705018043518066 -8.41614818572998 74 205 254
-78.31330871582031 0.6069304943084717 -8.573020935058594 74 204 254
-77.1868667602539 0.31276223063468933 -11.772216796875 74 205 254
-80.5448989868164 2.0801398754119873 -11.439157485961914 75 204 254
-81.61354064941406 2.4881129264831543 -10.88939380645752 75 205 254
-78.20513916015625 0.4391985237598419 -6.4660749435424805 75 205 254
-78.7289810180664 0.7706143260002136 -9.537410736083984 75 205 254
-77.51310729980469 0.3460998833179474 -9.391530990600586 74 205 254
-80.0148696899414 1.1558520793914795 -6.670732498168945 75 205 254
-77.2279281616211 0.3172972500324249 -11.205436706542969 75 204 254
-78.36872863769531 0.32622045278549194 -4.491480827331543 75 205 254
-78.14525604248047 0.3932577967643738 -6.0269598960876465 74 205 254
-82.22089385986328 2.6530921459198 -9.655481338500977 75 204 254
-81.19254302978516 2.4048104286193848 -10.311417579650879 75 204 254
-77.3424072265625 1.0000512599945068 -11.91627025604248 75 205 254
-84.3855209350586 3.4919703006744385 -8.691954612731934 75 204 254
-79.39704132080078 0.9445863366127014 -7.152618885040283 75 204 254
-77.56446838378906 0.38493409752845764 -9.739387512207031 74 205 254
-81.19718933105469 2.366826057434082 -9.56107234954834 75 204 254
-79.69662475585938 1.0246320962905884 -6.483378887176514 75 204 254
-77.28826904296875 0.33617064356803894 -12.112741470336914 75 205 254
-80.28065490722656 1.3333195447921753 -7.767712593078613 75 205 254
-77.39927673339844 1.0174113512039185 -11.67483901977539 74 204 254
-83.95741271972656 3.3269524574279785 -8.89414119720459 75 204 254
-79.76768493652344 1.2363502979278564 -9.803614616394043 75 205 254
-79.50555419921875 1.6624759435653687 -11.804322242736816 75 205 254
-77.9867935180664 1.204950213432312 -12.05614185333252 74 204 254
-77.59500122070312 1.0730125904083252 -12.204432487487793 74 204 254
-85.705810546875 4.133944988250732 -8.710853576660156 75 205 254
-83.18215942382812 3.0652647018432617 -8.29373836517334 74 204 254
-78.00726318359375 0.6175661087036133 -10.826658248901367 74 205 254
-77.08039855957031 0.9044091701507568 -11.596637725830078 75 205 254
-77.69535827636719 0.5247210264205933 -11.528669357299805 74 205 254
-84.01192474365234 3.3926939964294434 -8.022161483764648 75 205 254
-77.70465087890625 1.1126569509506226 -12.575079917907715 75 205 254
-83.67993927001953 3.272084951400757 -8.17137622833252 75 205 254
-77.86126708984375 1.14323091506958 -10.616459846496582 75 205 254
-79.91931915283203 1.2364600896835327 -8.559466361999512 74 205 254
-77.19345092773438 0.9395219683647156 -12.029685974121094 74 205 254
-78.53912353515625 0.5249578356742859 -5.866281032562256 75 205 254
-80.15558624267578 1.221660852432251 -6.940155506134033 75 205 254
-81.25225830078125 1.6510024070739746 -7.066962242126465 75 205 254
-79.38235473632812 0.689971387386322 -4.103699207305908 75 205 254
-79.83187866210938 1.1078150272369385 -6.977559566497803 75 204 254
-81.433349609375 2.4373202323913574 -10.688916206359863 74 205 254
-85.17555236816406 3.8169443607330322 -8.774604797363281 75 205 254
-85.4182357788086 3.934384346008301 -8.833793640136719 75 204 254
-78.75812530517578 0.5065687894821167 -4.76126766204834 74 204 254
-77.70486450195312 0.29125088453292847 -7.288959980010986 75 205 254
-80.06060791015625 1.1128084659576416 -5.845235824584961 75 205 254
-76.97953796386719 0.8120103478431702 -12.698893547058105 75 204 254
-80.53177642822266 1.4346070289611816 -7.974274158477783 74 205 254
-77.28091430664062 0.9523394107818604 -12.756451606750488 75 205 254
-80.33140563964844 1.9782283306121826 -11.427204132080078 75 205 254
-83.3322982788086 3.1133031845092773 -8.642769813537598 75 204 254
-85.53117370605469 4.082672119140625 -8.495100975036621 75 205 254
-80.17526245117188 1.3428727388381958 -4.634812355041504 75 205 254
-79.0138168334961 0.6996845602989197 -5.708459854125977 75 205 254
-78.1087417602539 1.246443271636963 -10.89033031463623 75 204 254
-80.36109924316406 1.4320348501205444 -5.093784332275391 75 204 254
-83.84638977050781 3.236250638961792 -9.902364730834961 75 205 254
-78.2101821899414 0.7865681052207947 -11.147499084472656 75 205 254
-77.8388900756836 0.6394899487495422 -8.619935989379883 75 205 254
-78.12364959716797 0.7366088032722473 -8.405675888061523 74 204 254
-79.07152557373047 1.5195977687835693 -11.995162010192871 75 205 254
-77.92901611328125 1.1993155479431152 -11.762105941772461 75 204 254
-85.3468017578125 3.840646743774414 -9.143477439880371 75 205 254
-81.55318450927734 1.9193675518035889 -6.730222702026367 74 204 254
-79.52779388427734 1.1725590229034424 -10.46359920501709 75 205 254
-83.42591857910156 3.0531396865844727 -10.117905616760254 75 205 254
-78.38716125488281 0.4344157874584198 -5.373888969421387 74 205 254
-84.71100616455078 3.586482524871826 -9.529269218444824 75 205 254
-80.11261749267578 1.9255824089050293 -9.49460220336914 75 204 254
-80.79621887207031 2.1728172302246094 -11.184694290161133 74 205 254
-78.99992370605469 1.541343331336975 -10.503104209899902 75 205 254
-81.90647888183594 2.5734450817108154 -8.756831169128418 75 204 254
-80.63554382324219 2.1164932250976562 -10.862786293029785 74 204 254
-85.11322021484375 3.8096606731414795 -8.643686294555664 75 205 254
-79.65930938720703 1.2550511360168457 -8.212678909301758 74 205 254
-77.43781280517578 0.3575468957424164 -10.366438865661621 74 205 254
-77.20823669433594 0.9289602041244507 -12.403799057006836 74 204 254
-78.79107666015625 0.6900769472122192 -6.781597137451172 75 204 254
-79.1419677734375 0.7833741903305054 -6.163385391235352 75 205 254
-80.71699523925781 2.14859938621521 -9.80405330657959 74 204 254
-78.44972229003906 0.6716314554214478 -8.951640129089355 75 205 254
-77.45577239990234 0.39499321579933167 -11.112679481506348 74 205 254
-82.41230773925781 2.7020413875579834 -10.123873710632324 75 204 254
-82.63160705566406 2.3514506816864014 -6.746494770050049 74 205 254
-78.67552947998047 0.41617676615715027 -4.264153480529785 74 204 254
-78.3658676147461 0.5336201190948486 -6.920683860778809 75 204 254
-78.87128448486328 0.598982572555542 -5.226301193237305 75 205 254
-82.99630737304688 2.8862268924713135 -10.298559188842773 75 205 254
-77.77890014648438 0.3745909631252289 -8.258159637451172 74 204 254
-78.41180419921875 0.6985830664634705 -10.21877384185791 75 205 254
-80.14411926269531 1.3947159051895142 -5.8136773109436035 74 204 254
-80.48109436035156 2.064466714859009 -10.408273696899414 74 204 254
-78.48726654052734 0.6118805408477783 -7.455320358276367 75 204 254
-77.68621826171875 1.0789073705673218 -10.7358980178833 75 205 254
-79.47039031982422 1.1716396808624268 -10.100131034851074 75 205 254
-78.54859161376953 0.8656706213951111 -11.604945182800293 74 205 254
-76.99871063232422 0.8154493570327759 -12.92147445678711 74 205 254
-79.7349624633789 1.0579396486282349 -6.7390313148498535 75 205 254
-78.87551879882812 0.7401066422462463 -7.026944637298584 75 205 254
-79.53123474121094 1.0217995643615723 -7.60594367980957 74 204 254
-77.78077697753906 0.6231616735458374 -9.722914695739746 75 205 254
-79.93978118896484 1.0351405143737793 -5.416618347167969 75 205 254
-79.41679382324219 1.6817055940628052 -10.329302787780762 75 204 254
-78.5727767944336 0.8716590404510498 -9.319669723510742 74 205 254
-83.52604675292969 3.171804904937744 -9.107583999633789 75 204 254
-79.42378234863281 1.1625529527664185 -7.750881671905518 74 205 254
-77.08931732177734 0.8964195847511292 -11.889488220214844 75 205 254
-81.92530822753906 2.5705018043518066 -8.41614818572998 74 205 254
-80.5448989868164 2.0801398754119873 -11.439157485961914 75 204 254
-77.51310729980469 0.3460998833179474 -9.391530990600586 74 205 254
-77.99759674072266 0.6944254040718079 -7.967569828033447 75 204 254
-78.14525604248047 0.3932577967643738 -6.0269598960876465 74 205 254
-78.36872863769531 0.32622045278549194 -4.491480827331543 75 205 254
-80.91971588134766 1.734584093093872 -7.621349811553955 74 204 254
-79.69662475585938 1.0246320962905884 -6.483378887176514 75 204 254
-81.1476058959961 1.782335877418518 -6.954277038574219 74 204 254
-79.76768493652344 1.2363502979278564 -9.803614616394043 75 205 254
-85.705810546875 4.133944988250732 -8.710853576660156 75 205 254
-77.69535827636719 0.5247210264205933 -11.528669357299805 74 205 254
-77.19345092773438 0.9395219683647156 -12.029685974121094 74 205 254
-78.55606842041016 0.8566602468490601 -8.183392524719238 74 204 254
-78.04105377197266 0.7199399471282959 -10.588403701782227 75 205 254
-78.51271057128906 0.8702574372291565 -10.474287986755371 75 204 254
-81.2261734008789 1.846135139465332 -8.323819160461426 74 205 254
-79.10444641113281 1.0258653163909912 -10.691821098327637 74 204 254
-76.97953796386719 0.8120103478431702 -12.698893547058105 75 204 254
-80.33140563964844 1.9782283306121826 -11.427204132080078 75 205 254
-78.88804626464844 0.8892766833305359 -5.255107879638672 75 205 254
-81.00558471679688 2.294039011001587 -9.289822578430176 74 205 254
-82.20555114746094 2.210782766342163 -9.41748046875 75 205 254
-82.35985565185547 2.231818437576294 -7.538311958312988 75 205 254
-78.67111206054688 0.710770308971405 -7.95199728012085 75 204 254
-80.31074523925781 2.0027194023132324 -9.955049514770508 75 204 254
-80.9495620727539 1.6994386911392212 -6.481671333312988 74 204 254
-77.63825988769531 0.5788909196853638 -10.454129219055176 75 204 254
-82.92639923095703 3.002108573913574 -8.874100685119629 75 205 254
-78.92991638183594 0.7399880290031433 -2.7871079444885254 74 205 254
-79.74497985839844 1.2888106107711792 -8.619711875915527 75 205 254
-80.53096008300781 1.3274866342544556 -6.240190029144287 75 204 254
-79.88999938964844 1.2112607955932617 -3.296940803527832 75 205 254
-80.64730834960938 1.618168830871582 -8.146683692932129 75 205 254
